//X	Y	Z
-0.24130428	-0.78332382	1.94236994
-0.22398219	-0.79618818	1.94213223
-0.22041522	-0.79854769	1.94208539
-0.20949771	-0.80499500	1.94194722
-0.19686659	-0.80845129	1.94181514
-0.19175626	-0.80929404	1.94176567
-0.16662410	-0.81339866	1.94152224
-0.14292727	-0.81698340	1.94129479
-0.13233690	-0.81851614	1.94119370
-0.00716579	-0.83503306	1.94000912
0.12736289	-0.73451889	1.93955970
0.13170987	-0.73140335	1.93954420
0.16087040	-0.70395494	1.93948627
0.17019579	-0.69512582	1.93946803
0.18564361	-0.67642361	1.93946636
0.20026174	-0.65870774	1.93946481
0.20106697	-0.65749633	1.93946636
0.22069743	-0.62721431	1.93950951
0.22312152	-0.62093413	1.93953252
0.22852580	-0.60479420	1.93959880
0.23436356	-0.58444428	1.93969059
0.23520774	-0.57884872	1.93972242
0.23661177	-0.56909251	1.93977833
0.23637368	-0.55985105	1.93984473
0.23330095	-0.54586875	1.93996835
0.22744165	-0.52011538	1.94019783
0.22638147	-0.51747978	1.94022524
0.22479178	-0.51333004	1.94026780
0.22298306	-0.51010215	1.94030571
0.22283164	-0.50972563	1.94030964
0.22086269	-0.50483090	1.94036055
0.22040838	-0.50370139	1.94037223
0.21539937	-0.49077117	1.94050515
0.21494502	-0.48964161	1.94051683
0.21366696	-0.48753527	1.94054246
0.21321262	-0.48640567	1.94055426
0.21275824	-0.48527616	1.94056594
0.21154660	-0.48226404	1.94059730
0.21064663	-0.48129526	1.94061172
0.20929345	-0.47880435	1.94064069
0.20906569	-0.47843587	1.94064510
0.20824197	-0.47745910	1.94065905
0.20764376	-0.47763604	1.94066286
0.20689747	-0.47625858	1.94067883
0.20628697	-0.47632301	1.94068360
0.20551641	-0.47472042	1.94070137
0.20422615	-0.47250161	1.94072783
0.20364237	-0.47200584	1.94073629
0.20313498	-0.47150195	1.94074416
0.20271909	-0.47041947	1.94075525
0.20249133	-0.47005099	1.94075978
0.20189661	-0.46904999	1.94077182
0.20143989	-0.46870571	1.94077814
0.20123775	-0.46816963	1.94078350
0.20047814	-0.46707234	1.94079769
0.20003489	-0.46644789	1.94080579
0.19976924	-0.46613449	1.94081032
0.19888496	-0.46410039	1.94083202
0.19858092	-0.46373999	1.94083714
0.19807473	-0.46284351	1.94084764
0.19769430	-0.46249110	1.94085336
0.19737804	-0.46201822	1.94085932
0.19718808	-0.46159464	1.94086397
0.19651823	-0.46020913	1.94087934
0.19588327	-0.46004850	1.94088590
0.19542894	-0.45891899	1.94089758
0.19511265	-0.45844609	1.94090366
0.19463205	-0.45738196	1.94091511
0.19405016	-0.45659563	1.94092560
0.19371980	-0.45630074	1.94093049
0.19330391	-0.45521820	1.94094157
0.19276100	-0.45398420	1.94095480
0.19238114	-0.45313713	1.94096386
0.19154753	-0.45126259	1.94098413
0.19016010	-0.44764888	1.94102108
0.18926118	-0.44628754	1.94103825
0.18894610	-0.44542193	1.94104695
0.18837455	-0.44503868	1.94105458
0.18813461	-0.44455770	1.94105995
0.18781947	-0.44369215	1.94106865
0.18722588	-0.44229859	1.94108343
0.18679364	-0.44217929	1.94108796
0.18611036	-0.44107392	1.94110155
0.18542939	-0.43918326	1.94112051
0.18527791	-0.43880671	1.94112444
0.18488413	-0.43873447	1.94112825
0.18442747	-0.43839020	1.94113457
0.18346693	-0.43636414	1.94115686
0.18235138	-0.43513942	1.94117498
0.18198556	-0.43411434	1.94118524
0.18055370	-0.43241668	1.94120932
0.17906764	-0.43173748	1.94122672
0.17815778	-0.42987093	1.94124746
0.17724320	-0.42957491	1.94125736
0.17658436	-0.42869455	1.94126916
0.17621741	-0.42806205	1.94127667
0.17479661	-0.42686954	1.94129717
0.17352840	-0.42566097	1.94131637
0.17307052	-0.42570931	1.94131994
0.17268899	-0.42574957	1.94132292
0.17218395	-0.42446047	1.94133627
0.17149952	-0.42374766	1.94134700
0.17120764	-0.42349982	1.94135129
0.17067465	-0.42316347	1.94135821
0.16977581	-0.42180216	1.94137537
0.16925626	-0.42118579	1.94138408
0.16880071	-0.42044884	1.94139314
0.16776147	-0.41921607	1.94141054
0.16611297	-0.41765511	1.94143546
0.16536433	-0.41706294	1.94144607
0.16454068	-0.41608614	1.94145989
0.16386849	-0.41548586	1.94146979
0.16214594	-0.41314772	1.94150078
0.16087431	-0.41311693	1.94151187
0.16041881	-0.41238007	1.94152093
0.16005181	-0.41174755	1.94152844
0.15892290	-0.41080296	1.94154465
0.15743911	-0.40933841	1.94156754
0.15713620	-0.40858537	1.94157541
0.15638533	-0.40877843	1.94158041
0.15594323	-0.40776139	1.94159126
0.15540904	-0.40781772	1.94159544
0.15502748	-0.40785795	1.94159842
0.15444380	-0.40736216	1.94160688
0.15383570	-0.40664130	1.94161713
0.15325317	-0.40575290	1.94162834
0.15273231	-0.40552920	1.94163430
0.15211031	-0.40558317	1.94163918
0.15169263	-0.40479112	1.94164836
0.15119632	-0.40479237	1.94165254
0.15099479	-0.40435845	1.94165730
0.15033714	-0.40308544	1.94167173
0.14965031	-0.40315789	1.94167709
0.14929488	-0.40253583	1.94168448
0.14831974	-0.40118253	1.94170225
0.14749488	-0.40059835	1.94171333
0.14688793	-0.39948490	1.94172633
0.14650987	-0.39834732	1.94173753
0.14479369	-0.39808476	1.94175398
0.14435038	-0.39746040	1.94176209
0.14388263	-0.39661092	1.94177198
0.14336303	-0.39599454	1.94178081
0.14261566	-0.39500970	1.94179404
0.14206925	-0.39495355	1.94179904
0.14171566	-0.39404094	1.94180846
0.14132422	-0.39318347	1.94181776
0.14103238	-0.39293557	1.94182193
0.14021978	-0.39246392	1.94183218
0.13997979	-0.39198291	1.94183755
0.13939607	-0.39148712	1.94184601
0.13862425	-0.39027727	1.94186103
0.13811693	-0.38977337	1.94186890
0.13767244	-0.38954157	1.94187438
0.13738164	-0.38890105	1.94188130
0.13700360	-0.38776350	1.94189239
0.13601509	-0.38669029	1.94190836
0.13549665	-0.38568127	1.94191980
0.13504228	-0.38455170	1.94193161
0.13377182	-0.38412839	1.94194531
0.13310076	-0.38313547	1.94195795
0.13108411	-0.38133469	1.94198775
0.13048585	-0.38151154	1.94199169
0.12981352	-0.38091135	1.94200158
0.12883490	-0.38073587	1.94201112
0.12853198	-0.37998283	1.94201899
0.12786442	-0.37781209	1.94203985
0.12673438	-0.37726012	1.94205332
0.12621590	-0.37625110	1.94206476
0.12524194	-0.37450522	1.94208527
0.12412295	-0.37445837	1.94209516
0.12352819	-0.37345743	1.94210720
0.12255190	-0.37249672	1.94212222
0.12209752	-0.37136716	1.94213402
0.12187092	-0.37060606	1.94214118
0.12051418	-0.36929306	1.94216192
0.11999571	-0.36828405	1.94217348
0.11938991	-0.36677802	1.94218910
0.11862797	-0.36646587	1.94219780
0.11803323	-0.36546493	1.94220984
0.11757888	-0.36433539	1.94222152
0.11667015	-0.36207628	1.94224513
0.11613831	-0.36134738	1.94225466
0.11568396	-0.36021784	1.94226646
0.11539329	-0.35957727	1.94227338
0.11500066	-0.35911241	1.94227993
0.11441814	-0.35822397	1.94229114
0.11411523	-0.35747096	1.94229901
0.11381234	-0.35671794	1.94230688
0.11213762	-0.35128587	1.94235897
0.11198618	-0.35090935	1.94236290
0.11145432	-0.35018045	1.94237256
0.11032017	-0.34676766	1.94240594
0.10933398	-0.34490922	1.94242728
0.10887960	-0.34377965	1.94243908
0.10698704	-0.33887687	1.94248939
0.10631365	-0.33866921	1.94249666
0.10533851	-0.33731592	1.94251430
0.10496048	-0.33617833	1.94252551
0.10421193	-0.33558610	1.94253600
0.10375758	-0.33445650	1.94254780
0.10128645	-0.33152619	1.94258928
0.10046275	-0.33054939	1.94260311
0.10000492	-0.33059767	1.94260669
0.09918476	-0.32844305	1.94262874
0.09835989	-0.32785887	1.94263983
0.09752517	-0.32637694	1.94265735
0.09700554	-0.32576057	1.94266605
0.09677893	-0.32499945	1.94267333
0.09644926	-0.32480666	1.94267750
0.09594423	-0.32351756	1.94269073
0.09547412	-0.32345337	1.94269514
0.09466384	-0.32219648	1.94271088
0.09420949	-0.32106692	1.94272268
0.09391880	-0.32042637	1.94272959
0.09353958	-0.31968141	1.94273806
0.09293377	-0.31817532	1.94275367
0.09247825	-0.31743839	1.94276273
0.09195866	-0.31682202	1.94277143
0.09142447	-0.31687838	1.94277561
0.09105296	-0.31616491	1.94278371
0.09081866	-0.31537229	1.94279122
0.09045401	-0.31395462	1.94280422
0.08954294	-0.31248072	1.94282234
0.08916912	-0.31255251	1.94282496
0.08864531	-0.31072673	1.94284225
0.08826726	-0.30958915	1.94285333
0.08757830	-0.30879539	1.94286478
0.08718567	-0.30833051	1.94287133
0.08682101	-0.30691278	1.94288433
0.08631690	-0.30688256	1.94288886
0.08589657	-0.30571902	1.94290054
0.08569444	-0.30518293	1.94290602
0.08516376	-0.30406144	1.94291842
0.08470824	-0.30332449	1.94292736
0.08425388	-0.30219492	1.94293916
0.08378729	-0.30095288	1.94295180
0.08363584	-0.30057639	1.94295573
0.08334516	-0.29993582	1.94296265
0.08303004	-0.29907030	1.94297135
0.08227453	-0.29689723	1.94299293
0.08206018	-0.29624864	1.94299924
0.08189648	-0.29575959	1.94300413
0.08155512	-0.29495952	1.94301260
0.08144151	-0.29452792	1.94301653
0.08113745	-0.29416752	1.94302166
0.08084854	-0.29323649	1.94303060
0.08055788	-0.29259598	1.94303763
0.08012562	-0.29247665	1.94304204
0.07973535	-0.29122654	1.94305408
0.07943130	-0.29086617	1.94305921
0.07893848	-0.28968954	1.94307160
0.07851907	-0.28978488	1.94307458
0.07806121	-0.28983319	1.94307816
0.07782178	-0.28885749	1.94308698
0.07765809	-0.28836846	1.94309175
0.07726432	-0.28829619	1.94309568
0.07693463	-0.28810334	1.94309986
0.07638106	-0.28755781	1.94310832
0.07618843	-0.28672591	1.94311583
0.07548871	-0.28433549	1.94313848
0.07526210	-0.28357440	1.94314563
0.07479667	-0.28193972	1.94316101
0.07402717	-0.27994460	1.94318151
0.07344349	-0.27944881	1.94318998
0.07305205	-0.27859131	1.94319928
0.07246953	-0.27770287	1.94321036
0.07221732	-0.27710938	1.94321668
0.07198954	-0.27674091	1.94322121
0.07149440	-0.27634957	1.94322813
0.07130627	-0.27563551	1.94323480
0.07077675	-0.27412140	1.94324982
0.07034451	-0.27400213	1.94325435
0.07016861	-0.27340055	1.94326007
0.07003055	-0.27274397	1.94326580
0.06956047	-0.27267972	1.94327021
0.06914277	-0.27188772	1.94327939
0.06895465	-0.27117366	1.94328594
0.06881730	-0.27061912	1.94329095
0.06859069	-0.26985800	1.94329822
0.06791964	-0.26886514	1.94331086
0.06724860	-0.26787224	1.94332349
0.06665267	-0.26726392	1.94333279
0.06560113	-0.26591870	1.94335115
0.06515668	-0.26568687	1.94335663
0.06478852	-0.26544702	1.94336140
0.06442069	-0.26411566	1.94337380
0.06396632	-0.26298612	1.94338560
0.06361037	-0.26285872	1.94338953
0.06305526	-0.26151222	1.94340360
0.06229801	-0.25962964	1.94342315
0.06199508	-0.25887662	1.94343102
0.06138694	-0.25815576	1.94344127
0.06085279	-0.25821212	1.94344544
0.06055104	-0.25706646	1.94345593
0.06001921	-0.25633758	1.94346559
0.05952594	-0.25565568	1.94347453
0.05917224	-0.25474316	1.94348395
0.05847672	-0.25352526	1.94349837
0.05801887	-0.25357354	1.94350195
0.05779344	-0.25241980	1.94351196
0.05733557	-0.25246814	1.94351554
0.05707052	-0.25166002	1.94352341
0.05684276	-0.25129154	1.94352794
0.05638725	-0.25055459	1.94353688
0.05605755	-0.25036177	1.94354105
0.05550253	-0.24901521	1.94355524
0.05506029	-0.24799822	1.94356608
0.05446554	-0.24699727	1.94357812
0.05415156	-0.24573912	1.94358957
0.05382313	-0.24515364	1.94359648
0.05338334	-0.24335134	1.94361281
0.05290103	-0.24317463	1.94361806
0.05256189	-0.24158937	1.94363201
0.05195493	-0.24047589	1.94364500
0.05149939	-0.23973897	1.94365406
0.05118319	-0.23926599	1.94366002
0.05074096	-0.23824900	1.94367087
0.05051320	-0.23788053	1.94367540
0.04986846	-0.23682211	1.94368827
0.04951487	-0.23590954	1.94369769
0.04918519	-0.23571673	1.94370174
0.04895975	-0.23456301	1.94371176
0.04863007	-0.23437019	1.94371593
0.04821471	-0.23279293	1.94373047
0.04765960	-0.23144642	1.94374454
0.04710446	-0.23009990	1.94375873
0.04672292	-0.23014013	1.94376171
0.04650970	-0.22909895	1.94377077
0.04633380	-0.22849742	1.94377649
0.04590507	-0.22720024	1.94378912
0.04560099	-0.22683984	1.94379425
0.04499403	-0.22572640	1.94380724
0.04404218	-0.22499071	1.94382048
0.04354762	-0.22470149	1.94382668
0.04319522	-0.22339627	1.94383883
0.04272512	-0.22333206	1.94384325
0.04230746	-0.22254004	1.94385231
0.04222009	-0.22204296	1.94385660
0.04147270	-0.22105813	1.94386983
0.04108010	-0.22059324	1.94387639
0.04049747	-0.21970487	1.94388759
0.03988701	-0.21976925	1.94389236
0.03946934	-0.21897723	1.94390142
0.03908895	-0.21862486	1.94390714
0.03862307	-0.21748489	1.94391906
0.03779939	-0.21650809	1.94393289
0.03712834	-0.21551518	1.94394553
0.03674912	-0.21477023	1.94395399
0.03585995	-0.21370983	1.94396889
0.03548089	-0.21356165	1.94397318
0.03531847	-0.21267997	1.94398069
0.03460519	-0.21222112	1.94398999
0.03427799	-0.21183987	1.94399548
0.03378152	-0.21124433	1.94400382
0.03338773	-0.21117207	1.94400775
0.03316178	-0.21051309	1.94401431
0.03309823	-0.21013893	1.94401741
0.03277102	-0.20975767	1.94402289
0.03237782	-0.20919067	1.94403017
0.03217557	-0.20865466	1.94403565
0.03191122	-0.20794863	1.94404280
0.03165714	-0.20764565	1.94404709
0.03141786	-0.20726676	1.94405174
0.03122796	-0.20684320	1.94405639
0.03117903	-0.20639317	1.94405985
0.03069961	-0.20493646	1.94407415
0.02996445	-0.20406415	1.94408655
0.02941166	-0.20193237	1.94410610
0.02863633	-0.20190038	1.94411290
0.02843653	-0.20057906	1.94412386
0.02813363	-0.19982605	1.94413161
0.02765133	-0.19964932	1.94413698
0.02752548	-0.19910519	1.94414186
0.02715848	-0.19847271	1.94414937
0.02707112	-0.19797564	1.94415367
0.02640122	-0.19659014	1.94416904
0.02512077	-0.19526906	1.94418919
0.02503350	-0.19477196	1.94419336
0.02450050	-0.19443569	1.94420028
0.02414564	-0.19391577	1.94420695
0.02314078	-0.19380578	1.94421625
0.02304233	-0.19280356	1.94422412
0.02242197	-0.19197023	1.94423521
0.02163381	-0.19172357	1.94424367
0.02127967	-0.19130574	1.94424951
0.02089752	-0.19124387	1.94425321
0.02059405	-0.19098558	1.94425762
0.02054568	-0.19004078	1.94426465
0.02025503	-0.18940026	1.94427156
0.01951987	-0.18852794	1.94428396
0.01903873	-0.18795858	1.94429207
0.01856865	-0.18789437	1.94429648
0.01829020	-0.18736637	1.94430256
0.01815214	-0.18670975	1.94430828
0.01750427	-0.18633451	1.94431651
0.01746885	-0.18560433	1.94432187
0.01713916	-0.18541150	1.94432604
0.01693701	-0.18487546	1.94433141
0.01641553	-0.18454963	1.94433820
0.01626594	-0.18388256	1.94434416
0.01563453	-0.18254408	1.94435883
0.01554716	-0.18204701	1.94436300
0.01505201	-0.18165566	1.94437003
0.01479978	-0.18106216	1.94437623
0.01440530	-0.18088782	1.94438088
0.01398834	-0.18019789	1.94438922
0.01388874	-0.17958827	1.94439435
0.01340572	-0.17930949	1.94440043
0.01338252	-0.17869182	1.94440484
0.01319251	-0.17826830	1.94440949
0.01290183	-0.17762777	1.94441640
0.01230707	-0.17662682	1.94442844
0.01185272	-0.17549726	1.94444025
0.01158826	-0.17479128	1.94444740
0.01082690	-0.17398444	1.94445956
0.01019734	-0.17235540	1.94447625
0.01283429	0.00066068	1.94565880
0.01298807	0.00106943	1.94566035
0.01228559	0.00386819	1.94568574
0.01212130	0.00445936	1.94569135
0.01206132	0.00541455	1.94569850
0.01234337	0.00606441	1.94570065
0.01136415	0.01027852	1.94573832
0.01151793	0.01068725	1.94573987
0.01134202	0.01128882	1.94574559
0.01163623	0.01182615	1.94574678
0.01191697	0.01208332	1.94574618
0.01227757	0.01352647	1.94575310
0.01188845	0.01516925	1.94576788
0.01098207	0.01821356	1.94579685
0.01179828	0.01891979	1.94579482
0.01236331	0.02061208	1.94580173
0.01213788	0.02176578	1.94581175
0.01271399	0.02295297	1.94581509
0.01270539	0.02424335	1.94582415
0.01262032	0.02552569	1.94583380
0.01276307	0.02643951	1.94583893
0.01290693	0.02774598	1.94584680
0.01260519	0.02889164	1.94585741
0.01319120	0.02918105	1.94585431
0.01332286	0.03060003	1.94586313
0.01316151	0.03187431	1.94587338
0.01337072	0.03369399	1.94588423
0.01351228	0.03421521	1.94588673
0.01297405	0.03701970	1.94591081
0.01333348	0.03807022	1.94591510
0.01368414	0.04041111	1.94592834
0.01209798	0.04573870	1.94597900
0.01253381	0.04679730	1.94598269
0.01258682	0.04742300	1.94598663
0.01136643	0.05172549	1.94602692
0.00240271	0.08599061	1.94634223
0.00225246	0.08675978	1.94634891
0.00247149	0.08768168	1.94635344
0.00139268	0.09250541	1.94639623
-0.00042596	0.09663102	1.94644046
-0.00423150	0.10380071	1.94652295
-0.00676426	0.10739577	1.94656968
-0.04952309	0.14570390	1.94720185
-0.05180827	0.14713497	1.94723129
-0.05359845	0.14817467	1.94725382
-0.12506267	0.16792417	1.94800198
-0.12699431	0.16844267	1.94802213
-0.12922022	0.16842382	1.94804108
-0.14217466	0.15818761	1.94808042
-0.14111625	0.15526144	1.94805098
-0.14559646	0.14983962	1.94805157
-0.15178412	0.14283000	1.94805562
-0.15996404	0.13401958	1.94806409
-0.16339618	0.13001123	1.94806552
-0.18241602	0.10766685	1.94807243
-0.23991209	0.02951874	1.94801939
-0.34612691	-0.04929428	1.94837809
-0.42281172	-0.18355463	1.94809818
-0.42621383	-0.19369809	1.94805658
-0.42654884	-0.19497360	1.94805062
-0.42343241	-0.21540764	1.94788158
-0.42274705	-0.21966444	1.94784606
-0.42229271	-0.22019713	1.94783854
-0.42210275	-0.22062071	1.94783390
-0.42179984	-0.22197059	1.94782197
-0.42151123	-0.22339629	1.94780958
-0.42106068	-0.22510689	1.94779384
-0.42036748	-0.22711004	1.94777393
-0.42005235	-0.22797561	1.94776523
-0.41961020	-0.22899266	1.94775438
-0.41911560	-0.22987874	1.94774389
-0.41868404	-0.22989592	1.94774008
-0.41855878	-0.23033790	1.94773602
-0.41823083	-0.23141804	1.94772565
-0.41752362	-0.23324321	1.94770694
-0.41716948	-0.23366109	1.94770098
-0.41681355	-0.23378843	1.94769704
-0.41653740	-0.23510171	1.94768548
-0.41595256	-0.23520488	1.94767976
-0.41532874	-0.23879693	1.94764948
-0.41399419	-0.23909974	1.94763589
-0.41331437	-0.24138303	1.94761419
-0.41130334	-0.24121027	1.94759822
-0.41094938	-0.24162820	1.94759238
-0.41004509	-0.24152112	1.94758534
-0.40930939	-0.24189872	1.94757640
-0.40869826	-0.24193643	1.94757092
-0.40848690	-0.24326812	1.94755983
-0.40698749	-0.24366732	1.94754422
-0.40585741	-0.24421930	1.94753075
-0.40540069	-0.24456362	1.94752443
-0.40480185	-0.24448884	1.94751990
-0.40429395	-0.24449795	1.94751549
-0.40373272	-0.24447818	1.94751084
-0.40342948	-0.24473654	1.94750643
-0.40317723	-0.24533004	1.94750011
-0.40257838	-0.24525526	1.94749558
-0.40215933	-0.24565458	1.94748914
-0.40164056	-0.24616893	1.94748116
-0.40123805	-0.24753155	1.94746828
-0.40059030	-0.24790677	1.94746006
-0.39930761	-0.24844268	1.94744539
-0.39858234	-0.24838035	1.94743967
-0.39841866	-0.24886937	1.94743478
-0.39811960	-0.25133181	1.94741511
-0.39720589	-0.25148892	1.94740617
-0.39674920	-0.25183323	1.94739985
-0.39617836	-0.25215128	1.94739282
-0.39602780	-0.25351721	1.94738197
-0.39542079	-0.25463068	1.94736910
-0.39489365	-0.25693002	1.94734859
-0.39426070	-0.25734437	1.94734025
-0.39389873	-0.26007882	1.94731808
-0.39246923	-0.26256171	1.94728863
-0.39169765	-0.26317477	1.94727778
-0.39094156	-0.26545000	1.94725549
-0.39042428	-0.26685163	1.94724131
-0.39004508	-0.26759654	1.94723284
-0.38965803	-0.27062136	1.94720840
-0.38912505	-0.27095759	1.94720161
-0.38881457	-0.27339363	1.94718194
-0.38768798	-0.27512345	1.94716024
-0.38738391	-0.27548385	1.94715512
-0.38677809	-0.27698994	1.94713950
-0.38655701	-0.27862257	1.94712627
-0.38617021	-0.28105053	1.94710600
-0.37634245	-0.45268899	1.94582665
-0.37659258	-0.45524687	1.94581091
-0.37274367	-0.47839314	1.94561684
-0.37248737	-0.48184744	1.94559062
-0.36920142	-0.50140429	1.94542623
-0.36921710	-0.50246960	1.94541895
-0.36934644	-0.50310338	1.94541574
-0.36964059	-0.50364065	1.94541442
-0.36958200	-0.50498855	1.94540453
-0.36984992	-0.50546032	1.94540358
-0.36966532	-0.50735229	1.94538879
-0.36955351	-0.50807440	1.94538283
-0.36949170	-0.50873905	1.94537771
-0.36939329	-0.50974131	1.94536984
-0.37088275	-0.51023978	1.94537914
-0.35948640	-0.57564348	1.94482625
-0.35915145	-0.57830441	1.94480479
-0.35911652	-0.57952935	1.94479597
-0.35932216	-0.58017117	1.94479322
-0.35899946	-0.58271968	1.94477272
-0.35869887	-0.58425796	1.94475949
-0.35768181	-0.58841705	1.94472182
-0.35205087	-0.60976326	1.94452500
-0.34693414	-0.62902480	1.94434714
-0.34046304	-0.64585108	1.94417465
-0.33801413	-0.65170783	1.94411290
-0.33726797	-0.65308529	1.94409692
-0.31954879	-0.68572068	1.94371831
-0.31606624	-0.69143343	1.94364870
-0.31448412	-0.69390023	1.94361806
-0.25622252	-0.76681495	1.94261229
-0.24682067	-0.77835971	1.94245160
-0.24517216	-0.77992070	1.94242668
-0.24248308	-0.78232175	1.94238698
