//X	Y	Z
-0.18871044	0.09732497	2.43569207
-0.18949692	0.09657225	2.43568802
-0.18992844	0.09505516	2.43569040
-0.19170853	0.09478909	2.43567538
-0.19646922	0.09315620	2.43563867
-0.19943704	0.09155951	2.43561816
-0.20338851	0.09138367	2.43558288
-0.20417464	0.09152915	2.43557501
-0.20477247	0.09029741	2.43557477
-0.20773354	0.09086460	2.43554521
-0.20793088	0.09027706	2.43554592
-0.20832631	0.08916838	2.43554688
-0.21168606	0.08985694	2.43551326
-0.21287164	0.08832725	2.43550897
-0.21385202	0.08851812	2.43549919
-0.21444224	0.08752114	2.43549800
-0.26321584	0.09933002	2.43500209
-0.26716581	0.09902140	2.43496728
-0.26815188	0.09788024	2.43496323
-0.27625641	0.09920181	2.43488336
-0.29569992	0.10216706	2.43469310
-0.29748660	0.10249814	2.43467546
-0.30121589	0.10341532	2.43463731
-0.30401880	0.10166594	2.43461919
-0.33054766	0.10590512	2.43435860
-0.34529907	0.10562910	2.43422484
-0.34609288	0.10367717	2.43422580
-0.35246855	0.10535075	2.43416047
-0.35857898	0.10413727	2.43410969
-0.36232775	0.10312004	2.43407965
-0.36882961	0.10508983	2.43401194
-0.52972507	0.16530696	2.43228722
-0.53426194	0.16649684	2.43224072
-0.53505039	0.16684145	2.43223190
-0.60998040	0.18239537	2.43148112
-0.61036867	0.18248606	2.43147731
-0.61077100	0.18293908	2.43147182
-0.61135757	0.18347304	2.43146420
-0.61135435	0.18410589	2.43146157
-0.61195081	0.18460409	2.43145394
-0.61234939	0.18472518	2.43144965
-0.61273289	0.18531610	2.43144369
-0.61312914	0.18613650	2.43143678
-0.61351478	0.18692626	2.43142986
-0.61391354	0.18704759	2.43142581
-0.61450016	0.18758157	2.43141818
-0.61548823	0.18850200	2.43140507
-0.61567998	0.18924676	2.43140030
-0.61666286	0.19060121	2.43138552
-0.61726594	0.19079809	2.43137932
-0.61725104	0.19223215	2.43137336
-0.61764508	0.19285353	2.43136716
-0.61863732	0.19320771	2.43135667
-0.61862874	0.19427446	2.43135214
-0.61882651	0.19465150	2.43134880
-0.61921757	0.19500753	2.43134379
-0.61980784	0.19587328	2.43133473
-0.62039876	0.19680525	2.43132544
-0.62158567	0.19727077	2.43131256
-0.62177646	0.19794901	2.43130803
-0.62276888	0.19830319	2.43129730
-0.62315995	0.19865926	2.43129230
-0.62315261	0.19985843	2.43128729
-0.62494147	0.20038866	2.43126869
-0.62492704	0.20092459	2.43126655
-0.62492311	0.20149116	2.43126440
-0.62630570	0.20213489	2.43124890
-0.62649721	0.20287935	2.43124413
-0.62748182	0.20346825	2.43123269
-0.62866342	0.20436776	2.43121791
-0.62965488	0.20465548	2.43120766
-0.62965012	0.20515557	2.43120575
-0.63004130	0.20551179	2.43120050
-0.63083327	0.20618801	2.43119049
-0.63102484	0.20693246	2.43118572
-0.63240528	0.20737724	2.43117118
-0.63240129	0.20794359	2.43116879
-0.63338733	0.20866524	2.43115664
-0.63496399	0.20935436	2.43113947
-0.63535511	0.20971027	2.43113422
-0.63594538	0.21057606	2.43112540
-0.63633716	0.21099831	2.43111992
-0.63791317	0.21162122	2.43110299
-0.64027655	0.21252191	2.43107748
-0.64224923	0.21306697	2.43105721
-0.64224589	0.21369976	2.43105459
-0.64342749	0.21459928	2.43104005
-0.64401627	0.21533233	2.43103147
-0.64480543	0.21574338	2.43102264
-0.64618176	0.21675445	2.43100572
-0.64697373	0.21743068	2.43099570
-0.64716542	0.21817535	2.43099070
-0.64874136	0.21879803	2.43097377
-0.64953178	0.21934152	2.43096423
-0.65071744	0.21967469	2.43095183
-0.65070647	0.22054219	2.43094850
-0.65188885	0.22150815	2.43093348
-0.65326667	0.22265199	2.43091607
-0.65484190	0.22320835	2.43089938
-0.65602958	0.22374047	2.43088627
-0.65700746	0.22463056	2.43087363
-0.65838856	0.22514157	2.43085885
-0.65838468	0.22570822	2.43085647
-0.66015685	0.22657512	2.43083668
-0.66075176	0.22694080	2.43082952
-0.66173422	0.22733055	2.43081903
-0.66173095	0.22796334	2.43081641
-0.66389972	0.22875270	2.43079329
-0.66508269	0.22978489	2.43077803
-0.66527361	0.23046306	2.43077350
-0.66645992	0.23086250	2.43076086
-0.66684771	0.23185134	2.43075323
-0.66724646	0.23197256	2.43074894
-0.66842473	0.23350488	2.43073177
-0.67000079	0.23412780	2.43071485
-0.66979796	0.23514906	2.43071246
-0.67334580	0.23625055	2.43067527
-0.67511714	0.23705107	2.43065572
-0.67550963	0.23753966	2.43065000
-0.67885590	0.23883076	2.43061399
-0.68062800	0.23969768	2.43059421
-0.68338889	0.24058731	2.43056512
-0.68495941	0.24164388	2.43054628
-0.68574786	0.24198844	2.43053770
-0.68810982	0.24275643	2.43051291
-0.69047344	0.24365747	2.43048739
-0.69579148	0.24639136	2.43042731
-0.69736463	0.24861155	2.43040371
-0.70505434	0.24738802	2.43033838
-0.73008168	0.23362173	2.43016744
-0.73165911	0.23251446	2.43015766
-0.73836243	0.22774194	2.43011642
-0.75591445	0.21337685	2.43001628
-0.75847757	0.21016379	2.43000627
-0.76301825	0.20423450	2.42998958
-0.76380599	0.20265022	2.42998910
-0.76913726	0.19167633	2.42998648
-0.77111495	0.18523484	2.42999530
-0.77131879	0.18151887	2.43000913
-0.77092993	0.17949918	2.43002129
-0.77151948	0.17657308	2.43002820
-0.77172399	0.17106070	2.43004942
-0.77212131	0.16918650	2.43005371
-0.77192390	0.16791126	2.43006086
-0.77153409	0.16672361	2.43006945
-0.77153647	0.16602427	2.43007231
-0.77134591	0.16444780	2.43008065
-0.77094591	0.16419408	2.43008542
-0.77074760	0.16375084	2.43008900
-0.77055442	0.16287345	2.43009448
-0.77015764	0.16198683	2.43010187
-0.76918423	0.16149488	2.43011284
-0.76917589	0.15980048	2.43011999
-0.76878631	0.15771446	2.43013239
-0.76839435	0.15729207	2.43013763
-0.76800466	0.15706871	2.43014216
-0.76760840	0.15528397	2.43015337
-0.76740980	0.15484045	2.43015695
-0.76701844	0.15352000	2.43016624
-0.76682550	0.15264291	2.43017173
-0.76603347	0.15196665	2.43018174
-0.76564574	0.15097785	2.43018937
-0.76506245	0.15077534	2.43019557
-0.76446331	0.15001190	2.43020439
-0.76408255	0.14968635	2.43020916
-0.76389140	0.14804368	2.43021774
-0.76329225	0.14728022	2.43022656
-0.76290929	0.14675552	2.43023229
-0.76251251	0.14586890	2.43023944
-0.76211232	0.14561491	2.43024421
-0.76172447	0.14462614	2.43025208
-0.76132369	0.14430593	2.43025708
-0.76094007	0.14371501	2.43026304
-0.76054007	0.14346126	2.43026781
-0.76014996	0.14227322	2.43027616
-0.76015317	0.14164048	2.43027878
-0.75995409	0.14113073	2.43028283
-0.75956523	0.14097388	2.43028712
-0.75941563	0.13945325	2.43029475
-0.81372118	-0.02401543	2.43048501
-0.81707960	-0.03277318	2.43049121
-0.82403976	-0.08581412	2.43065047
-0.82424438	-0.09132637	2.43067169
-0.82426083	-0.10380416	2.43072414
-0.82407105	-0.10717694	2.43073988
-0.82290006	-0.11177137	2.43076992
-0.82152176	-0.11387981	2.43079138
-0.82016051	-0.11722335	2.43081808
-0.79404539	-0.22798207	2.43152237
-0.79202652	-0.23001169	2.43154931
-0.79061091	-0.23184416	2.43157005
-0.78982699	-0.23179056	2.43157697
-0.78208977	-0.22935702	2.43163753
-0.77990443	-0.22794665	2.43165159
-0.65473872	-0.34727144	2.43329787
-0.65533119	-0.34993207	2.43330359
-0.65555078	-0.35218871	2.43331122
-0.65947396	-0.35591608	2.43329096
-0.65947795	-0.35648263	2.43329334
-0.66125160	-0.35920835	2.43328857
-0.66204911	-0.36269122	2.43329597
-0.66303188	-0.36506230	2.43329692
-0.66303444	-0.36762431	2.43330765
-0.66245466	-0.36845946	2.43331647
-0.66343355	-0.37026399	2.43331504
-0.66324198	-0.37100846	2.43331981
-0.66461992	-0.37358999	2.43331814
-0.66580045	-0.37558407	2.43331575
-0.66541266	-0.37843567	2.43333125
-0.66561151	-0.38075316	2.43333912
-0.66561341	-0.38338137	2.43335032
-0.66581821	-0.38420373	2.43335176
-0.66582221	-0.38477027	2.43335414
-0.66641176	-0.38583362	2.43335319
-0.66563058	-0.38737759	2.43336678
-0.66622090	-0.38837451	2.43336558
-0.66818482	-0.39048839	2.43335652
-0.66759241	-0.39155298	2.43336654
-0.66937625	-0.39335001	2.43335772
-0.67115349	-0.39574403	2.43335152
-0.67627114	-0.39924061	2.43331933
-0.67529523	-0.40275893	2.43334317
-0.67550302	-0.40331584	2.43334365
-0.67805362	-0.40489572	2.43332696
-0.67845261	-0.40567261	2.43332648
-0.67943549	-0.40804371	2.43332744
-0.67904902	-0.40889993	2.43333459
-0.67963320	-0.40952945	2.43333197
-0.67963719	-0.41009587	2.43333411
-0.67983675	-0.41234717	2.43334174
-0.67846453	-0.41482311	2.43336487
-0.67865765	-0.41580868	2.43336725
-0.67865849	-0.41760498	2.43337464
-0.68121874	-0.41922063	2.43335819
-0.68260342	-0.42210329	2.43335748
-0.68496740	-0.42396331	2.43334365
-0.68326402	-0.42874011	2.43337941
-0.68346024	-0.43222132	2.43339229
-0.68779850	-0.43430185	2.43336129
-0.70409608	-0.44136497	2.43324184
-0.70823705	-0.44285798	2.43321037
-0.71040511	-0.44399771	2.43319535
-0.71257317	-0.44513750	2.43318033
-0.72144699	-0.44802350	2.43311119
-0.72184831	-0.45418957	2.43313336
-0.72204965	-0.45534366	2.43313646
-0.72184807	-0.45701680	2.43314528
-0.72244298	-0.45851400	2.43314624
-0.72539508	-0.45970726	2.43312407
-0.72539830	-0.46034008	2.43312693
-0.72461802	-0.46740583	2.43316364
-0.72650886	-0.46863228	2.43315148
-0.72710711	-0.47076225	2.43315506
-0.72691160	-0.47466567	2.43317318
-0.72732788	-0.47571340	2.43317366
-0.72751743	-0.47703058	2.43317747
-0.72790670	-0.47777173	2.43317723
-0.72778380	-0.47980171	2.43318677
-0.72909200	-0.48026597	2.43317676
-0.72927606	-0.48114932	2.43317890
-0.72947127	-0.48193574	2.43318033
-0.72948563	-0.48247176	2.43318248
-0.73009282	-0.48284128	2.43317842
-0.73028624	-0.48472494	2.43318462
-0.73069143	-0.48586950	2.43318558
-0.73127919	-0.48616731	2.43318152
-0.73264122	-0.48648286	2.43317032
-0.73265886	-0.48765162	2.43317509
-0.73245251	-0.49068752	2.43318987
-0.73264968	-0.49223948	2.43319464
-0.73304719	-0.49314910	2.43319464
-0.73265219	-0.49666411	2.43321323
-0.73385823	-0.49909723	2.43321228
-0.73403549	-0.49967951	2.43321323
-0.73364091	-0.50222993	2.43322754
-0.73345262	-0.50360715	2.43323493
-0.73443317	-0.50431448	2.43322897
-0.73443288	-0.50527894	2.43323302
-0.73365253	-0.50861925	2.43325424
-0.72249818	-0.54840076	2.43352342
-0.72033119	-0.55554378	2.43357325
-0.71935141	-0.55849540	2.43359470
-0.71875608	-0.55982560	2.43360567
-0.71697962	-0.56295323	2.43363500
-0.71579838	-0.56475109	2.43365335
-0.71481490	-0.56617182	2.43366838
-0.71049899	-0.57134849	2.43372965
-0.70852482	-0.57299042	2.43375468
-0.70025647	-0.57902211	2.43385553
-0.69454360	-0.58244371	2.43392229
-0.62181938	-0.62176615	2.43475270
-0.51724499	-0.67784333	2.43594480
-0.51193261	-0.68004662	2.43600273
-0.50917143	-0.68003786	2.43602800
-0.50487351	-0.67983055	2.43606639
-0.42031288	-0.65556759	2.43673801
-0.41895509	-0.65485400	2.43674731
-0.41856074	-0.65457714	2.43674970
-0.41795391	-0.65324318	2.43674970
-0.41597423	-0.65072602	2.43675733
-0.41597342	-0.64892966	2.43674970
-0.41557580	-0.64802003	2.43674946
-0.41538602	-0.64766729	2.43674970
-0.41500491	-0.64709467	2.43675089
-0.41518331	-0.64664590	2.43674731
-0.41322619	-0.64483333	2.43675756
-0.41322726	-0.64380240	2.43675327
-0.41222319	-0.64245695	2.43675685
-0.41184139	-0.64195067	2.43675828
-0.41082120	-0.64116645	2.43676424
-0.41079965	-0.63943106	2.43675709
-0.41059971	-0.63814431	2.43675351
-0.40980560	-0.63529408	2.43674874
-0.40999645	-0.63275319	2.43673635
-0.40939969	-0.63049042	2.43673229
-0.41018441	-0.62861484	2.43671727
-0.41057542	-0.62639624	2.43670440
-0.41073439	-0.62587583	2.43670082
-0.41017926	-0.62349111	2.43669581
-0.41053587	-0.62259382	2.43668866
-0.41091982	-0.62103844	2.43667865
-0.41112465	-0.61999810	2.43667245
-0.41049197	-0.61918944	2.43667483
-0.41088489	-0.61773622	2.43666506
-0.25635910	-0.53987134	2.43775129
-0.25557941	-0.54128259	2.43776441
-0.25302815	-0.54163188	2.43778920
-0.22679466	-0.52170712	2.43794537
-0.22700089	-0.51680863	2.43792295
-0.22640768	-0.51607698	2.43792534
-0.10662553	-0.41967463	2.43861580
-0.08426175	-0.41121340	2.43878484
-0.08210307	-0.41107398	2.43880391
-0.08111197	-0.41225994	2.43881798
-0.07934403	-0.41459176	2.43884397
-0.07856080	-0.41447183	2.43885064
-0.07776988	-0.41411728	2.43885636
-0.07659042	-0.41481784	2.43887019
-0.07619253	-0.41487259	2.43887401
-0.07520610	-0.41469598	2.43888235
-0.07383260	-0.41544184	2.43889785
-0.07306832	-0.41635817	2.43890882
-0.07247910	-0.41619313	2.43891358
-0.07191145	-0.41590053	2.43891740
-0.06994727	-0.41847670	2.43894625
-0.06918621	-0.41816318	2.43895197
-0.06857657	-0.41895723	2.43896079
-0.06820166	-0.41875198	2.43896341
-0.06702185	-0.42041713	2.43898106
-0.06643048	-0.42045099	2.43898678
-0.06582731	-0.42064798	2.43899298
-0.06505406	-0.42146224	2.43900347
-0.06445768	-0.42196041	2.43901110
-0.06347305	-0.42254931	2.43902254
-0.06209624	-0.42266238	2.43903565
-0.06051454	-0.42195302	2.43904710
-0.05993146	-0.42215538	2.43905330
-0.05934983	-0.42222503	2.43905902
-0.05776739	-0.42158204	2.43907070
-0.05698514	-0.42229417	2.43908095
-0.05580238	-0.42236194	2.43909192
-0.05501270	-0.42283905	2.43910122
-0.05423006	-0.42265293	2.43910766
-0.05205917	-0.42177844	2.43912363
-0.05126753	-0.42149019	2.43912983
-0.04989433	-0.42127156	2.43914151
-0.04752934	-0.42044234	2.43915963
-0.04456636	-0.41838151	2.43917799
-0.04358399	-0.41690856	2.43918085
-0.04299000	-0.41438058	2.43917561
-0.04455873	-0.41255853	2.43915367
-0.04495275	-0.41007435	2.43913960
-0.04514936	-0.40700275	2.43912482
-0.04593223	-0.40622443	2.43911433
-0.04671404	-0.40461424	2.43910050
-0.04769543	-0.40339249	2.43908644
-0.04768753	-0.40225947	2.43908167
-0.04982969	-0.40019912	2.43905354
-0.04985911	-0.39934215	2.43904948
-0.05004847	-0.39507115	2.43902993
-0.01977390	-0.27316338	2.43879437
-0.00709951	-0.22553958	2.43871021
-0.00690144	-0.22501840	2.43870974
-0.00631222	-0.22485323	2.43871450
-0.00512415	-0.22448705	2.43872380
-0.00414997	-0.22318272	2.43872738
-0.00019094	-0.21904658	2.43874621
0.00119027	-0.21769497	2.43875313
0.00237370	-0.21782905	2.43876457
0.00630137	-0.21546410	2.43879056
0.00788352	-0.21385653	2.43879819
0.00965148	-0.21432565	2.43881631
0.01063573	-0.21395004	2.43882370
0.02508947	-0.15199029	2.43869543
0.02588934	-0.14594531	2.43867755
0.02570596	-0.13102877	2.43861318
0.02552575	-0.11734225	2.43855381
0.02183798	-0.07081108	2.43832469
0.02125639	-0.06701596	2.43830323
0.02008450	-0.06235512	2.43827295
0.01530439	-0.04743187	2.43816662
0.01432127	-0.04511295	2.43814778
0.01406097	-0.04455282	2.43814301
0.01252860	-0.04142393	2.43811607
0.00983512	-0.03649200	2.43807054
-0.00641334	-0.00798433	2.43780208
-0.01308875	0.00052235	2.43770528
-0.02135132	0.00974873	2.43759108
-0.02548386	0.01401233	2.43753529
-0.02686170	0.01515618	2.43751788
-0.02903076	0.01690993	2.43749070
-0.05619070	0.03510966	2.43716574
-0.07096209	0.04227915	2.43700051
