//X	Y	Z
-0.41322026	-0.82465470	1.05493093
-0.40873355	-0.82898974	1.05491960
-0.40260080	-0.83220834	1.05490804
-0.28304571	-0.85258526	1.05474377
-0.27645934	-0.85186553	1.05473733
-0.27019298	-0.84724224	1.05473709
-0.26777989	-0.84522969	1.05473733
-0.26259375	-0.83846027	1.05474138
-0.26177317	-0.83710951	1.05474246
-0.25492591	-0.82431477	1.05475342
-0.25055408	-0.81528771	1.05476165
-0.25011134	-0.81337327	1.05476391
-0.24955684	-0.81213415	1.05476511
-0.24900013	-0.81017184	1.05476737
-0.24846584	-0.80778664	1.05477023
-0.24791127	-0.80654764	1.05477142
-0.24772799	-0.80560637	1.05477262
-0.24637961	-0.80100894	1.05477774
-0.24571562	-0.79813701	1.05478120
-0.24577379	-0.79700696	1.05478299
-0.24576265	-0.79498339	1.05478585
-0.24539602	-0.79310071	1.05478823
-0.24499822	-0.79034054	1.05479181
-0.24467641	-0.78761232	1.05479538
-0.24414206	-0.78522730	1.05479825
-0.24459374	-0.78397197	1.05480063
-0.24415797	-0.78119600	1.05480421
-0.24463218	-0.77951801	1.05480719
-0.24389428	-0.77733749	1.05480957
-0.24455178	-0.77660108	1.05481136
-0.24444455	-0.77569151	1.05481255
-0.24350792	-0.77213109	1.05481672
-0.24327093	-0.77073514	1.05481851
-0.24339414	-0.76761329	1.05482316
-0.24351263	-0.76607621	1.05482554
-0.24272126	-0.76344121	1.05482852
-0.24281746	-0.76232696	1.05483019
-0.24351305	-0.76160622	1.05483210
-0.24340576	-0.76069689	1.05483329
-0.24190766	-0.75675893	1.05483735
-0.24159461	-0.75533092	1.05483902
-0.24119687	-0.75257087	1.05484259
-0.24165535	-0.75045407	1.05484629
-0.24256998	-0.74996734	1.05484796
-0.24142301	-0.74747324	1.05485034
-0.24146795	-0.74662769	1.05485165
-0.24206948	-0.74471295	1.05485511
-0.24190858	-0.74334872	1.05485690
-0.24182141	-0.74129343	1.05485976
-0.24273601	-0.74080652	1.05486155
-0.24203616	-0.73864210	1.05486393
-0.24193829	-0.73759449	1.05486536
-0.24211043	-0.73651218	1.05486715
-0.24219328	-0.73568261	1.05486846
-0.24272770	-0.73503625	1.05487001
-0.24193850	-0.73312438	1.05487192
-0.24187621	-0.73136944	1.05487430
-0.24235040	-0.72969139	1.05487728
-0.24157438	-0.72749513	1.05487967
-0.24204865	-0.72581708	1.05488265
-0.24029115	-0.72090608	1.05488789
-0.24093321	-0.71973050	1.05489028
-0.24118143	-0.71868014	1.05489206
-0.24126205	-0.71712732	1.05489445
-0.24188152	-0.71637464	1.05489624
-0.24173626	-0.71544927	1.05489743
-0.24139202	-0.71314383	1.05490041
-0.24015340	-0.71017897	1.05490339
-0.24159816	-0.70919228	1.05490637
-0.24173918	-0.70723248	1.05490947
-0.24251083	-0.70654368	1.05491126
-0.24097466	-0.70258987	1.05491531
-0.23851508	-0.69479084	1.05492401
-0.23625448	-0.68837208	1.05493081
-0.23545626	-0.68659854	1.05493248
-0.23618990	-0.68589377	1.05493438
-0.23388651	-0.68104386	1.05493879
-0.23276418	-0.67581880	1.05494523
-0.23269957	-0.67334056	1.05494869
-0.23197728	-0.67159891	1.05495048
-0.23209602	-0.67006195	1.05495286
-0.23191264	-0.66912061	1.05495405
-0.23175621	-0.66617167	1.05495811
-0.23179880	-0.66460276	1.05496049
-0.23113698	-0.66245431	1.05496287
-0.23095366	-0.66151297	1.05496407
-0.23105678	-0.65953720	1.05496705
-0.23091149	-0.65861183	1.05496824
-0.23134083	-0.65777951	1.05496991
-0.23099664	-0.65547413	1.05497289
-0.23175025	-0.65362316	1.05497646
-0.23067933	-0.65116096	1.05497885
-0.23088974	-0.65009457	1.05498064
-0.23089230	-0.64634794	1.05498612
-0.22595015	-0.57464767	1.05508518
-0.22577813	-0.57125998	1.05508995
-0.22580105	-0.56939864	1.05509269
-0.22579440	-0.56579018	1.05509794
-0.22610331	-0.56433284	1.05510044
-0.22607651	-0.56187063	1.05510402
-0.22590694	-0.55920619	1.05510771
-0.22596517	-0.55807602	1.05510938
-0.22570831	-0.55335611	1.05511606
-0.22548047	-0.54879034	1.05512238
-0.22524628	-0.54364753	1.05512965
-0.21045509	-0.37450665	1.05535996
-0.21005288	-0.37333143	1.05536115
-0.20991257	-0.37241411	1.05536234
-0.20936221	-0.37102872	1.05536377
-0.20856345	-0.37069380	1.05536330
-0.20828441	-0.36942816	1.05536485
-0.20746085	-0.36879265	1.05536485
-0.20619285	-0.36711231	1.05536592
-0.20576572	-0.36563653	1.05536759
-0.20524931	-0.36441347	1.05536878
-0.20441297	-0.36262396	1.05537045
-0.20348504	-0.36036378	1.05537271
-0.20295063	-0.35797864	1.05537558
-0.20257720	-0.35695755	1.05537665
-0.20170513	-0.35587546	1.05537724
-0.20133168	-0.35485443	1.05537832
-0.20083085	-0.35407007	1.05537891
-0.19944230	-0.35176483	1.05538070
-0.19898635	-0.35013491	1.05538261
-0.19814962	-0.34978390	1.05538213
-0.19728389	-0.34927887	1.05538189
-0.19676751	-0.34805572	1.05538309
-0.19578785	-0.34750274	1.05538285
-0.19504309	-0.34618390	1.05538392
-0.19413304	-0.34508586	1.05538452
-0.19350255	-0.34381491	1.05538559
-0.19286156	-0.34211326	1.05538738
-0.19174019	-0.34192717	1.05538642
-0.19145182	-0.34079975	1.05538774
-0.19095629	-0.34002343	1.05538833
-0.19004619	-0.33892542	1.05538893
-0.18928027	-0.33859828	1.05538845
-0.18879783	-0.33753738	1.05538952
-0.18808830	-0.33694983	1.05538952
-0.18719387	-0.33629057	1.05538952
-0.18679667	-0.33512339	1.05539083
-0.18578935	-0.33498514	1.05538988
-0.18470463	-0.33424610	1.05538976
-0.18423557	-0.33290061	1.05539119
-0.18346548	-0.33230528	1.05539119
-0.18266264	-0.33211654	1.05539048
-0.18243727	-0.33130565	1.05539143
-0.18162304	-0.33094656	1.05539107
-0.18068147	-0.33040947	1.05539083
-0.18011987	-0.32961747	1.05539131
-0.17977530	-0.32875052	1.05539215
-0.17848951	-0.32893956	1.05539048
-0.17789686	-0.32768458	1.05539167
-0.17669147	-0.32775915	1.05539012
-0.17541662	-0.32694036	1.05538988
-0.17440841	-0.32479474	1.05539191
-0.17299703	-0.32435086	1.05539095
-0.17204893	-0.32323676	1.05539155
-0.17174754	-0.32239395	1.05539238
-0.17088836	-0.32246584	1.05539131
-0.17003193	-0.32182240	1.05539131
-0.16955748	-0.32046899	1.05539274
-0.16839507	-0.32056767	1.05539131
-0.16789824	-0.31963700	1.05539215
-0.16724530	-0.31878880	1.05539262
-0.16605973	-0.31771734	1.05539286
-0.16508934	-0.31702602	1.05539274
-0.16485870	-0.31620714	1.05539370
-0.16405994	-0.31587213	1.05539334
-0.16336492	-0.31515431	1.05539358
-0.16249013	-0.31478739	1.05539310
-0.16180825	-0.31378505	1.05539382
-0.16065389	-0.31359109	1.05539274
-0.16016623	-0.31252223	1.05539382
-0.15947124	-0.31180438	1.05539405
-0.15843093	-0.31165835	1.05539310
-0.15724829	-0.30987152	1.05539441
-0.15683264	-0.30898085	1.05539525
-0.15585938	-0.30900484	1.05539405
-0.15527323	-0.30832684	1.05539441
-0.15391192	-0.30704543	1.05539477
-0.15243778	-0.30628511	1.05539417
-0.15140438	-0.30527741	1.05539453
-0.15074736	-0.30457559	1.05539477
-0.14937809	-0.30400133	1.05539417
-0.14804965	-0.30272779	1.05539453
-0.14762884	-0.30182898	1.05539536
-0.14653102	-0.30137450	1.05539477
-0.14587790	-0.30052641	1.05539525
-0.14507523	-0.30033764	1.05539465
-0.14446014	-0.29950553	1.05539513
-0.14392820	-0.29784366	1.05539691
-0.14306900	-0.29791546	1.05539584
-0.14205247	-0.29791552	1.05539477
-0.14120930	-0.29698759	1.05539513
-0.14020073	-0.29628047	1.05539501
-0.13902667	-0.29579404	1.05539441
-0.13781232	-0.29456839	1.05539489
-0.13707697	-0.29311126	1.05539620
-0.13617975	-0.29316723	1.05539513
-0.13476431	-0.29286966	1.05539393
-0.13357869	-0.29179817	1.05539417
-0.13235119	-0.29085708	1.05539417
-0.13075647	-0.28947186	1.05539441
-0.12995824	-0.28769830	1.05539608
-0.12941930	-0.28689802	1.05539668
-0.12829435	-0.28541964	1.05539751
-0.12771735	-0.28460345	1.05539811
-0.12683621	-0.28365958	1.05539846
-0.12558386	-0.28241789	1.05539882
-0.12442994	-0.28078538	1.05539989
-0.12390301	-0.27913159	1.05540180
-0.12301263	-0.27832597	1.05540192
-0.12215111	-0.27767456	1.05540192
-0.12138268	-0.27620962	1.05540323
-0.12088594	-0.27527896	1.05540395
-0.12014359	-0.27468342	1.05540407
-0.11912295	-0.27482980	1.05540264
-0.11781695	-0.27313346	1.05540371
-0.11715528	-0.27098501	1.05540609
-0.11605746	-0.27053049	1.05540550
-0.11491674	-0.26861337	1.05540705
-0.11433989	-0.26779711	1.05540752
-0.11219254	-0.26733470	1.05540586
-0.11112350	-0.26703441	1.05540502
-0.10953385	-0.26262584	1.05540967
-0.10816738	-0.26133636	1.05541003
-0.10633799	-0.25927848	1.05541098
-0.10475016	-0.25703171	1.05541241
-0.10344428	-0.25533533	1.05541348
-0.10222992	-0.25410971	1.05541384
-0.10138035	-0.25260481	1.05541515
-0.10016596	-0.25137916	1.05541551
-0.09941900	-0.24933702	1.05541766
-0.09842601	-0.24906859	1.05541694
-0.09737754	-0.24618362	1.05542004
-0.09680063	-0.24536732	1.05542052
-0.09605587	-0.24404863	1.05542159
-0.09548408	-0.24324033	1.05542219
-0.09480631	-0.24209164	1.05542314
-0.09417582	-0.24082075	1.05542421
-0.09347722	-0.23922525	1.05542576
-0.09261850	-0.23785861	1.05542684
-0.09198791	-0.23658758	1.05542791
-0.09112516	-0.23536727	1.05542874
-0.09006700	-0.23405907	1.05542946
-0.08920184	-0.23211546	1.05543137
-0.08803201	-0.23148265	1.05543101
-0.08717316	-0.23011598	1.05543196
-0.08579791	-0.22752628	1.05543423
-0.08520547	-0.22627121	1.05543542
-0.08471787	-0.22520229	1.05543637
-0.08388385	-0.22413614	1.05543697
-0.08295575	-0.22187606	1.05543923
-0.06808412	-0.17950502	1.05548441
-0.06711766	-0.17866747	1.05548453
-0.06656319	-0.17742841	1.05548573
-0.06574240	-0.17607771	1.05548680
-0.06495979	-0.17474289	1.05548787
-0.06404731	-0.17292155	1.05548942
-0.06374112	-0.17063212	1.05549240
-0.06346616	-0.16922015	1.05549419
-0.06351104	-0.16837454	1.05549550
-0.06306833	-0.16646004	1.05549777
-0.06251615	-0.16291279	1.05550230
-0.06273320	-0.16098490	1.05550539
-0.06230366	-0.15837125	1.05550873
-0.06196186	-0.15720376	1.05551004
-0.06180727	-0.15600206	1.05551159
-0.06168738	-0.15435322	1.05551386
-0.06095362	-0.15202653	1.05551648
-0.06046987	-0.15039678	1.05551827
-0.05744666	-0.14149706	1.05552793
-0.05711120	-0.14049198	1.05552900
-0.05714047	-0.13920765	1.05553091
-0.05797908	-0.13868895	1.05553257
-0.05750981	-0.13734353	1.05553401
-0.05597427	-0.13236572	1.05553961
-0.05364680	-0.12577674	1.05554652
-0.05440509	-0.12537245	1.05554795
-0.05425987	-0.12444705	1.05554914
-0.05406740	-0.12364399	1.05555010
-0.04721397	-0.10277081	1.05557287
-0.04793882	-0.10076573	1.05557668
-0.04779795	-0.09825554	1.05558014
-0.04790092	-0.09627979	1.05558312
-0.04803339	-0.09301968	1.05558801
-0.04793924	-0.09182572	1.05558968
-0.04780546	-0.08845392	1.05559444
-0.04796886	-0.08607137	1.05559814
-0.04761782	-0.08462751	1.05559981
-0.04713711	-0.08269703	1.05560207
-0.04677045	-0.08081441	1.05560446
-0.04691941	-0.07814741	1.05560851
-0.04692291	-0.07640824	1.05561101
-0.04642658	-0.07403901	1.05561399
-0.04370765	-0.06526691	1.05562365
-0.04321128	-0.06289771	1.05562663
-0.04339272	-0.06167716	1.05562854
-0.04349580	-0.05970138	1.05563164
-0.04342420	-0.05808467	1.05563390
-0.04343104	-0.05722311	1.05563509
-0.04471962	-0.05631879	1.05563796
-0.04436627	-0.05415165	1.05564070
-0.04487151	-0.05335119	1.05564237
-0.04499249	-0.05253747	1.05564368
-0.04473306	-0.05156428	1.05564487
-0.04557674	-0.05105358	1.05564654
-0.04472892	-0.04867911	1.05564904
-0.04458365	-0.04775375	1.05565023
-0.04474026	-0.04623270	1.05565262
-0.04521444	-0.04455471	1.05565560
-0.04481220	-0.04337943	1.05565691
-0.04571110	-0.04245389	1.05565929
-0.04593061	-0.04124931	1.05566132
-0.04613857	-0.03945965	1.05566406
-0.04644731	-0.03800240	1.05566657
-0.04679421	-0.03656107	1.05566907
-0.04750574	-0.03484055	1.05567241
-0.04737379	-0.03363064	1.05567396
-0.04730459	-0.03273717	1.05567527
-0.04766692	-0.03173462	1.05567706
-0.04841386	-0.03074530	1.05567944
-0.04873592	-0.02900347	1.05568230
-0.04963136	-0.02678564	1.05568659
-0.05042766	-0.02639735	1.05568802
-0.05003338	-0.02492952	1.05568969
-0.04989086	-0.02328891	1.05569196
-0.05088159	-0.02283400	1.05569375
-0.05029307	-0.02143273	1.05569506
-0.05001810	-0.02002072	1.05569685
-0.05060881	-0.01911387	1.05569887
-0.05006756	-0.01759022	1.05570042
-0.05051060	-0.01503479	1.05570471
-0.05068278	-0.01395246	1.05570650
-0.05177984	-0.01239952	1.05570996
-0.05185126	-0.01098481	1.05571210
-0.05177575	-0.00951433	1.05571413
-0.05165681	-0.00801992	1.05571616
-0.05095303	-0.00600177	1.05571842
-0.05071387	-0.00388244	1.05572116
-0.05150774	-0.00277081	1.05572367
-0.05211812	-0.00215647	1.05572534
-0.05196638	-0.00065410	1.05572736
-0.05292721	0.00010937	1.05572951
-0.05255470	0.00097603	1.05573034
-0.05302612	0.00193879	1.05573225
-0.05384095	0.00260365	1.05573416
-0.05357400	0.00430822	1.05573642
-0.05475248	0.00540668	1.05573928
-0.05416913	0.00679994	1.05574071
-0.05362791	0.00832355	1.05574226
-0.05466358	0.00962406	1.05574536
-0.05497003	0.01180461	1.05574882
-0.05582905	0.01490790	1.05575442
-0.02033247	0.18177919	1.05595803
-0.01918729	0.18211144	1.05595720
-0.01797299	0.18333709	1.05595767
-0.01685029	0.18409209	1.05595744
-0.01636545	0.18587628	1.05595958
-0.01561403	0.18633352	1.05595934
-0.01477073	0.18726145	1.05595982
-0.01414658	0.18795539	1.05596006
-0.01320092	0.18834615	1.05595958
-0.01202460	0.18955584	1.05596006
-0.01091510	0.19059537	1.05596030
-0.01045233	0.19136383	1.05596089
-0.00939012	0.19252570	1.05596137
-0.00876597	0.19321966	1.05596173
-0.00837930	0.19395617	1.05596232
-0.00767498	0.19453575	1.05596244
-0.00678457	0.19534138	1.05596256
-0.00573389	0.19591820	1.05596220
-0.00459966	0.19725825	1.05596292
-0.00426942	0.19825532	1.05596399
-0.00293133	0.19795203	1.05596209
-0.00189157	0.19953670	1.05596316
-0.00091174	0.20008969	1.05596292
-0.00007774	0.20115580	1.05596352
0.00082584	0.20167691	1.05596328
0.00164667	0.20302761	1.05596435
0.00287418	0.20396873	1.05596435
0.00430989	0.20615163	1.05596590
0.00515984	0.20621803	1.05596507
0.00602505	0.20816170	1.05596685
0.00655884	0.20895393	1.05596745
0.00727743	0.20940334	1.05596733
0.00837120	0.21000415	1.05596697
0.00907046	0.21057564	1.05596697
0.00978388	0.21101698	1.05596685
0.01071636	0.21169224	1.05596673
0.01166449	0.21280625	1.05596733
0.01279627	0.21342304	1.05596697
0.01401064	0.21464871	1.05596733
0.01552011	0.21614020	1.05596781
0.01711878	0.21737912	1.05596781
0.01833314	0.21860480	1.05596828
0.01944894	0.22022134	1.05596936
0.02035902	0.22131945	1.05596995
0.02126275	0.22184046	1.05596972
0.02195373	0.22270460	1.05597019
0.02250184	0.22336665	1.05597055
0.02316807	0.22393028	1.05597055
0.02401116	0.22485821	1.05597103
0.02479398	0.22619298	1.05597210
0.02533281	0.22699328	1.05597270
0.02644229	0.22803283	1.05597293
0.02746648	0.22917876	1.05597341
0.02818640	0.23019706	1.05597413
0.02905989	0.22999498	1.05597281
0.02981783	0.23102924	1.05597353
0.03080393	0.23215923	1.05597401
0.03175244	0.23183471	1.05597246
0.03295119	0.23262161	1.05597234
0.03433773	0.23276500	1.05597091
0.03695661	0.23529609	1.05597174
0.03747314	0.23651917	1.05597293
0.03831625	0.23744713	1.05597329
0.03903614	0.23846544	1.05597401
0.04027474	0.23881327	1.05597305
0.04175535	0.24015062	1.05597341
0.04275464	0.24099600	1.05597353
0.04360312	0.24193193	1.05597389
0.04460521	0.24206215	1.05597293
0.04542083	0.24340482	1.05597401
0.04627487	0.24332488	1.05597293
0.04729094	0.24476343	1.05597389
0.04828198	0.24513766	1.05597329
0.04988714	0.24468587	1.05597079
0.05123803	0.24553658	1.05597055
0.05329564	0.24769014	1.05597138
0.05398469	0.24866012	1.05597198
0.05476698	0.24916574	1.05597186
0.05588967	0.24992074	1.05597174
0.05708636	0.25081354	1.05597174
0.05809495	0.25152069	1.05597162
0.05893578	0.25172532	1.05597091
0.06021060	0.25254411	1.05597067
0.06168878	0.25315815	1.05596995
0.06292155	0.25410736	1.05596995
0.06360857	0.25511777	1.05597067
0.06463441	0.25539404	1.05596983
0.06549363	0.25532222	1.05596876
0.06637253	0.25554276	1.05596817
0.06694950	0.25635901	1.05596864
0.06792234	0.25777355	1.05596972
0.06921683	0.25888479	1.05596983
0.07016495	0.25999883	1.05597043
0.07098612	0.25991094	1.05596936
0.07205519	0.26021123	1.05596852
0.07269885	0.26119772	1.05596924
0.07380430	0.26238364	1.05596972
0.07561103	0.26183277	1.05596697
0.07634006	0.26271284	1.05596745
0.07763286	0.26469374	1.05596888
0.07855205	0.26565355	1.05596924
0.07955135	0.26649898	1.05596936
0.08028686	0.26795608	1.05597067
0.08107239	0.26857561	1.05597067
0.08177668	0.26915509	1.05597067
0.08216339	0.26989168	1.05597138
0.08316286	0.27073705	1.05597138
0.08392064	0.27177134	1.05597210
0.08519194	0.27129790	1.05596995
0.08593650	0.27261668	1.05597103
0.08645302	0.27383983	1.05597222
0.08747073	0.27440876	1.05597198
0.08832440	0.27576736	1.05597293
0.08915949	0.27698788	1.05597377
0.09007774	0.27779335	1.05597401
0.09106612	0.27964658	1.05597556
0.09176227	0.28051877	1.05597603
0.09259905	0.28086972	1.05597556
0.09358518	0.28199971	1.05597615
0.09445722	0.28308183	1.05597675
0.09595746	0.28471157	1.05597746
0.09697241	0.28599572	1.05597818
0.09780511	0.28649297	1.05597794
0.09942356	0.28802428	1.05597842
0.10022452	0.28908259	1.05597901
0.10100490	0.28969401	1.05597901
0.10145853	0.29060066	1.05597985
0.10241221	0.29028422	1.05597830
0.10344973	0.29114556	1.05597842
0.10439822	0.29082105	1.05597687
0.10584076	0.29214245	1.05597723
0.10744645	0.29251975	1.05597591
0.10932511	0.29214716	1.05597329
0.11015041	0.29191297	1.05597198
0.11220619	0.29493624	1.05597413
0.11400367	0.29452369	1.05597150
0.11606331	0.29436913	1.05596888
0.11719474	0.29642445	1.05597067
0.11836231	0.29633385	1.05596924
0.11934717	0.29689491	1.05596888
0.12063700	0.29655957	1.05596697
0.12222929	0.29722148	1.05596614
0.12348171	0.29846308	1.05596650
0.12441699	0.29842311	1.05596542
0.12610261	0.29868603	1.05596387
0.12665719	0.29992509	1.05596507
0.12760563	0.29960054	1.05596352
0.12898548	0.30060542	1.05596352
0.12984422	0.30197215	1.05596447
0.13063847	0.30389196	1.05596638
0.13173406	0.30362314	1.05596483
0.13265318	0.30458298	1.05596519
0.13307793	0.30533546	1.05596578
0.13409983	0.30575806	1.05596530
0.13472402	0.30645198	1.05596554
0.13571185	0.30671239	1.05596483
0.13708922	0.30699402	1.05596364
0.13860548	0.30762398	1.05596292
0.13988028	0.30844283	1.05596268
0.14105251	0.30979887	1.05596328
0.14251921	0.30982780	1.05596173
0.14342931	0.31092587	1.05596232
0.14527929	0.31039906	1.05595946
0.14615114	0.31148124	1.05596006
0.14685136	0.31220713	1.05596030
0.14810148	0.31272542	1.05595970
0.14963104	0.31307083	1.05595851
0.15055709	0.31316906	1.05595756
0.15239093	0.31364214	1.05595613
0.15407491	0.31477469	1.05595589
0.15600277	0.31644163	1.05595624
0.15742736	0.31660095	1.05595481
0.15950505	0.31760845	1.05595398
0.16058969	0.31834751	1.05595386
0.16164538	0.31893241	1.05595350
0.16312359	0.31954646	1.05595267
0.16482775	0.31953284	1.05595076
0.16582075	0.31980124	1.05595005
0.16667829	0.32059899	1.05595028
0.16764641	0.32056689	1.05594909
0.16865258	0.32055074	1.05594802
0.16998287	0.32095462	1.05594707
0.17093782	0.32120714	1.05594635
0.17166686	0.32208723	1.05594683
0.17299969	0.32177585	1.05594492
0.17405322	0.32163745	1.05594349
0.17508426	0.32192183	1.05594277
0.17642014	0.32392675	1.05594420
0.17762692	0.32400647	1.05594289
0.17879464	0.32433045	1.05594206
0.17970455	0.32501394	1.05594206
0.18082367	0.32489133	1.05594063
0.18139549	0.32569951	1.05594110
0.18253841	0.32530838	1.05593932
0.18320677	0.32618076	1.05593979
0.18529831	0.32587969	1.05593705
0.18700022	0.32817426	1.05593848
0.18834874	0.32830173	1.05593717
0.18966158	0.32913646	1.05593681
0.19093403	0.32923204	1.05593562
0.19260015	0.32920241	1.05593371
0.19331364	0.32964379	1.05593348
0.19460854	0.32931656	1.05593157
0.19583277	0.33199686	1.05593407
0.19721185	0.33140889	1.05593169
0.19983962	0.33077025	1.05592775
0.20184809	0.33088428	1.05592573
0.20323014	0.33261254	1.05592668
0.20414950	0.33357230	1.05592704
0.20536368	0.33479798	1.05592752
0.20605476	0.33566213	1.05592799
0.20699643	0.33619922	1.05592763
0.20805635	0.33663774	1.05592716
0.20936918	0.33747250	1.05592692
0.21084984	0.33880985	1.05592716
0.21165250	0.33899850	1.05592656
0.21303916	0.33914185	1.05592513
0.21382172	0.34047663	1.05592620
0.21460907	0.34022653	1.05592501
0.21565567	0.34094965	1.05592489
0.21662615	0.34164083	1.05592477
0.21995164	0.34547487	1.05592668
0.22164674	0.34863096	1.05592930
0.22286795	0.34899506	1.05592847
0.22372660	0.35036179	1.05592954
0.22475535	0.34992284	1.05592775
0.22587812	0.35067785	1.05592752
0.22702320	0.35101005	1.05592680
0.22860870	0.35253352	1.05592716
0.22973602	0.35473514	1.05592918
0.23085871	0.35549009	1.05592895
0.23227417	0.35578775	1.05592787
0.23337668	0.35768884	1.05592942
0.23425561	0.35790950	1.05592871
0.23557717	0.36004454	1.05593038
0.23679152	0.36127013	1.05593073
0.23877287	0.36339182	1.05593157
0.23963621	0.36317366	1.05593038
0.24122843	0.36383557	1.05592954
0.24369076	0.36788771	1.05593264
0.24487153	0.36751258	1.05593073
0.24634528	0.36971146	1.05593228
0.24821253	0.37178534	1.05593324
0.24878959	0.37260157	1.05593383
0.25017393	0.37505305	1.05593586
0.25113758	0.37660581	1.05593705
0.25188237	0.37792468	1.05593812
0.25283712	0.37817717	1.05593741
0.25461292	0.37978026	1.05593777
0.25714430	0.38472596	1.05594206
0.25880134	0.38786614	1.05594480
0.26087898	0.38887361	1.05594397
0.26218498	0.39056993	1.05594492
0.26723671	0.39843750	1.05595076
0.26948631	0.40283275	1.05595469
0.27518642	0.41313338	1.05596328
0.28170934	0.42694655	1.05597603
0.28102934	0.42810601	1.05597854
0.28139603	0.42998868	1.05598092
0.28176266	0.43187129	1.05598319
0.28203768	0.43328321	1.05598497
0.28267929	0.43657780	1.05598903
0.28347760	0.43835127	1.05599070
0.34496009	0.59887946	1.05615592
0.34601822	0.60018754	1.05615664
0.34699285	0.60073245	1.05615628
0.34825200	0.60111254	1.05615544
0.34916845	0.60278761	1.05615687
0.35013613	0.60377949	1.05615723
0.35104263	0.60399991	1.05615652
0.35197514	0.60467517	1.05615652
0.35296127	0.60580516	1.05615699
0.35353822	0.60662144	1.05615759
0.35474503	0.60711575	1.05615687
0.35606304	0.60795850	1.05615664
0.35660183	0.60875881	1.05615723
0.35750037	0.60927182	1.05615699
0.35830846	0.60946864	1.05615640
0.35946900	0.61023962	1.05615616
0.36032268	0.61159813	1.05615723
0.36124197	0.61255789	1.05615759
0.36249197	0.61307633	1.05615687
0.36377996	0.61361063	1.05615628
0.36452475	0.61492932	1.05615735
0.36529177	0.61582541	1.05615771
0.36703181	0.61813593	1.05615914
0.36792627	0.61879522	1.05615914
0.36913371	0.62088245	1.05616081
0.37897304	0.64169937	1.05618012
0.37947381	0.64248371	1.05618072
0.38033947	0.64298880	1.05618048
0.38146222	0.64374387	1.05618036
0.38398013	0.64594257	1.05618072
0.38525501	0.64676136	1.05618048
0.38571775	0.64752978	1.05618107
0.38669521	0.64735943	1.05617976
0.38964257	0.65175724	1.05618286
0.39042532	0.65309197	1.05618393
0.39119244	0.65398794	1.05618429
0.39327008	0.65499550	1.05618346
0.39460292	0.65468407	1.05618155
0.39618397	0.65779233	1.05618429
0.39732906	0.65812457	1.05618346
0.39848989	0.65889567	1.05618334
0.39978027	0.66015327	1.05618370
0.40242365	0.65995336	1.05618036
0.40643579	0.66623616	1.05618501
0.40752038	0.66697532	1.05618489
0.41019073	0.67226934	1.05618966
0.41069144	0.67305356	1.05619025
0.41385132	0.67407680	1.05618811
0.41552845	0.67607099	1.05618918
0.41657755	0.67751747	1.05619013
0.41811398	0.67700130	1.05618763
0.41969496	0.68010962	1.05619037
0.42094323	0.68149745	1.05619097
0.42217073	0.68243861	1.05619097
0.42365092	0.68521452	1.05619335
0.42443645	0.68583411	1.05619347
0.42577577	0.68609977	1.05619228
0.42677751	0.68766844	1.05619347
0.42744884	0.68824011	1.05619359
0.42930239	0.68900561	1.05619252
0.43158114	0.69211644	1.05619454
0.43258345	0.69224662	1.05619359
0.43335044	0.69314265	1.05619407
0.43541014	0.69298804	1.05619156
0.43749893	0.69601911	1.05619359
0.43838689	0.69610149	1.05619276
0.43991643	0.69644696	1.05619144
0.44253978	0.69739324	1.05618989
0.44444281	0.69875968	1.05618978
0.44609120	0.70059949	1.05619061
0.44753134	0.70119768	1.05618989
0.44909677	0.70386714	1.05619204
0.45151690	0.70804954	1.05619538
0.45233926	0.70853078	1.05619514
0.45307341	0.70941895	1.05619562
0.45379734	0.71029085	1.05619609
0.45486477	0.71146071	1.05619657
0.45630491	0.71205884	1.05619586
0.45769387	0.71292555	1.05619550
0.45827085	0.71374184	1.05619609
0.45982742	0.71511096	1.05619633
0.46058536	0.71614516	1.05619705
0.46148390	0.71665823	1.05619669
0.46230471	0.71800900	1.05619776
0.46285781	0.71867913	1.05619812
0.46379042	0.71935427	1.05619812
0.46467963	0.72000563	1.05619800
0.46606037	0.72116488	1.05619812
0.46690258	0.72193849	1.05619836
0.46757001	0.72265649	1.05619860
0.46845922	0.72330767	1.05619860
0.46934336	0.72353637	1.05619788
0.47027177	0.72435796	1.05619812
0.47109011	0.72498530	1.05619812
0.47200009	0.72608340	1.05619860
0.47263876	0.72706175	1.05619931
0.47374597	0.72737795	1.05619860
0.47436076	0.72821009	1.05619907
0.47503740	0.72878999	1.05619919
0.47574809	0.72994649	1.05620003
0.47664422	0.72973633	1.05619872
0.47789758	0.73113227	1.05619943
0.47880942	0.73136055	1.05619872
0.47983366	0.73250645	1.05619919
0.48067677	0.73343450	1.05619967
0.48118281	0.73422700	1.05620027
0.48200125	0.73485440	1.05620027
0.48272517	0.73572630	1.05620062
0.48401552	0.73698390	1.05620110
0.48520505	0.73790914	1.05620110
0.48666322	0.73966920	1.05620193
0.48759577	0.74034452	1.05620193
0.48810583	0.74099058	1.05620229
0.48870751	0.74210733	1.05620325
0.49038926	0.74251664	1.05620193
0.49157867	0.74344170	1.05620193
0.49356008	0.74556345	1.05620289
0.49462470	0.74744862	1.05620444
0.49664408	0.74958628	1.05620527
0.49774891	0.74917912	1.05620337
0.49995607	0.75067323	1.05620313
0.50161999	0.75295198	1.05620456
0.50339580	0.75455511	1.05620492
0.50468624	0.75581270	1.05620527
0.50598979	0.75678569	1.05620527
0.50783706	0.76000571	1.05620790
0.50865775	0.76135635	1.05620885
0.51007563	0.76237732	1.05620885
0.51119822	0.76313215	1.05620861
0.51293814	0.76544285	1.05621004
0.51359129	0.76629114	1.05621052
0.51413000	0.76709139	1.05621111
0.51557040	0.76768935	1.05621040
0.51629931	0.76856929	1.05621088
0.51708210	0.76990426	1.05621195
0.51810861	0.77177334	1.05621350
0.51868540	0.77258974	1.05621397
0.51969391	0.77329683	1.05621397
0.52055740	0.77307874	1.05621266
0.52186340	0.77477509	1.05621362
0.52395213	0.77780598	1.05621576
0.52460504	0.77865422	1.05621624
0.52525806	0.77950245	1.05621672
0.53184134	0.79290873	1.05622888
0.53398353	0.79639465	1.05623150
0.53528965	0.79809093	1.05623257
0.53680140	0.80030572	1.05623412
0.53775191	0.80214292	1.05623567
0.53895485	0.80581510	1.05623972
0.54280478	0.82111245	1.05625772
0.54556811	0.83797908	1.05627918
0.53375256	0.86998081	1.05633926
0.52418637	0.87436467	1.05635643
0.51884532	0.87574828	1.05636442
0.45162198	0.87606448	1.05644047
0.44912833	0.87560463	1.05644262
0.44667280	0.87516105	1.05644476
0.44012424	0.87445748	1.05645108
0.43806219	0.87388861	1.05645263
0.43712965	0.87321335	1.05645263
0.43551493	0.87297422	1.05645406
0.43401432	0.87278306	1.05645549
0.43247545	0.87257588	1.05645692
0.43135262	0.87182093	1.05645716
0.42981404	0.87161374	1.05645859
0.42814568	0.87091988	1.05645943
0.42655322	0.87025803	1.05646026
0.42433909	0.86962551	1.05646181
0.42346713	0.86854339	1.05646122
0.42176062	0.86783367	1.05646205
0.42057744	0.86748558	1.05646288
0.41947034	0.86716914	1.05646372
0.41863629	0.86610305	1.05646312
0.41784284	0.86577618	1.05646348
0.41672018	0.86502117	1.05646360
0.41533768	0.86473149	1.05646479
0.41504526	0.86375046	1.05646372
0.41306984	0.86364418	1.05646574
0.41235641	0.86320293	1.05646586
0.41180298	0.86211824	1.05646491
0.41063425	0.86205441	1.05646622
0.40899739	0.86079955	1.05646622
0.40823948	0.85976529	1.05646551
0.40727550	0.85965103	1.05646646
0.40695432	0.85851592	1.05646515
0.40620694	0.85791230	1.05646515
0.40512866	0.85775024	1.05646610
0.40439034	0.85700834	1.05646586
0.40301064	0.85600346	1.05646586
0.40228155	0.85512328	1.05646539
0.40230787	0.85413969	1.05646396
0.40116271	0.85380745	1.05646479
0.39985520	0.85339528	1.05646563
0.39941591	0.85235858	1.05646467
0.39861614	0.85186911	1.05646479
0.39746159	0.85126060	1.05646527
0.39622480	0.85045779	1.05646539
0.39543530	0.84998447	1.05646563
0.39427456	0.84921360	1.05646586
0.39369115	0.84782028	1.05646443
0.39284128	0.84775382	1.05646527
0.39221719	0.84706002	1.05646503
0.39140779	0.84629416	1.05646479
0.39013296	0.84547544	1.05646503
0.38872847	0.84417003	1.05646467
0.38757703	0.84326088	1.05646467
0.38663539	0.84272385	1.05646491
0.38551271	0.84196883	1.05646515
0.38465628	0.84132540	1.05646515
0.38410816	0.84066331	1.05646479
0.38342637	0.83966106	1.05646408
0.38253832	0.83957863	1.05646491
0.38143805	0.83840084	1.05646443
0.38033098	0.83808458	1.05646527
0.38022363	0.83717513	1.05646408
0.37956160	0.83646518	1.05646372
0.37884375	0.83575565	1.05646348
0.37793791	0.83492589	1.05646336
0.37715974	0.83462310	1.05646384
0.37659720	0.83367670	1.05646300
0.37537086	0.83330464	1.05646384
0.37475690	0.83262658	1.05646360
0.37362516	0.83200985	1.05646396
0.37290651	0.83156043	1.05646408
0.37209222	0.83078676	1.05646384
0.37090084	0.83073121	1.05646515
0.36978331	0.82998431	1.05646527
0.36859113	0.82977432	1.05646634
0.36608407	0.82959920	1.05646896
0.36361301	0.82871687	1.05647039
0.36288378	0.82783669	1.05646992
0.36085746	0.82656068	1.05647039
0.35917577	0.82615149	1.05647171
0.35819614	0.82559830	1.05647194
0.35592145	0.82537276	1.05647421
0.35585225	0.82447940	1.05647290
0.35504940	0.82429057	1.05647361
0.35388866	0.82351959	1.05647373
0.35281330	0.82264245	1.05647373
0.35202777	0.82202291	1.05647361
0.35186279	0.82080513	1.05647206
0.35097244	0.81999940	1.05647194
0.35017887	0.81967258	1.05647230
0.34975812	0.81877387	1.05647147
0.34902492	0.81803995	1.05647123
0.34761351	0.81759614	1.05647218
0.34660494	0.81688899	1.05647230
0.34587190	0.81615508	1.05647206
0.34504825	0.81551963	1.05647206
0.34392565	0.81476468	1.05647218
0.34349445	0.81343520	1.05647075
0.34265769	0.81308442	1.05647111
0.34196261	0.81236643	1.05647087
0.34120598	0.81190115	1.05647111
0.34027350	0.81122595	1.05647111
0.33976620	0.80986458	1.05646968
0.33760342	0.80896348	1.05647087
0.33678252	0.80761272	1.05646980
0.33584708	0.80723816	1.05647027
0.33556819	0.80638695	1.05646932
0.33435094	0.80546194	1.05646932
0.33434761	0.80458450	1.05646813
0.33266583	0.80417520	1.05646944
0.33252054	0.80324978	1.05646825
0.33124065	0.80242288	1.05646849
0.33023208	0.80171573	1.05646849
0.33011043	0.80052203	1.05646694
0.32902300	0.80049825	1.05646813
0.32879230	0.79967916	1.05646718
0.32749099	0.79942942	1.05646825
0.32625538	0.79878086	1.05646873
0.32510269	0.79771733	1.05646849
0.32427520	0.79722816	1.05646873
0.32259110	0.79609561	1.05646896
0.32237491	0.79514641	1.05646777
0.32157612	0.79481137	1.05646825
0.31955728	0.79426676	1.05646968
0.31796485	0.79360485	1.05647051
0.31727386	0.79274070	1.05647004
0.31668672	0.79190838	1.05646944
0.31564257	0.79190850	1.05647063
0.31429157	0.79105771	1.05647087
0.31419346	0.79001027	1.05646944
0.31284910	0.78973651	1.05647063
0.31172630	0.78898144	1.05647075
0.31024978	0.78749770	1.05647027
0.30963990	0.78667355	1.05646980
0.30840033	0.78658587	1.05647099
0.30680808	0.78592420	1.05647182
0.30538347	0.78576475	1.05647326
0.30465430	0.78488475	1.05647278
0.30359206	0.78372276	1.05647230
0.30341807	0.78264326	1.05647087
0.30251431	0.78212231	1.05647111
0.30078548	0.78183532	1.05647266
0.30028453	0.78105092	1.05647206
0.29795641	0.78037047	1.05647373
0.29721159	0.77905178	1.05647266
0.29582509	0.77890831	1.05647397
0.29499796	0.77698058	1.05647206
0.29304093	0.77659810	1.05647373
0.29203236	0.77589083	1.05647385
0.29053155	0.77569962	1.05647528
0.28956094	0.77500844	1.05647528
0.28875595	0.77409643	1.05647492
0.28783897	0.77386004	1.05647552
0.28679484	0.77386010	1.05647671
0.28555802	0.77305722	1.05647695
0.28417146	0.77291375	1.05647826
0.28335300	0.77228642	1.05647826
0.28166214	0.77201557	1.05647981
0.27956191	0.77143085	1.05648136
0.27879494	0.77053481	1.05648088
0.27676183	0.77012014	1.05648255
0.27636996	0.76937568	1.05648196
0.27531108	0.76909149	1.05648267
0.27438506	0.76899308	1.05648363
0.27354833	0.76864225	1.05648398
0.27234539	0.76800156	1.05648446
0.27122277	0.76724666	1.05648458
0.26974443	0.76663262	1.05648541
0.26838034	0.76606631	1.05648613
0.26756197	0.76543903	1.05648613
0.26662531	0.76491010	1.05648637
0.26489645	0.76462317	1.05648792
0.26363724	0.76424301	1.05648875
0.26227316	0.76367682	1.05648947
0.26056662	0.76296711	1.05649030
0.25904125	0.76247537	1.05649137
0.25817150	0.76211661	1.05649185
0.25631294	0.76134312	1.05649281
0.25539607	0.76110655	1.05649340
0.25404751	0.76097924	1.05649483
0.25256705	0.75964177	1.05649447
0.25107956	0.75916606	1.05649543
0.24961042	0.75841367	1.05649602
0.24823707	0.75798577	1.05649698
0.24722850	0.75727862	1.05649710
0.24538550	0.75694394	1.05649865
0.24422236	0.75544965	1.05649781
0.24302615	0.75538594	1.05649900
0.24257651	0.75433302	1.05649793
0.24136454	0.75383067	1.05649865
0.24104226	0.75254095	1.05649710
0.23899174	0.75255722	1.05649948
0.23742183	0.75147259	1.05649960
0.23632807	0.75087184	1.05649996
0.23456791	0.74970740	1.05650020
0.23284835	0.74928218	1.05650151
0.23190024	0.74816817	1.05650103
0.23179699	0.74711251	1.05649960
0.23057172	0.74689460	1.05650067
0.23006608	0.74466360	1.05649793
0.22855906	0.74389553	1.05649853
0.22716138	0.74172843	1.05649698
0.22654647	0.74089628	1.05649638
0.22587277	0.73960131	1.05649531
0.22532985	0.73894733	1.05649495
0.22497277	0.73817009	1.05649424
0.22411036	0.73771358	1.05649447
0.22347188	0.73714983	1.05649436
0.22231112	0.73637879	1.05649459
0.22189552	0.73548812	1.05649376
0.22102182	0.73527557	1.05649447
0.22039056	0.73467946	1.05649424
0.22028525	0.73366416	1.05649292
0.21917619	0.73345369	1.05649388
0.21911003	0.73260880	1.05649269
0.21825764	0.73181915	1.05649245
0.21780095	0.73086399	1.05649161
0.21698974	0.73013872	1.05649149
0.21645592	0.72934657	1.05649090
0.21548533	0.72865522	1.05649102
0.21476677	0.72820586	1.05649114
0.21434210	0.72745347	1.05649054
0.21314847	0.72667456	1.05649078
0.21240503	0.72592473	1.05649042
0.21167588	0.72504467	1.05648994
0.21109897	0.72422838	1.05648947
0.20951581	0.72342819	1.05649006
0.20877130	0.72210956	1.05648899
0.20857862	0.72130644	1.05648804
0.20756373	0.72002226	1.05648732
0.20717385	0.71923721	1.05648661
0.20690836	0.71845073	1.05648577
0.20610014	0.71749032	1.05648530
0.20570496	0.71621722	1.05648386
0.20401514	0.71610063	1.05648553
0.20389917	0.71389097	1.05648243
0.20322260	0.71331120	1.05648243
0.20296440	0.71249241	1.05648148
0.20269069	0.71164924	1.05648053
0.20195739	0.71091563	1.05648029
0.20159329	0.70975631	1.05647898
0.20105830	0.70880967	1.05647826
0.20043528	0.70827001	1.05647814
0.20017996	0.70715052	1.05647683
0.19895467	0.70693266	1.05647790
0.19792823	0.70506352	1.05647635
0.19653283	0.70361978	1.05647576
0.19627351	0.70264667	1.05647469
0.19609468	0.70012045	1.05647111
0.19559281	0.69918162	1.05647039
0.19549468	0.69813412	1.05646896
0.19509259	0.69737339	1.05646825
0.19421856	0.69674635	1.05646837
0.19317621	0.69629145	1.05646884
0.19279359	0.69540858	1.05646801
0.19149227	0.69515890	1.05646908
0.19070274	0.69468570	1.05646932
0.19060047	0.69378436	1.05646813
0.18979770	0.69359571	1.05646873
0.18886013	0.69291234	1.05646873
0.18811372	0.69246316	1.05646896
0.18797258	0.69139147	1.05646753
0.18702167	0.69099271	1.05646801
0.18616517	0.69034940	1.05646801
0.18459763	0.68998802	1.05646932
0.18362075	0.68871969	1.05646849
0.18207279	0.68865079	1.05647016
0.18079798	0.68783200	1.05647039
0.17938028	0.68681115	1.05647051
0.17871803	0.68610120	1.05647027
0.17841657	0.68525833	1.05646932
0.17734745	0.68495804	1.05647016
0.17663392	0.68451673	1.05647027
0.17569235	0.68397975	1.05647051
0.17511545	0.68316340	1.05647004
0.17390335	0.68266112	1.05647063
0.17320308	0.68193525	1.05647039
0.17227066	0.68125999	1.05647039
0.17170919	0.68046790	1.05646992
0.17041892	0.67962486	1.05647016
0.16857806	0.67959881	1.05647218
0.16698577	0.67893702	1.05647302
0.16527916	0.67822719	1.05647385
0.16370930	0.67714256	1.05647409
0.16258669	0.67638749	1.05647421
0.16110855	0.67577350	1.05647492
0.15981804	0.67451590	1.05647457
0.15937249	0.67331660	1.05647337
0.15805802	0.67335153	1.05647480
0.15645644	0.67282778	1.05647588
0.15525773	0.67204094	1.05647612
0.15508348	0.67096138	1.05647469
0.15361850	0.67006278	1.05647504
0.15321101	0.66887945	1.05647373
0.15169999	0.66825759	1.05647457
0.15098642	0.66781628	1.05647469
0.15048568	0.66703188	1.05647421
0.14940096	0.66629273	1.05647433
0.14917964	0.66533554	1.05647314
0.14778826	0.66374552	1.05647242
0.14684251	0.66335493	1.05647290
0.14621601	0.66193765	1.05647147
0.14466858	0.66043007	1.05647111
0.14383464	0.65936399	1.05647039
0.14312121	0.65892267	1.05647063
0.14226235	0.65755594	1.05646956
0.14129415	0.65758795	1.05647075
0.14073056	0.65648729	1.05646980
0.13983601	0.65582788	1.05646980
0.13852319	0.65499318	1.05647004
0.13780978	0.65455180	1.05647016
0.13648131	0.65327829	1.05646980
0.13554883	0.65260315	1.05646992
0.13450219	0.65187991	1.05647004
0.13396338	0.65107960	1.05646944
0.13291675	0.65035641	1.05646956
0.13241988	0.64942586	1.05646873
0.13132203	0.64897138	1.05646932
0.13055487	0.64807528	1.05646896
0.12941661	0.64688158	1.05646849
0.12917052	0.64562380	1.05646694
0.12854224	0.64507604	1.05646682
0.12791806	0.64438212	1.05646646
0.12637980	0.64273638	1.05646586
0.12561278	0.64184046	1.05646539
0.12531295	0.64012790	1.05646324
0.12449460	0.63950056	1.05646324
0.12320657	0.63896620	1.05646384
0.12259151	0.63813406	1.05646336
0.12175526	0.63634461	1.05646169
0.12125840	0.63541389	1.05646086
0.11928849	0.63387728	1.05646086
0.11790195	0.63373387	1.05646217
0.11737631	0.63264900	1.05646122
0.11718367	0.63184595	1.05646026
0.11647031	0.63140470	1.05646038
0.11551538	0.63115221	1.05646110
0.11431661	0.63036525	1.05646133
0.11351378	0.63017666	1.05646193
0.11288960	0.62948269	1.05646169
0.11262110	0.62864769	1.05646074
0.11172889	0.62871164	1.05646181
0.11088803	0.62850708	1.05646253
0.11021674	0.62793535	1.05646241
0.10912524	0.62805784	1.05646384
0.10889462	0.62723881	1.05646288
0.10790686	0.62697852	1.05646360
0.10615825	0.62639916	1.05646467
0.10466566	0.62591529	1.05646574
0.10366224	0.62521613	1.05646574
0.10346983	0.62441301	1.05646479
0.10148105	0.62459153	1.05646729
0.09977449	0.62388182	1.05646825
0.09829631	0.62326777	1.05646896
0.09783861	0.62250739	1.05646837
0.09596671	0.62201840	1.05646980
0.09542271	0.62121010	1.05646920
0.09442972	0.62094164	1.05646992
0.09363100	0.62060666	1.05647039
0.09213964	0.62027723	1.05647159
0.09065719	0.61980945	1.05647254
0.08934154	0.61968994	1.05647385
0.08762182	0.61926478	1.05647516
0.08612634	0.61908162	1.05647659
0.08425452	0.61859262	1.05647790
0.08337559	0.61837208	1.05647862
0.08168481	0.61810112	1.05648017
0.07919102	0.61764151	1.05648232
0.07780445	0.61749810	1.05648363
0.07753599	0.61666310	1.05648267
0.07726732	0.61582810	1.05648184
0.07525483	0.61586040	1.05648410
0.07454140	0.61541915	1.05648422
0.07332020	0.61505502	1.05648506
0.07225521	0.61460841	1.05648565
0.07106793	0.61440647	1.05648673
0.06932352	0.61368084	1.05648756
0.06788316	0.61308277	1.05648828
0.06660450	0.61241019	1.05648875
0.06501201	0.61174834	1.05648959
0.06386685	0.61141610	1.05649042
0.06311026	0.61095077	1.05649054
0.06144929	0.61098844	1.05649257
0.06064427	0.61007643	1.05649209
0.05876309	0.60972571	1.05649364
0.05593643	0.60898423	1.05649579
0.05408013	0.60893404	1.05649781
0.05280529	0.60811520	1.05649805
0.04977271	0.60685527	1.05649960
0.04814236	0.60617745	1.05650043
0.04655009	0.60551554	1.05650127
0.04613609	0.60375524	1.05649924
0.04474958	0.60361183	1.05650055
0.04327366	0.60372114	1.05650234
0.04156713	0.60301137	1.05650330
0.04044457	0.60225642	1.05650342
0.03829081	0.60121691	1.05650425
0.03654398	0.59976804	1.05650413
0.03557586	0.59979999	1.05650532
0.03356501	0.59896278	1.05650628
0.03242912	0.59849226	1.05650687
0.03176693	0.59778237	1.05650663
0.03049434	0.59768683	1.05650795
0.02890206	0.59702498	1.05650878
0.02719569	0.59631521	1.05650961
0.02598361	0.59581298	1.05651021
0.02412507	0.59503937	1.05651128
0.02385654	0.59420431	1.05651033
0.02273609	0.59417266	1.05651152
0.01968343	0.59405881	1.05651474
0.01881791	0.59355366	1.05651498
0.01784734	0.59286249	1.05651510
0.01661282	0.59278291	1.05651641
0.01457091	0.59106803	1.05651617
0.01288703	0.58993554	1.05651641
0.01172388	0.58844125	1.05651557
0.01122067	0.58693355	1.05651391
0.00947619	0.58620787	1.05651486
0.00880878	0.58548993	1.05651450
0.00770171	0.58517367	1.05651534
0.00652783	0.58468723	1.05651593
0.00600217	0.58360237	1.05651486
0.00525983	0.58300686	1.05651486
0.00441896	0.58280230	1.05651557
0.00373305	0.58194625	1.05651510
0.00263651	0.58206064	1.05651641
0.00150734	0.58072865	1.05651581
-0.00052579	0.58031404	1.05651748
-0.00165891	0.57912832	1.05651700
-0.00281959	0.57835746	1.05651724
-0.00352912	0.57776976	1.05651712
-0.00435142	0.57728863	1.05651736
-0.00519300	0.57549119	1.05651569
-0.00617673	0.57508445	1.05651617
-0.00706198	0.57428682	1.05651605
-0.00833046	0.57404518	1.05651712
-0.01034989	0.57190740	1.05651629
-0.01053324	0.57096606	1.05651510
-0.01124663	0.57052475	1.05651522
-0.01314284	0.56829673	1.05651414
-0.01447780	0.56644630	1.05651295
-0.01592907	0.56382459	1.05651069
-0.01660390	0.56196064	1.05650878
-0.01701546	0.56092364	1.05650771
-0.01790993	0.56026423	1.05650771
-0.01925393	0.55855203	1.05650675
-0.02018207	0.55629188	1.05650449
-0.02102071	0.55377918	1.05650175
-0.02180105	0.55316776	1.05650175
-0.02330822	0.54936796	1.05649793
-0.02448755	0.54584205	1.05649412
-0.02607914	0.53927165	1.05648625
-0.02709877	0.53654081	1.05648351
-0.02911017	0.52357763	1.05646682
-0.03049971	0.51320201	1.05645323
-0.03353334	0.48845410	1.05642056
-0.03458653	0.48412254	1.05641532
-0.03538473	0.48234901	1.05641365
-0.03592595	0.48082539	1.05641210
-0.03700823	0.48080960	1.05641329
-0.03756503	0.47884724	1.05641103
-0.03864969	0.47810820	1.05641115
-0.03937882	0.47722816	1.05641067
-0.04096425	0.47570473	1.05641031
-0.04195282	0.47385147	1.05640864
-0.04286977	0.47361493	1.05640936
-0.04385814	0.47176167	1.05640781
-0.04467882	0.47041088	1.05640674
-0.04509035	0.46937391	1.05640566
-0.04636292	0.46927840	1.05640697
-0.04750123	0.46808460	1.05640650
-0.04907105	0.46699992	1.05640662
-0.04976203	0.46613580	1.05640614
-0.05284381	0.46283638	1.05640483
-0.05327093	0.46136057	1.05640316
-0.05412962	0.45999387	1.05640209
-0.05650917	0.45958206	1.05640423
-0.05815519	0.45846555	1.05640447
-0.06063753	0.45555949	1.05640304
-0.06129047	0.45471135	1.05640244
-0.06261434	0.45185289	1.05639982
-0.06334350	0.45097283	1.05639935
-0.06476119	0.44995198	1.05639946
-0.06524195	0.44802153	1.05639720
-0.06566275	0.44712275	1.05639637
-0.06609395	0.44579327	1.05639482
-0.06642532	0.44464186	1.05639350
-0.06691702	0.44371930	1.05639279
-0.06752510	0.44202548	1.05639100
-0.06834348	0.44139805	1.05639100
-0.06895635	0.43825772	1.05638707
-0.06988421	0.43599761	1.05638480
-0.07038517	0.43521321	1.05638421
-0.07088593	0.43442890	1.05638373
-0.07114536	0.43345565	1.05638254
-0.07173148	0.43277764	1.05638218
-0.07228588	0.43153858	1.05638099
-0.07297926	0.42995116	1.05637944
-0.07402588	0.42922804	1.05637956
-0.07460285	0.42841178	1.05637908
-0.07517976	0.42759556	1.05637848
-0.07605174	0.42651343	1.05637789
-0.07681213	0.42475584	1.05637622
-0.07726168	0.42370293	1.05637515
-0.07820965	0.42258886	1.05637467
-0.07970583	0.42081279	1.05637372
-0.08063614	0.41782933	1.05637038
-0.08278520	0.41823655	1.05637348
-0.08365963	0.41643122	1.05637181
-0.08427453	0.41559896	1.05637121
-0.08533215	0.41285223	1.05636847
-0.08682145	0.41021457	1.05636621
-0.08850097	0.40749720	1.05636418
-0.08978698	0.40465480	1.05636144
-0.09023879	0.40287846	1.05635941
-0.09086701	0.40233085	1.05635929
-0.09139264	0.40124601	1.05635834
-0.09198526	0.39999104	1.05635715
-0.09338496	0.40013215	1.05635893
-0.09430191	0.39989564	1.05635965
-0.09519418	0.39692816	1.05635631
-0.09552964	0.39592308	1.05635524
-0.09661427	0.39518395	1.05635536
-0.09715326	0.39438367	1.05635476
-0.09756482	0.39334667	1.05635369
-0.09873870	0.39286023	1.05635428
-0.09963543	0.39147764	1.05635333
-0.10019001	0.39023855	1.05635214
-0.10129025	0.38906077	1.05635166
-0.10198126	0.38819662	1.05635118
-0.10284007	0.38682994	1.05635011
-0.10364515	0.38591799	1.05634975
-0.10415521	0.38527191	1.05634940
-0.10498288	0.38478276	1.05634952
-0.10583003	0.38400111	1.05634940
-0.10687666	0.38327798	1.05634952
-0.10770418	0.38278884	1.05634975
-0.10843333	0.38190874	1.05634928
-0.10928980	0.38126540	1.05634928
-0.10956348	0.38042238	1.05634832
-0.11051322	0.38017794	1.05634904
-0.11157303	0.37973937	1.05634964
-0.11301801	0.37769470	1.05634820
-0.11458788	0.37660998	1.05634844
-0.11516991	0.37578568	1.05634785
-0.11604375	0.37557325	1.05634856
-0.11691857	0.37520632	1.05634904
-0.11754681	0.37465867	1.05634892
-0.11804351	0.37372798	1.05634809
-0.11916381	0.37369627	1.05634928
-0.12010967	0.37330559	1.05634987
-0.12142250	0.37247086	1.05635011
-0.12248471	0.37130895	1.05634964
-0.12292503	0.37011772	1.05634832
-0.12393361	0.36941057	1.05634844
-0.12443032	0.36847988	1.05634761
-0.12560198	0.36871681	1.05634928
-0.12683192	0.36705238	1.05634820
-0.12812233	0.36579478	1.05634785
-0.12864798	0.36470991	1.05634689
-0.12939033	0.36411440	1.05634689
-0.13079485	0.36280897	1.05634654
-0.13106334	0.36197400	1.05634558
-0.13168749	0.36128002	1.05634534
-0.13276064	0.36112604	1.05634630
-0.13302930	0.36029109	1.05634534
-0.13410245	0.36013710	1.05634630
-0.13448505	0.35925424	1.05634546
-0.13571034	0.35903645	1.05634654
-0.13617827	0.35825995	1.05634594
-0.13648497	0.35740906	1.05634511
-0.13827559	0.35696006	1.05634642
-0.13971572	0.35636199	1.05634713
-0.14008923	0.35534090	1.05634606
-0.14136164	0.35524538	1.05634737
-0.14186484	0.35373771	1.05634570
-0.14335881	0.35268494	1.05634594
-0.14408778	0.35180488	1.05634546
-0.14450860	0.35090613	1.05634463
-0.14481510	0.35005519	1.05634367
-0.14566930	0.35013518	1.05634475
-0.14631313	0.34914875	1.05634403
-0.14665771	0.34828186	1.05634320
-0.14704958	0.34753731	1.05634248
-0.14767781	0.34698960	1.05634248
-0.14881775	0.34666547	1.05634320
-0.14934340	0.34558061	1.05634224
-0.15017852	0.34436008	1.05634141
-0.15102808	0.34285519	1.05634022
-0.15177953	0.34239790	1.05634034
-0.15261632	0.34204698	1.05634081
-0.15315530	0.34124669	1.05634022
-0.15392232	0.34035066	1.05633974
-0.15485448	0.33823687	1.05633771
-0.15534209	0.33716792	1.05633676
-0.15616049	0.33654052	1.05633676
-0.15726057	0.33536270	1.05633628
-0.15960468	0.33121210	1.05633283
-0.16160713	0.32787979	1.05633020
-0.16270737	0.32670200	1.05632973
-0.16336030	0.32585379	1.05632925
-0.16374715	0.32511729	1.05632854
-0.16468875	0.32458028	1.05632889
-0.16560568	0.32434377	1.05632949
-0.16638847	0.32300901	1.05632842
-0.16720672	0.32238156	1.05632854
-0.16803439	0.32189244	1.05632865
-0.16851272	0.32068530	1.05632746
-0.16931793	0.31977329	1.05632710
-0.17028165	0.31822053	1.05632591
-0.17110229	0.31686980	1.05632484
-0.17169490	0.31561482	1.05632365
-0.17233871	0.31462842	1.05632293
-0.17321354	0.31426153	1.05632341
-0.17457300	0.31211048	1.05632174
-0.17622136	0.31027061	1.05632091
-0.17672229	0.30948627	1.05632031
-0.17784499	0.30873123	1.05632055
-0.17893876	0.30813038	1.05632091
-0.17992729	0.30627716	1.05631924
-0.18077448	0.30549553	1.05631912
-0.18173854	0.30538127	1.05632007
-0.18243191	0.30379388	1.05631852
-0.18368205	0.30327559	1.05631912
-0.18485837	0.30206585	1.05631864
-0.18572354	0.30012217	1.05631685
-0.18708114	0.30013296	1.05631840
-0.18839402	0.29929823	1.05631864
-0.18910755	0.29885688	1.05631876
-0.18967532	0.29790241	1.05631804
-0.19060376	0.29708087	1.05631793
-0.19170159	0.29662633	1.05631840
-0.19273262	0.29634193	1.05631924
-0.19350205	0.29472262	1.05631769
-0.19441898	0.29448614	1.05631840
-0.19547434	0.29246271	1.05631661
-0.19622579	0.29200542	1.05631673
-0.19750062	0.29118660	1.05631697
-0.19942838	0.28951958	1.05631673
-0.20015337	0.28884244	1.05631661
-0.20166691	0.28714803	1.05631578
-0.20357950	0.28770757	1.05631876
-0.20619597	0.28589973	1.05631912
-0.20715560	0.28420067	1.05631769
-0.20855267	0.28362662	1.05631840
-0.20949724	0.28380483	1.05631971
-0.21045445	0.28282905	1.05631936
-0.21159033	0.28235856	1.05631995
-0.21283118	0.28170204	1.05632043
-0.21396720	0.28123158	1.05632102
-0.21466747	0.28050569	1.05632079
-0.21689482	0.28015769	1.05632269
-0.21854316	0.27831781	1.05632186
-0.21951129	0.27834991	1.05632305
