//X	Y	Z
-0.01343633	-0.86087072	2.13260174
-0.01250169	-0.85847116	2.13258386
0.01436317	-0.76757103	2.13192439
0.01910271	-0.75041664	2.13180089
0.03425956	-0.68948221	2.13136601
0.05376073	-0.56604016	2.13051391
0.05935074	-0.52882463	2.13025784
0.05973425	-0.52621889	2.13023996
0.06015399	-0.52224296	2.13021302
0.06299918	-0.42389998	2.12956643
0.06244724	-0.41567108	2.12951446
0.06206522	-0.41320658	2.12949944
0.05929279	-0.28762713	2.12869024
0.05899486	-0.28656864	2.12868404
0.05886455	-0.28465337	2.12867188
0.05663113	-0.22364503	2.12828112
0.05645321	-0.22262217	2.12827492
0.05629807	-0.21888641	2.12825108
0.05588244	-0.21498868	2.12822676
0.05558955	-0.21199185	2.12820792
0.05483604	-0.19218066	2.12808108
0.05441772	-0.19108629	2.12807512
0.05355978	-0.19020905	2.12807155
0.05246138	-0.18926024	2.12806821
0.05205692	-0.18584028	2.12804699
0.05158358	-0.18462409	2.12804031
0.05142563	-0.18369167	2.12803459
0.05070053	-0.18192618	2.12802505
0.04990396	-0.18149935	2.12802434
0.04963446	-0.18014370	2.12801623
0.04927400	-0.17794904	2.12800288
0.04885844	-0.17405128	2.12797856
0.04796138	-0.17367902	2.12797832
0.04736390	-0.17296357	2.12797523
0.04703479	-0.17133707	2.12796545
0.04674756	-0.16183776	2.12790442
0.04605416	-0.15855308	2.12788486
0.04598153	-0.15762493	2.12787914
0.04549514	-0.15575139	2.12786818
0.04538138	-0.15237570	2.12784648
0.04509104	-0.15024407	2.12783337
0.04479315	-0.14184839	2.12777948
0.04291075	-0.13954888	2.12776947
0.04274554	-0.13760214	2.12775707
0.03974237	-0.13497947	2.12774777
0.03951708	-0.13118058	2.12772369
0.03916410	-0.12633158	2.12769294
0.03768489	-0.12518516	2.12768936
0.03617318	-0.12120374	2.12766743
0.03561945	-0.12013246	2.12766171
0.03413285	-0.11797172	2.12765145
0.03237064	-0.11570790	2.12764144
-0.00368504	0.05314943	2.12663579
-0.00381979	0.05521360	2.12662268
-0.00226127	0.05728105	2.12660527
-0.00167362	0.05844504	2.12659621
-0.00123261	0.06006375	2.12658453
-0.00087576	0.06308851	2.12656403
0.00156456	0.06392267	2.12655234
0.00141177	0.06679344	2.12653399
0.00267558	0.06756645	2.12652588
0.00352100	0.06943378	2.12651157
0.00326182	0.07466587	2.12647820
0.00423029	0.07563230	2.12646937
0.00411792	0.08536351	2.12640643
0.00426246	0.08786124	2.12638974
0.00522918	0.08900723	2.12637997
0.00635193	0.09059185	2.12636662
0.00685237	0.09193975	2.12635660
0.00826207	0.09294361	2.12634659
0.00903732	0.09487402	2.12633204
0.01094618	0.09582412	2.12632108
0.00993590	0.11057773	2.12622762
0.00982675	0.11380440	2.12620687
0.01004325	0.11486781	2.12619948
0.01141603	0.11608279	2.12618804
0.01183306	0.11725542	2.12617946
0.01325366	0.11936280	2.12616205
0.01378971	0.12276646	2.12613869
0.01392122	0.12959012	2.12609386
0.01733285	0.13389802	2.12605715
0.01727632	0.14153662	2.12600780
0.01817358	0.14325163	2.12599421
0.01859896	0.14639282	2.12597275
0.01894780	0.14744884	2.12596512
0.01988402	0.14847729	2.12595606
0.02163069	0.14892766	2.12594867
0.02158147	0.15188318	2.12592959
0.02202022	0.15278590	2.12592244
0.02278136	0.15397188	2.12591290
0.02511416	0.15418461	2.12590551
0.02580957	0.15805739	2.12587857
0.02908474	0.16055107	2.12585402
0.02981603	0.16370678	2.12583160
0.02963820	0.17206678	2.12577772
0.03097339	0.17417857	2.12576056
0.03109501	0.17554444	2.12575150
0.03218496	0.17787668	2.12573338
0.03349762	0.18094388	2.12571025
0.03560838	0.18498588	2.12567854
0.03705245	0.18753955	2.12565827
0.03819828	0.19759324	2.12559009
0.03899053	0.19821116	2.12558389
0.03956805	0.20492330	2.12553883
0.03983381	0.20669952	2.12552667
0.04071298	0.20713371	2.12552166
0.04107246	0.20929331	2.12550664
0.04115179	0.21537352	2.12546682
0.04231659	0.21749368	2.12545013
0.04501602	0.22043291	2.12542415
0.04514886	0.22498968	2.12539411
0.04680845	0.22562385	2.12538576
0.04703173	0.22844598	2.12536693
0.04770425	0.23118705	2.12534738
0.04933263	0.23238915	2.12533545
0.04964867	0.24153000	2.12527514
0.05013852	0.24544287	2.12524843
0.04438636	0.31023782	2.12484193
0.04061602	0.32667729	2.12474465
0.03195521	0.35224628	2.12460065
0.02512863	0.37005910	2.12450218
0.02354679	0.37410349	2.12448001
0.01202425	0.40109384	2.12433386
0.00671509	0.41289887	2.12427068
-0.04849479	0.49891472	2.12385249
-0.05281433	0.50527084	2.12382221
-0.08020201	0.52382559	2.12377143
-0.08252805	0.52537143	2.12376738
-0.12300900	0.54275119	2.12375760
-0.12783018	0.54358482	2.12376451
-0.12959108	0.54358184	2.12376904
-0.13210478	0.54436135	2.12377024
-0.13491103	0.54536498	2.12377095
-0.14068651	0.54755777	2.12377143
-0.14663717	0.54990828	2.12377143
-0.14908537	0.55077392	2.12377191
-0.15010276	0.55118203	2.12377191
-0.15096453	0.55152285	2.12377191
-0.15548217	0.55323601	2.12377238
-0.15654796	0.55343729	2.12377357
-0.15757534	0.55363739	2.12377501
-0.16002384	0.55450314	2.12377572
-0.16282821	0.55532700	2.12377739
-0.16392419	0.55541062	2.12377977
-0.16684729	0.55609083	2.12378263
-0.16848949	0.55623150	2.12378597
-0.16947168	0.55660796	2.12378597
-0.17115209	0.55674982	2.12378931
-0.17217964	0.55694991	2.12379074
-0.17424259	0.55746901	2.12379265
-0.17649582	0.55808663	2.12379432
-0.17840344	0.55853832	2.12379622
-0.17942056	0.55894649	2.12379622
-0.18266058	0.56008983	2.12379694
-0.18418747	0.56034380	2.12379932
-0.18597880	0.56022322	2.12380457
-0.18757558	0.56054020	2.12380672
-0.18927288	0.56080282	2.12380934
-0.19104499	0.56127745	2.12381077
-0.19211254	0.56165814	2.12381101
-0.19527128	0.56226081	2.12381506
-0.19632143	0.56093949	2.12382627
-0.19913796	0.56173515	2.12382841
-0.20020735	0.56139994	2.12383318
-0.20149758	0.56104589	2.12383890
-0.20242685	0.56058443	2.12384415
-0.20315078	0.56008297	2.12384939
-0.20456383	0.56062996	2.12384939
-0.20619965	0.56044191	2.12385488
-0.20752975	0.56026852	2.12385941
-0.20924687	0.56062132	2.12386131
-0.21023762	0.56061029	2.12386394
-0.21259117	0.56117356	2.12386632
-0.21362564	0.56080687	2.12387133
-0.21531838	0.56092030	2.12387490
-0.21670979	0.56119740	2.12387681
-0.21832177	0.56145561	2.12387919
-0.21971363	0.56083691	2.12388659
-0.22106859	0.56129247	2.12388730
-0.22163373	0.56036460	2.12389469
-0.22255445	0.56029069	2.12389755
-0.22358382	0.56067038	2.12389755
-0.22428116	0.55975008	2.12390542
-0.22562414	0.56023383	2.12390566
-0.22868162	0.56020534	2.12391376
-0.23019347	0.56051826	2.12391543
-0.23163515	0.56076801	2.12391758
-0.23308060	0.56048125	2.12392306
-0.23472112	0.56044239	2.12392759
-0.23596758	0.56044418	2.12393069
-0.23766968	0.56085593	2.12393236
-0.23934066	0.56069946	2.12393761
-0.24017048	0.56097823	2.12393785
-0.24157867	0.56137604	2.12393904
-0.24418154	0.56162339	2.12394404
-0.24547470	0.56123883	2.12394977
-0.24783894	0.56159425	2.12395358
-0.24885607	0.56200224	2.12395334
-0.24978149	0.56207740	2.12395525
-0.25128102	0.56122690	2.12396479
-0.25256950	0.56069320	2.12397146
-0.25353169	0.56097949	2.12397194
-0.25453725	0.56052011	2.12397766
-0.25562453	0.56099129	2.12397718
-0.25727165	0.56128097	2.12397957
-0.25891864	0.56157076	2.12398195
-0.26060081	0.56189221	2.12398410
-0.26360440	0.56242752	2.12398839
-0.26995102	0.56491685	2.12398839
-0.27120215	0.56506777	2.12399054
-0.27303958	0.56545627	2.12399268
-0.27528164	0.56559640	2.12399745
-0.27663326	0.56569266	2.12400031
-0.27779919	0.56583947	2.12400246
-0.27968681	0.56620085	2.12400484
-0.28040424	0.56537074	2.12401199
-0.28185236	0.56594908	2.12401199
-0.28337055	0.56659067	2.12401175
-0.28578770	0.56688833	2.12401581
-0.28726432	0.56716955	2.12401795
-0.28837541	0.56719440	2.12402058
-0.28917992	0.56654817	2.12402678
-0.29045573	0.56693852	2.12402749
-0.29150802	0.56737816	2.12402725
-0.29237834	0.56733131	2.12402987
-0.29508638	0.56767321	2.12403440
-0.29598674	0.56592774	2.12404823
-0.29699096	0.56567854	2.12405229
-0.29787183	0.56542391	2.12405634
-0.29921526	0.56501210	2.12406230
-0.30068541	0.56496483	2.12406635
-0.30158412	0.56423134	2.12407351
-0.30412167	0.56456470	2.12407780
-0.30485752	0.56412864	2.12408257
-0.30692041	0.56464767	2.12408447
-0.30836195	0.56489730	2.12408638
-0.30899408	0.56406301	2.12409353
-0.31135419	0.56495488	2.12409377
-0.31273142	0.56478477	2.12409830
-0.31380731	0.56477791	2.12410116
-0.31478131	0.56464630	2.12410450
-0.31601745	0.56485605	2.12410617
-0.31698814	0.56475484	2.12410927
-0.31837016	0.56473368	2.12411308
-0.31921336	0.56477404	2.12411499
-0.32021624	0.56473482	2.12411761
-0.32131225	0.56481862	2.12412000
-0.32229102	0.56483591	2.12412238
-0.32334211	0.56458992	2.12412667
-0.32433787	0.56472808	2.12412834
-0.32543838	0.56496072	2.12412953
-0.32644901	0.56504011	2.12413168
-0.32842684	0.56555486	2.12413335
-0.33021408	0.56597066	2.12413526
-0.33114985	0.56583804	2.12413836
-0.33265114	0.56635869	2.12413883
-0.33457401	0.56675160	2.12414122
-0.33621624	0.56689221	2.12414455
-0.33672509	0.56605262	2.12415123
-0.33814126	0.56656915	2.12415147
-0.33910346	0.56685525	2.12415218
-0.34082934	0.56682074	2.12415671
-0.34232101	0.56704324	2.12415910
-0.34353715	0.56716263	2.12416148
-0.34461793	0.56730503	2.12416315
-0.34624517	0.56750458	2.12416601
-0.34725583	0.56758392	2.12416816
-0.34845233	0.56761312	2.12417102
-0.34953287	0.56775552	2.12417293
-0.35125017	0.56810838	2.12417483
-0.35215572	0.56809324	2.12417746
-0.35317290	0.56850117	2.12417722
-0.35703921	0.57006288	2.12417698
-0.35815793	0.56901473	2.12418675
-0.35921714	0.56888729	2.12419009
-0.36023331	0.56860971	2.12419462
-0.36149111	0.56908929	2.12419462
-0.36331484	0.56932670	2.12419772
-0.36443314	0.56917417	2.12420154
-0.36537996	0.56912959	2.12420440
-0.36629194	0.56944299	2.12420464
-0.36737278	0.56958544	2.12420654
-0.36842006	0.56987590	2.12420726
-0.36955109	0.56999117	2.12420940
-0.37114811	0.57030815	2.12421131
-0.37288296	0.57027572	2.12421608
-0.37460008	0.57062852	2.12421823
-0.37562349	0.57097560	2.12421846
-0.37749586	0.57139581	2.12422061
-0.37847406	0.57111722	2.12422490
-0.37989327	0.57160318	2.12422538
-0.38087925	0.57144308	2.12422895
-0.38253117	0.57188201	2.12423015
-0.38346517	0.57156968	2.12423468
-0.38504222	0.57179642	2.12423706
-0.38625371	0.57176673	2.12424040
-0.38727781	0.57160795	2.12424397
-0.38837323	0.57139540	2.12424827
-0.38942978	0.57159460	2.12424970
-0.39061102	0.57168239	2.12425208
-0.39188632	0.57177681	2.12425470
-0.39313748	0.57192761	2.12425685
-0.39460942	0.57205987	2.12425995
-0.39555010	0.57207626	2.12426209
-0.39668119	0.57219136	2.12426424
-0.39774194	0.57224357	2.12426662
-0.39862114	0.57180947	2.12427163
-0.40031523	0.57210243	2.12427402
-0.40210250	0.57251829	2.12427592
-0.40292978	0.57193178	2.12428188
-0.40448880	0.57224786	2.12428379
-0.40590400	0.57207876	2.12428856
-0.40677741	0.57200158	2.12429118
-0.40788543	0.57205677	2.12429380
-0.40872404	0.57194823	2.12429667
-0.41006443	0.57156694	2.12430239
-0.41091505	0.57142997	2.12430549
-0.41186047	0.57150179	2.12430739
-0.41304338	0.57176924	2.12430882
-0.41476050	0.57212210	2.12431073
-0.41640767	0.57241184	2.12431312
-0.41763243	0.57214385	2.12431812
-0.41848776	0.57215583	2.12432003
-0.41959882	0.57218075	2.12432289
-0.42083490	0.57239050	2.12432456
-0.42209658	0.57233357	2.12432814
-0.42328250	0.57257062	2.12432957
-0.42446849	0.57280749	2.12433124
-0.42596030	0.57303011	2.12433362
-0.42705616	0.57311374	2.12433577
-0.42892388	0.57338476	2.12433887
-0.42982939	0.57336968	2.12434125
-0.43131477	0.57326353	2.12434554
-0.43271655	0.57333267	2.12434888
-0.43326285	0.57219791	2.12435746
-0.43415985	0.57257026	2.12435746
-0.43729055	0.57376611	2.12435770
-0.43877366	0.57437599	2.12435746
-0.44040298	0.57385939	2.12436485
-0.44154927	0.57391578	2.12436748
-0.44300121	0.57395768	2.12437105
-0.44455650	0.57391453	2.12437510
-0.44834924	0.57386237	2.12438512
-0.45073783	0.57445711	2.12438750
-0.45238245	0.57388175	2.12439537
-0.45299637	0.57313675	2.12440181
-0.45450795	0.57344949	2.12440348
-0.45624527	0.57389265	2.12440515
-0.45814154	0.57386661	2.12441015
-0.46010789	0.57390350	2.12441492
-0.46174368	0.57371557	2.12442040
-0.46371013	0.57375252	2.12442517
-0.46428910	0.57297593	2.12443161
-0.46643078	0.57317048	2.12443590
-0.46843621	0.57270247	2.12444401
-0.47079107	0.57186401	2.12445545
-0.47252816	0.57230717	2.12445688
-0.47316593	0.57111585	2.12446642
-0.47510850	0.57159907	2.12446809
-0.47657782	0.57086611	2.12447667
-0.47798431	0.57108426	2.12447882
-0.47957394	0.57038713	2.12448740
-0.48239186	0.57097268	2.12449074
-0.48407051	0.56974322	2.12450314
-0.48509163	0.56961477	2.12450647
-0.48652670	0.56953573	2.12451077
-0.48744103	0.56913328	2.12451553
-0.48911932	0.56999111	2.12451434
-0.49049082	0.57017785	2.12451673
-0.49185756	0.57021546	2.12451982
-0.49285308	0.57035357	2.12452149
-0.49482200	0.57125568	2.12452078
-0.49574280	0.57118189	2.12452340
-0.49792203	0.57227302	2.12452197
-0.49944147	0.57151288	2.12453079
-0.50167096	0.57257682	2.12452960
-0.50365257	0.57255501	2.12453485
-0.50487989	0.57315218	2.12453389
-0.50690389	0.57417607	2.12453246
-0.50752246	0.57358015	2.12453794
-0.50993109	0.57426512	2.12453961
-0.51427627	0.57668597	2.12453508
-0.51583695	0.57470471	2.12455177
-0.51750785	0.57454836	2.12455726
-0.51912379	0.57427007	2.12456298
-0.52004921	0.57434523	2.12456489
-0.52116024	0.57437003	2.12456751
-0.52222764	0.57475072	2.12456775
-0.54467571	0.58775544	2.12454057
-0.55033565	0.59006155	2.12454009
-0.55160689	0.59030288	2.12454176
-0.55298483	0.59081823	2.12454176
-0.55449265	0.59166741	2.12454009
-0.55550969	0.59207559	2.12454009
-0.55698633	0.59235680	2.12454200
-0.55944836	0.59298426	2.12454438
-0.56160629	0.59419513	2.12454200
-0.56243312	0.59450436	2.12454200
-0.56423283	0.59518802	2.12454224
-0.56541407	0.59527588	2.12454462
-0.56738782	0.59632713	2.12454271
-0.56885582	0.59699583	2.12454224
-0.57066947	0.59783071	2.12454128
-0.57211113	0.59808052	2.12454343
-0.57485199	0.59917003	2.12454343
-0.57587469	0.59922105	2.12454557
-0.57725006	0.60006291	2.12454367
-0.57864881	0.60016239	2.12454653
-0.58008963	0.60091841	2.12454534
-0.58154631	0.60110933	2.12454772
-0.58256054	0.60154784	2.12454748
-0.58482969	0.60279250	2.12454534
-0.58595216	0.60329509	2.12454486
-0.58688408	0.60369879	2.12454462
-0.58792418	0.60416675	2.12454414
-0.61718524	0.62263548	2.12449884
-0.62022614	0.62406737	2.12449718
-0.62179935	0.62483072	2.12449622
-0.62671292	0.62668282	2.12449670
-0.62766403	0.62649131	2.12450051
-0.62920201	0.62722307	2.12449956
-0.63386726	0.63007665	2.12449288
-0.64020133	0.63349009	2.12448692
-0.64173937	0.63422173	2.12448621
-0.64320743	0.63489050	2.12448549
-0.64536667	0.63589144	2.12448454
-0.65062213	0.63844621	2.12448144
-0.65254498	0.63883913	2.12448359
-0.65419191	0.63912886	2.12448597
-0.65529907	0.63969028	2.12448525
-0.65944737	0.64168364	2.12448287
-0.66097426	0.64193761	2.12448502
-0.66247749	0.64263797	2.12448430
-0.66492099	0.64335454	2.12448597
-0.80705994	0.74023551	2.12421870
-0.80999470	0.74297470	2.12420845
-0.81147391	0.74412107	2.12420464
-0.85735142	0.77635622	2.12411213
-0.85915661	0.77757841	2.12410879
-0.86065453	0.78021699	2.12409544
-0.86079711	0.78120822	2.12408948
-0.86194110	0.78198063	2.12408733
-0.86301190	0.78391218	2.12407756
-0.86269999	0.78517938	2.12406850
-0.86431932	0.78645176	2.12406445
-0.86410773	0.78766447	2.12405586
-0.86583620	0.78849500	2.12405491
-0.86668158	0.79029620	2.12404537
-0.86854154	0.79164046	2.12404132
-0.86974907	0.79214728	2.12404108
-0.86972129	0.79312992	2.12403464
-0.87055278	0.79358828	2.12403393
-0.87165153	0.79453707	2.12403059
-0.87194943	0.79559565	2.12402439
-0.87315321	0.79663903	2.12402058
-0.87486184	0.79737937	2.12402010
-0.87495422	0.79839784	2.12401390
-0.87794030	0.79970801	2.12401295
-0.87779236	0.80065495	2.12400627
-0.87897229	0.80214465	2.12399960
-0.88037026	0.80275035	2.12399936
-0.88130462	0.80401921	2.12399340
-0.88220888	0.80540562	2.12398672
-0.88356793	0.80651647	2.12398291
-0.88458121	0.80746102	2.12397957
-0.88410503	0.80904818	2.12396789
-0.88547790	0.81150180	2.12395549
-0.88656515	0.81197292	2.12395525
-0.88762218	0.81256157	2.12395406
-0.88808674	0.81416512	2.12394476
-0.89348882	0.81717467	2.12393904
-0.89998692	0.82026792	2.12393546
-0.95119137	0.84223020	2.12392330
-0.95184386	0.84306735	2.12391949
-0.95264679	0.84382284	2.12391663
-0.95346963	0.84466863	2.12391329
-0.95441282	0.84555018	2.12390995
-0.95511544	0.84636015	2.12390661
-0.95599723	0.84679115	2.12390590
-0.95687032	0.84760964	2.12390280
-0.95787716	0.84822565	2.12390137
-0.95841557	0.84935570	2.12389541
-0.96033442	0.85028505	2.12389421
-0.96056247	0.85128045	2.12388849
-0.96199143	0.85245425	2.12388444
-0.96417719	0.85387415	2.12388086
-0.96538097	0.85491765	2.12387705
-0.96640277	0.85547471	2.12387609
-0.96727586	0.85629320	2.12387300
-0.96807253	0.85672003	2.12387228
-0.96952796	0.85831279	2.12386560
-0.97049481	0.85874796	2.12386513
-0.97129780	0.85950345	2.12386227
-0.97179484	0.86027348	2.12385869
-0.97359622	0.86203218	2.12385178
-0.97453916	0.86291361	2.12384844
-0.97588694	0.86354661	2.12384772
-0.97602963	0.86453784	2.12384176
-0.97914338	0.86689806	2.12383437
-0.97995520	0.86726606	2.12383389
-0.98486483	0.86965466	2.12383103
-0.98697412	0.87068301	2.12382960
-0.98791730	0.87156451	2.12382627
-0.99030197	0.87269586	2.12382507
-0.99273312	0.87433630	2.12382054
-0.99385530	0.87483883	2.12382030
-0.99479854	0.87572050	2.12381697
-1.12263107	0.93297601	2.12377071
-1.12392855	0.93363619	2.12376976
-1.12493062	0.93410313	2.12376928
-1.13123047	0.93697882	2.12376666
-1.13184202	0.93903720	2.12375498
-1.13182926	0.93996119	2.12374878
-1.15890217	0.95247626	2.12373662
-1.16054535	0.95330250	2.12373543
-1.16157377	0.95418835	2.12373233
-1.16214752	0.95534992	2.12372613
-1.16265082	0.95644844	2.12372017
-1.16562200	0.95781744	2.12371898
-1.21283150	0.98015106	2.12369418
-1.21334398	0.98086226	2.12369084
-1.21710014	0.98218024	2.12369180
-1.27456617	0.99076176	2.12378263
-1.30071127	0.99291205	2.12383533
-1.33743691	0.98854351	2.12395740
-1.34021640	0.98754686	2.12397099
-1.39055467	0.96747327	2.12422991
-1.42075706	0.94808114	2.12443304
-1.43852150	0.93592024	2.12455726
-1.45432317	0.92408162	2.12467456
-1.45731783	0.92133564	2.12470007
-1.47465229	0.89958000	2.12488580
-1.49085331	0.87842536	2.12506461
-1.50116599	0.85605621	2.12523627
-1.50698113	0.83364534	2.12539673
-1.51685286	0.79177916	2.12569404
-1.51730645	0.78923643	2.12571168
-1.51902151	0.77196240	2.12582850
-1.51719797	0.76924819	2.12584138
-1.51704919	0.74582326	2.12599325
-1.51505172	0.74521828	2.12599206
-1.51499629	0.74351519	2.12600303
-1.51496673	0.73787689	2.12603974
-1.51357627	0.73619807	2.12604713
-1.51285887	0.73544705	2.12605000
-1.51341295	0.72342515	2.12612963
-1.51280427	0.72223210	2.12613583
-1.51219702	0.71963722	2.12615108
-1.51175857	0.71845269	2.12615776
-1.51222706	0.70812440	2.12622595
-1.51160836	0.70505172	2.12624454
-1.51153564	0.70412350	2.12625027
-1.51222503	0.69297451	2.12632442
-1.51191437	0.68917125	2.12634850
-1.51097250	0.68807983	2.12635326
-1.51052570	0.68609083	2.12636495
-1.50978661	0.68417418	2.12637544
-1.50899279	0.67975235	2.12640214
-1.50840926	0.67671132	2.12642050
-1.50820899	0.67473304	2.12643290
-1.50809002	0.67329550	2.12644196
-1.50839972	0.66659904	2.12648630
-1.50777090	0.66006577	2.12652707
-1.52529180	0.48934364	2.12768149
-1.52590442	0.47899449	2.12775040
-1.52662468	0.47694224	2.12776542
-1.52758968	0.47561675	2.12777662
-1.52812529	0.47310871	2.12779427
-1.52825809	0.47222048	2.12780046
-1.52952516	0.47141710	2.12780881
-1.53029907	0.47088841	2.12781429
-1.53091741	0.46751946	2.12783766
-1.53245974	0.46681908	2.12784624
-1.53287899	0.46373883	2.12786722
-1.53346252	0.46311122	2.12787294
-1.53425241	0.46162820	2.12788439
-1.53482175	0.46055338	2.12789297
-1.53576624	0.46003318	2.12789869
-1.53642380	0.45893222	2.12790751
-1.53717542	0.45744804	2.12791920
-1.53739095	0.45569897	2.12793112
-1.53829896	0.45288032	2.12795162
-1.53961563	0.44927669	2.12797856
-1.53989840	0.44514424	2.12800598
-1.54085398	0.44143319	2.12803268
-1.54126489	0.43993211	2.12804341
-1.54225791	0.43711764	2.12806416
-1.54321253	0.43480843	2.12808156
-1.54349089	0.43210804	2.12809992
-1.54433501	0.43164247	2.12810516
-1.54474592	0.42805386	2.12812948
-1.54503417	0.42723310	2.12813568
-1.54545128	0.42606053	2.12814426
-1.54592001	0.42345905	2.12816238
-1.54674840	0.42027918	2.12818503
-1.54716682	0.41770494	2.12820292
-1.54743338	0.41661417	2.12821078
-1.54791319	0.41449040	2.12822580
-1.54836535	0.41334942	2.12823439
-1.54866230	0.41214114	2.12824297
-1.54882348	0.41095579	2.12825108
-1.54948771	0.41018349	2.12825775
-1.54977584	0.40936249	2.12826371
-1.55069613	0.40770730	2.12827682
-1.55100822	0.40644029	2.12828588
-1.55188000	0.40499187	2.12829757
-1.55237103	0.40334582	2.12830949
-1.55322301	0.40180713	2.12832165
-1.55378032	0.40076071	2.12832999
-1.55434394	0.40004286	2.12833595
-1.55485761	0.39935237	2.12834191
-1.55522454	0.39820701	2.12835026
-1.55586708	0.39716482	2.12835860
-1.55648100	0.39641970	2.12836504
-1.55683279	0.39533329	2.12837291
-1.55717111	0.39448512	2.12837934
-1.55772841	0.39343867	2.12838769
-1.55840111	0.39227882	2.12839675
-1.55874825	0.39104331	2.12840581
-1.55920029	0.38990235	2.12841439
-1.55977654	0.38826048	2.12842655
-1.56054449	0.38531584	2.12844753
-1.56087625	0.38413906	2.12845612
-1.56132853	0.38299802	2.12846470
-1.56218457	0.38092288	2.12848043
-1.56314147	0.37947869	2.12849212
-1.56339467	0.37862626	2.12849832
-1.56368494	0.37708926	2.12850904
-1.56467116	0.37692934	2.12851262
-1.56577218	0.37507480	2.12852740
-1.56685555	0.37241378	2.12854767
-1.56754565	0.37047914	2.12856197
-1.56831503	0.36980134	2.12856817
-1.56910157	0.36834878	2.12857962
-1.56951869	0.36717618	2.12858844
-1.56988287	0.36516571	2.12860250
-1.57080734	0.36455518	2.12860870
-1.57195103	0.36374643	2.12861681
-1.57276869	0.35919327	2.12864852
-1.57359934	0.35896593	2.12865210
-1.57410181	0.35779765	2.12866116
-1.57466435	0.35481298	2.12868190
-1.57496333	0.35288858	2.12869525
-1.57604802	0.35249448	2.12870049
-1.57773805	0.34440559	2.12875748
-1.57826424	0.34279114	2.12876916
-1.57903004	0.34056252	2.12878561
-1.57969725	0.33975974	2.12879252
-1.58035100	0.33919528	2.12879801
-1.58119702	0.33524069	2.12882566
-1.58208644	0.33459860	2.12883210
-1.58278847	0.33382732	2.12883902
-1.58357513	0.33237469	2.12885046
-1.58396351	0.33149925	2.12885714
-1.58428693	0.33070990	2.12886310
-1.58515882	0.32926151	2.12887478
-1.58613586	0.32790768	2.12888598
-1.58667684	0.32623437	2.12889838
-1.58783305	0.32450163	2.12891245
-1.58848703	0.32393724	2.12891793
-1.58907199	0.32190803	2.12893248
-1.59003985	0.32094151	2.12894130
-1.59220207	0.31547058	2.12898231
-1.59259951	0.31420773	2.12899160
-1.59326947	0.31218281	2.12900639
-1.59369922	0.31008631	2.12902117
-1.59419501	0.30858931	2.12903214
-1.59442842	0.30764666	2.12903881
-1.59604633	0.30665225	2.12904954
-1.59679806	0.30516815	2.12906098
-1.59737027	0.30406290	2.12906957
-1.59787405	0.30149293	2.12908769
-1.59856284	0.30096000	2.12909293
-1.59930313	0.29899809	2.12910748
-1.59975672	0.29645535	2.12912512
-1.60069382	0.29125232	2.12916136
-1.60123241	0.28871387	2.12917924
-1.60286331	0.28679562	2.12919593
-1.60308123	0.28591162	2.12920213
-1.60403442	0.28500396	2.12921047
-1.60531080	0.28330705	2.12922478
-1.60654080	0.28110081	2.12924242
-1.60735512	0.27866548	2.12926030
-1.60870409	0.27789664	2.12926865
-1.60950184	0.27692172	2.12927699
-1.61012197	0.27492413	2.12929153
-1.61110294	0.27303374	2.12930632
-1.61386025	0.25798848	2.12941122
-1.61477327	0.25531900	2.12943101
-1.61602700	0.25266653	2.12945127
-1.61692500	0.24886428	2.12947845
-1.61860895	0.24321961	2.12951922
-1.62151361	0.23021042	2.12961125
-1.62219596	0.22934875	2.12961864
-1.62289989	0.22875707	2.12962437
-1.62423790	0.22751062	2.12963581
-1.62552691	0.22280228	2.12966967
-1.63156652	0.19220302	2.12988400
-1.63243413	0.19129103	2.12989211
-1.63489211	0.17867635	2.12998033
-1.63666332	0.15606433	2.13013196
-1.63668835	0.15421638	2.13014388
-1.63098013	0.10660648	2.13043880
-1.62994170	0.10384119	2.13045430
-1.62960994	0.10134949	2.13046956
-1.62932432	0.09936696	2.13048172
-1.62865448	0.09772339	2.13049078
-1.62808573	0.09462349	2.13050938
-1.62735808	0.09199280	2.13052464
-1.62681210	0.08984852	2.13053727
-1.62497461	0.08579126	2.13055897
-1.62445116	0.08460242	2.13056517
-1.62379873	0.08376513	2.13056898
-1.62284970	0.08165938	2.13058043
-1.60930824	-0.09055790	2.13166523
-1.60919237	-0.09202585	2.13167453
-1.60980058	-0.09360561	2.13168621
-1.60981500	-0.09682685	2.13170719
-1.60957325	-0.09916532	2.13172174
-1.61011231	-0.10012254	2.13172936
-1.61079645	-0.10080457	2.13173556
-1.61157429	-0.10186982	2.13174462
-1.61225128	-0.10327008	2.13175535
-1.61218309	-0.10434523	2.13176227
-1.61313617	-0.10525280	2.13177037
-1.61369741	-0.10683581	2.13178229
-1.61363435	-0.10994276	2.13180232
-1.61373496	-0.11208463	2.13181639
-1.61491024	-0.11441270	2.13183451
-1.61523354	-0.11520198	2.13184047
-1.61513138	-0.12385595	2.13189650
-1.61589420	-0.12486228	2.13190508
-1.61634767	-0.12740505	2.13192272
-1.61637616	-0.12889391	2.13193250
-1.61751974	-0.12970254	2.13194060
-1.61752224	-0.13250607	2.13195872
-1.61761737	-0.13429096	2.13197064
-1.61789978	-0.13752776	2.13199234
-1.61817420	-0.13969147	2.13200712
-1.61933279	-0.14422765	2.13203955
-1.61947691	-0.14830670	2.13206649
-1.61947560	-0.15057364	2.13208127
-1.62059057	-0.15108526	2.13208747
-1.62072086	-0.15283859	2.13209915
-1.62098658	-0.15461501	2.13211131
-1.62141609	-0.15671152	2.13212609
-1.62166572	-0.15792304	2.13213468
-1.62232625	-0.16182736	2.13216162
-1.62306738	-0.16796395	2.13220334
-1.62299609	-0.17029384	2.13221836
-1.62320280	-0.17165554	2.13222790
-1.62412214	-0.17399636	2.13224530
-1.62233484	-0.22645789	2.13258171
-1.62187862	-0.23855892	2.13265920
-1.60965312	-0.31998619	2.13315749
-1.59605348	-0.37034371	2.13345003
-1.58532643	-0.39640132	2.13359213
-1.56986856	-0.43047613	2.13377404
-1.55563724	-0.46097100	2.13393593
-1.55408943	-0.46358225	2.13394904
-1.53804779	-0.48969248	2.13407779
-1.52683449	-0.50661767	2.13415933
-1.45095861	-0.60328394	2.13459396
-1.44880056	-0.60568666	2.13460422
-1.44017971	-0.61481953	2.13464165
-1.43936777	-0.61518753	2.13464189
-1.43620014	-0.61698401	2.13464546
-1.43432200	-0.61823881	2.13464880
-1.43303287	-0.61928642	2.13465238
-1.43214345	-0.61864448	2.13464594
-1.42908382	-0.62156838	2.13465714
-1.42050695	-0.62947601	2.13468671
-1.41881371	-0.63027489	2.13468742
-1.41653645	-0.63044667	2.13468289
-1.41518748	-0.62967783	2.13467431
-1.41397989	-0.63018477	2.13467455
-1.41297317	-0.63080055	2.13467598
-1.41068220	-0.63231510	2.13468003
-1.40904379	-0.63299227	2.13468027
-1.40721011	-0.63391751	2.13468170
-1.40462244	-0.63422364	2.13467693
-1.40296412	-0.63499105	2.13467765
-1.40176702	-0.63570583	2.13467932
-1.40081131	-0.63566339	2.13467669
-1.39950728	-0.63665235	2.13467979
-1.39759970	-0.63710397	2.13467789
-1.39628220	-0.63785446	2.13467932
-1.39517498	-0.63841587	2.13468003
-1.39353681	-0.63909304	2.13468027
-1.39264369	-0.64000195	2.13468409
-1.39029789	-0.64163816	2.13468862
-1.38895750	-0.64125687	2.13468266
-1.38760161	-0.64239800	2.13468671
-1.38652635	-0.64289731	2.13468719
-1.38504171	-0.64368689	2.13468862
-1.38400459	-0.64418519	2.13468909
-1.38291430	-0.64462578	2.13468933
-1.38093686	-0.64603621	2.13469338
-1.38001812	-0.64578259	2.13468933
-1.37722909	-0.64875269	2.13470149
-1.37586498	-0.64792520	2.13469267
-1.37428045	-0.64916617	2.13469672
-1.37239289	-0.64952755	2.13469434
-1.36756968	-0.65331364	2.13470650
-1.36587644	-0.65411270	2.13470745
-1.33737433	-0.68653399	2.13484550
-1.33329117	-0.69019467	2.13485885
-1.29905140	-0.72996396	2.13503003
-1.19428062	-0.85307539	2.13556314
-1.16114998	-0.88357484	2.13567686
-1.08796847	-0.94634783	2.13589811
-1.08607078	-0.94492006	2.13588405
-1.08120108	-0.94345951	2.13586211
-1.08017504	-0.94348013	2.13585973
-1.06820965	-0.94215959	2.13582063
-1.06742167	-0.93930513	2.13579988
-0.91415131	-0.95909548	2.13553762
-0.89271289	-0.96298581	2.13550830
-0.89243466	-0.96395415	2.13551378
-0.89069116	-0.96472585	2.13551450
-0.89035070	-0.96683025	2.13552713
-0.88796675	-0.96727586	2.13552403
-0.88753492	-0.96813178	2.13552856
-0.88697726	-0.97233528	2.13555431
-0.88562483	-0.97311729	2.13555598
-0.88497078	-0.97413409	2.13556099
-0.88481659	-0.97560310	2.13557005
-0.88412070	-0.97608435	2.13557148
-0.88410670	-0.97742736	2.13558030
-0.88439250	-0.97911334	2.13559198
-0.88406932	-0.98199260	2.13560987
-0.88186371	-0.98350275	2.13561392
-0.87894881	-0.98615170	2.13562369
-0.87630749	-0.99164987	2.13565278
-0.87490237	-0.99326980	2.13565969
-0.87338793	-0.99444783	2.13566351
-0.87263513	-0.99523056	2.13566661
-0.87006867	-0.99684811	2.13567066
-0.84601527	-1.00443876	2.13565850
-0.84665900	-1.00688267	2.13567615
-0.84556574	-1.00976980	2.13569212
-0.84511232	-1.01089573	2.13569832
-0.84359825	-1.01207364	2.13570213
-0.84433937	-1.01454151	2.13572001
-0.84395576	-1.01966262	2.13575244
-0.83494222	-1.01885462	2.13572407
-0.83440483	-1.01771784	2.13571525
-0.79827845	-1.02217507	2.13565207
-0.78467667	-1.02343941	2.13562560
-0.76476473	-1.02489483	2.13558435
-0.76447904	-1.02320886	2.13557267
-0.75789058	-1.02069938	2.13553953
-0.75682849	-1.01934981	2.13552809
-0.66401416	-1.03116381	2.13536811
-0.66170073	-1.02996516	2.13535452
-0.60680956	-1.03770614	2.13526464
-0.60258484	-1.03642261	2.13524556
-0.59996200	-1.03676033	2.13524103
-0.59686071	-1.03637588	2.13523078
-0.59356678	-1.03537416	2.13521576
-0.58680058	-1.03627086	2.13520432
-0.58577466	-1.03390825	2.13518643
-0.58147573	-1.03453457	2.13517952
-0.58087438	-1.03233016	2.13516355
-0.57203496	-1.03353786	2.13514900
-0.56902742	-1.03353679	2.13514137
-0.56739300	-1.03236711	2.13512945
-0.56478715	-1.03258407	2.13512421
-0.56015646	-1.03331876	2.13511729
-0.55952895	-1.03233552	2.13510919
-0.55724549	-1.03283572	2.13510656
-0.55572128	-1.03222454	2.13509870
-0.55343866	-1.03203905	2.13509178
-0.55194843	-1.03208208	2.13508821
-0.54972732	-1.03144610	2.13507843
-0.54085779	-1.03343201	2.13506866
-0.38083839	-1.07858026	2.13495398
-0.38005596	-1.08133268	2.13496995
-0.36223605	-1.08554912	2.13495183
-0.36113772	-1.08649802	2.13495517
-0.36123532	-1.08741772	2.13496161
-0.35804170	-1.09172034	2.13498139
-0.35674158	-1.09324574	2.13498783
-0.35291514	-1.09462678	2.13498712
-0.30868381	-1.08612418	2.13481903
-0.25680611	-1.07271802	2.13459969
-0.25526676	-1.07204819	2.13459134
-0.12856522	-1.00388801	2.13382506
-0.11513898	-0.99250138	2.13371682
