//X	Y	Z
-0.43405077	0.31225073	2.53908968
-0.46591410	0.29856557	2.53880048
-0.47902346	0.29101032	2.53867531
-0.48737249	0.28596959	2.53859496
-0.49774900	0.27286646	2.53847337
-0.50174689	0.26486966	2.53841734
-0.50327390	0.25997296	2.53839016
-0.50240922	0.25960308	2.53839564
-0.50231510	0.25877818	2.53839374
-0.50287420	0.25533262	2.53837848
-0.50190324	0.25478938	2.53838444
-0.50159913	0.25426543	2.53838515
-0.50199747	0.25273791	2.53837729
-0.50151432	0.25214145	2.53837895
-0.50095063	0.25183073	2.53838229
-0.50095087	0.25030118	2.53837752
-0.50111377	0.24921359	2.53837299
-0.50147891	0.24722891	2.53836370
-0.50072539	0.24638288	2.53836703
-0.50071019	0.24503998	2.53836274
-0.50069016	0.24434663	2.53836083
-0.50062531	0.24291608	2.53835678
-0.50027341	0.24253690	2.53835845
-0.50029194	0.24146828	2.53835487
-0.49977329	0.24036515	2.53835535
-0.49978104	0.23883364	2.53835034
-0.49985653	0.23785082	2.53834677
-0.49951097	0.23705447	2.53834701
-0.49939185	0.23618580	2.53834510
-0.49964821	0.23397827	2.53833628
-0.49946606	0.23344097	2.53833580
-0.49906626	0.23320654	2.53833818
-0.49919286	0.23254374	2.53833508
-0.49920064	0.23101228	2.53833032
-0.49899530	0.23066360	2.53833079
-0.49839950	0.23031098	2.53833437
-0.49818802	0.22884987	2.53833127
-0.49828991	0.22814324	2.53832817
-0.49795187	0.22734496	2.53832841
-0.50018638	0.21821567	2.53828239
-0.50459796	0.20275204	2.53819942
-0.50517976	0.20064744	2.53818846
-0.50456870	0.19895191	2.53818774
-0.50525242	0.19614068	2.53817368
-0.48926008	0.19142038	2.53828216
-0.48938689	0.19075744	2.53827929
-0.48892671	0.18997256	2.53828025
-0.48915538	0.18860304	2.53827429
-0.48855338	0.18713799	2.53827429
-0.48853335	0.18644460	2.53827214
-0.48815671	0.18602157	2.53827381
-0.48761028	0.18575664	2.53827715
-0.48707947	0.18530498	2.53827977
-0.48661020	0.18428950	2.53828025
-0.48578358	0.18372722	2.53828478
-0.48582274	0.18316919	2.53828287
-0.48613307	0.18192925	2.53827643
-0.48553720	0.18157662	2.53828001
-0.48474070	0.18022582	2.53828192
-0.48487657	0.17979342	2.53827953
-0.48432395	0.17841604	2.53827929
-0.48347053	0.17697947	2.53828144
-0.48265859	0.17581531	2.53828406
-0.48171544	0.17443395	2.53828692
-0.48118290	0.17374991	2.53828883
-0.48023662	0.17325047	2.53829479
-0.48000661	0.17285798	2.53829527
-0.47952196	0.17202915	2.53829646
-0.47962561	0.17155494	2.53829408
-0.47963929	0.17113589	2.53829265
-0.47891071	0.17033362	2.53829575
-0.47901261	0.16962700	2.53829265
-0.47835055	0.16895817	2.53829575
-0.47825471	0.16790092	2.53829312
-0.47765887	0.16754831	2.53829670
-0.47771773	0.16633688	2.53829241
-0.47724849	0.16532145	2.53829288
-0.47673911	0.16444875	2.53829384
-0.47579283	0.16394940	2.53829980
-0.47562614	0.16322549	2.53829861
-0.47505325	0.16268426	2.53830147
-0.47483137	0.16210702	2.53830123
-0.47471720	0.16058886	2.53829741
-0.47414607	0.16028006	2.53830075
-0.47369161	0.15926078	2.53830123
-0.47330189	0.15907393	2.53830361
-0.47319767	0.15820147	2.53830171
-0.47327486	0.15745100	2.53829861
-0.47286424	0.15675367	2.53829956
-0.47247854	0.15610012	2.53830051
-0.47198462	0.15504089	2.53830099
-0.47172973	0.15460458	2.53830171
-0.47168499	0.15386744	2.53829956
-0.47105691	0.15347289	2.53830314
-0.47109377	0.15286525	2.53830099
-0.47074184	0.15248603	2.53830266
-0.47040725	0.15215251	2.53830409
-0.47029573	0.15128197	2.53830218
-0.47034976	0.15072010	2.53830004
-0.47003642	0.14996569	2.53830004
-0.46951491	0.14974445	2.53830338
-0.46929857	0.14893298	2.53830242
-0.46857175	0.14836311	2.53830624
-0.46800292	0.14810392	2.53830981
-0.46811906	0.14757621	2.53830743
-0.46718270	0.14712450	2.53831315
-0.46717936	0.14665966	2.53831172
-0.46665761	0.14643846	2.53831506
-0.46614164	0.14598303	2.53831768
-0.46593636	0.14563438	2.53831816
-0.46596074	0.14508015	2.53831625
-0.46495458	0.14462821	2.53832245
-0.46463546	0.14410812	2.53832340
-0.46435669	0.14344515	2.53832340
-0.46414155	0.14304885	2.53832388
-0.46388015	0.14243160	2.53832388
-0.46336591	0.14220855	2.53832722
-0.46332267	0.14170377	2.53832579
-0.46294600	0.14128074	2.53832746
-0.46240714	0.14101382	2.53833079
-0.46226686	0.14056619	2.53833055
-0.46232107	0.14000425	2.53832817
-0.46227786	0.13949952	2.53832698
-0.46152458	0.13865344	2.53833008
-0.46148157	0.13814861	2.53832889
-0.46089301	0.13779405	2.53833222
-0.46087471	0.13733315	2.53833103
-0.46054745	0.13699773	2.53833246
-0.46060172	0.13643581	2.53833032
-0.45968771	0.13597830	2.53833580
-0.45948815	0.13539532	2.53833556
-0.45876282	0.13505793	2.53834009
-0.45861351	0.13437973	2.53833914
-0.45804793	0.13383667	2.53834176
-0.45799765	0.13333376	2.53834057
-0.45723027	0.13290681	2.53834534
-0.45681235	0.13221137	2.53834629
-0.45644474	0.13201880	2.53834844
-0.45640177	0.13151403	2.53834724
-0.45545372	0.13078222	2.53835225
-0.45513287	0.13002969	2.53835225
-0.45484421	0.12931910	2.53835225
-0.45445192	0.12908275	2.53835464
-0.45433658	0.12867881	2.53835416
-0.45404130	0.12838542	2.53835559
-0.45359695	0.12741378	2.53835607
-0.45253360	0.12627803	2.53836060
-0.45232832	0.12592940	2.53836107
-0.45128304	0.12525469	2.53836703
-0.45145926	0.12467951	2.53836393
-0.45019966	0.12342568	2.53836966
-0.44975042	0.12310358	2.53837204
-0.44914559	0.12252043	2.53837490
-0.44841853	0.12195061	2.53837872
-0.44787690	0.12103605	2.53838015
-0.44693375	0.11965467	2.53838301
-0.44631785	0.11860872	2.53838444
-0.44632250	0.11795916	2.53838229
-0.44553041	0.11748841	2.53838706
-0.44530994	0.11579682	2.53838325
-0.44484064	0.11478133	2.53838372
-0.44469863	0.11410131	2.53838277
-0.44406271	0.11236194	2.53838205
-0.44334489	0.11202259	2.53838658
-0.44338837	0.11099779	2.53838301
-0.44280618	0.11022612	2.53838515
-0.44257620	0.10983361	2.53838563
-0.44243422	0.10915355	2.53838468
-0.44224742	0.10773632	2.53838158
-0.44191405	0.10628848	2.53837967
-0.44168404	0.10589600	2.53838015
-0.44118103	0.10460620	2.53837991
-0.44111159	0.10382520	2.53837800
-0.44050035	0.10212970	2.53837752
-0.43975785	0.10174654	2.53838205
-0.43970385	0.10077887	2.53837943
-0.43959576	0.10037310	2.53837895
-0.43922380	0.09930052	2.53837848
-0.43803036	0.09836286	2.53838468
-0.43813229	0.09765624	2.53838158
-0.43767208	0.09687129	2.53838277
-0.43779886	0.09620843	2.53837967
-0.43730760	0.09579676	2.53838205
-0.43767715	0.09469214	2.53837585
-0.43710423	0.09415095	2.53837848
-0.43668729	0.09387079	2.53838086
-0.43706587	0.09299666	2.53837514
-0.43695781	0.09259085	2.53837466
-0.43673250	0.09154885	2.53837323
-0.43637881	0.09093723	2.53837395
-0.43617836	0.08993898	2.53837228
-0.43586501	0.08918455	2.53837252
-0.43523523	0.08855762	2.53837538
-0.43484932	0.08790416	2.53837633
-0.43443871	0.08720683	2.53837729
-0.43379328	0.08676654	2.53838086
-0.43367791	0.08636267	2.53838038
-0.43356812	0.08572447	2.53837919
-0.43289044	0.08524236	2.53838301
-0.43258637	0.08471835	2.53838372
-0.43237352	0.08437164	2.53838420
-0.43216652	0.08379061	2.53838396
-0.43163398	0.08310653	2.53838587
-0.43130672	0.08277117	2.53838754
-0.43042570	0.08217271	2.53839231
-0.43036526	0.08162216	2.53839111
-0.42962283	0.08123901	2.53839564
-0.42938355	0.08061600	2.53839540
-0.42893437	0.08029396	2.53839803
-0.42842826	0.07988616	2.53840065
-0.42804232	0.07923264	2.53840137
-0.42749903	0.07808571	2.53840208
-0.42717174	0.07775031	2.53840351
-0.42715344	0.07728937	2.53840232
-0.42677507	0.07663392	2.53840303
-0.42648792	0.07615577	2.53840375
-0.42606655	0.07499551	2.53840327
-0.42561734	0.07467341	2.53840590
-0.42558825	0.07374959	2.53840327
-0.42508945	0.07333985	2.53840566
-0.42472845	0.07273018	2.53840661
-0.42434257	0.07207665	2.53840756
-0.42446911	0.07141384	2.53840446
-0.42353523	0.07026294	2.53840804
-0.42299828	0.06869885	2.53840733
-0.42239144	0.06788336	2.53840947
-0.42212749	0.06721661	2.53840923
-0.42131072	0.06670199	2.53841400
-0.42145315	0.06585243	2.53841019
-0.42061147	0.06529403	2.53841496
-0.42059335	0.06483302	2.53841352
-0.42056403	0.06390921	2.53841090
-0.42021671	0.06288048	2.53841043
-0.42010871	0.06247469	2.53840995
-0.41934150	0.06204768	2.53841448
-0.41935077	0.06074861	2.53841043
-0.41875494	0.06039599	2.53841376
-0.41855451	0.05939776	2.53841233
-0.41802198	0.05871370	2.53841424
-0.41683003	0.05800849	2.53842115
-0.41710347	0.05737616	2.53841710
-0.41675153	0.05699696	2.53841853
-0.41680557	0.05643511	2.53841639
-0.41651693	0.05572451	2.53841639
-0.41640890	0.05531869	2.53841591
-0.41572040	0.05437366	2.53841829
-0.41553831	0.05383640	2.53841805
-0.41492414	0.05302280	2.53842020
-0.41427869	0.05258254	2.53842378
-0.41374615	0.05189850	2.53842568
-0.41321358	0.05121446	2.53842759
-0.41258556	0.05081995	2.53843141
-0.41259944	0.05040084	2.53842998
-0.41179830	0.04969956	2.53843379
-0.41133982	0.04914700	2.53843570
-0.41040769	0.04822848	2.53843999
-0.41010511	0.04793692	2.53844142
-0.40956444	0.04743765	2.53844404
-0.40917769	0.04696700	2.53844547
-0.40873110	0.04669444	2.53844810
-0.40840963	0.04612475	2.53844881
-0.40801796	0.04570556	2.53845048
-0.40778795	0.04531308	2.53845096
-0.40738639	0.04484625	2.53845263
-0.40713984	0.04422518	2.53845263
-0.40638745	0.04379436	2.53845716
-0.40621498	0.04330477	2.53845692
-0.40578142	0.04279600	2.53845859
-0.40499574	0.04190809	2.53846192
-0.40457124	0.04162983	2.53846431
-0.40346694	0.04081980	2.53847027
-0.40308276	0.04039866	2.53847194
-0.40247938	0.04004797	2.53847551
-0.40264806	0.03947471	2.53847241
-0.40184864	0.03900580	2.53847694
-0.40160882	0.03856567	2.53847742
-0.40118429	0.03828742	2.53847980
-0.40093946	0.03789873	2.53848052
-0.40060297	0.03733290	2.53848147
-0.40001291	0.03674593	2.53848410
-0.39923644	0.03608845	2.53848791
-0.39898151	0.03565217	2.53848863
-0.39866415	0.03536445	2.53849006
-0.39814815	0.03490897	2.53849268
-0.39785317	0.03461549	2.53849411
-0.39777792	0.03406883	2.53849292
-0.39735341	0.03379053	2.53849530
-0.39672536	0.03339601	2.53849888
-0.39624238	0.03279959	2.53850079
-0.39580050	0.03247561	2.53850317
-0.39526239	0.03202584	2.53850579
-0.39505708	0.03167718	2.53850627
-0.39340869	0.03065174	2.53851581
-0.39309689	0.03012975	2.53851652
-0.39207500	0.02926640	2.53852177
-0.39222804	0.02887983	2.53851938
-0.39202273	0.02853116	2.53851986
-0.39174157	0.02781861	2.53851986
-0.39095765	0.02716307	2.53852391
-0.39070758	0.02607723	2.53852224
-0.38976443	0.02469585	2.53852534
-0.38942790	0.02413003	2.53852606
-0.38836280	0.02276194	2.53852987
-0.38743532	0.02119389	2.53853226
-0.38691202	0.02074030	2.53853488
-0.38683334	0.01972884	2.53853226
-0.38632542	0.01908862	2.53853416
-0.38583151	0.01802936	2.53853464
-0.38478473	0.01712222	2.53853989
-0.38457191	0.01677551	2.53854036
-0.38457677	0.01612593	2.53853822
-0.38434505	0.01550104	2.53853822
-0.38398558	0.01512378	2.53853965
-0.38412142	0.01469143	2.53853726
-0.38328633	0.01371584	2.53854060
-0.38318115	0.01242812	2.53853750
-0.38250372	0.01194594	2.53854108
-0.38304228	0.01086608	2.53853369
-0.38275364	0.01015549	2.53853369
-0.38233376	0.00922770	2.53853393
-0.38221666	0.00859142	2.53853273
-0.38210860	0.00818564	2.53853226
-0.38174742	0.00757596	2.53853321
-0.38215014	0.00692847	2.53852797
-0.38169190	0.00637588	2.53852987
-0.38134459	0.00534715	2.53852940
-0.38155282	0.00481390	2.53852606
-0.38112214	0.00342321	2.53852487
-0.38078871	0.00197542	2.53852296
-0.38067162	0.00133914	2.53852177
-0.38046372	0.00094094	2.53852224
-0.38077182	0.00040010	2.53851819
-0.38067764	-0.00042475	2.53851628
-0.38089913	-0.00119426	2.53851223
-0.38156429	-0.00293692	2.53850150
-0.38171405	-0.00378833	2.53849769
-0.38203517	-0.00456539	2.53849268
-0.38202903	-0.00567779	2.53848934
-0.38204268	-0.00609682	2.53848791
-0.38183588	-0.00667794	2.53848767
-0.38225400	-0.00751203	2.53848171
-0.38257512	-0.00828909	2.53847671
-0.38253036	-0.00902626	2.53847480
-0.38260758	-0.00977675	2.53847194
-0.38291785	-0.01101669	2.53846550
-0.38287312	-0.01175387	2.53846359
-0.38277900	-0.01257872	2.53846169
-0.38363868	-0.01443560	2.53844929
-0.38380212	-0.01570604	2.53844404
-0.38366008	-0.01638610	2.53844285
-0.38301045	-0.01770642	2.53844380
-0.38290218	-0.01811216	2.53844333
-0.38184813	-0.01901740	2.53844857
-0.38154551	-0.01930895	2.53845000
-0.38066104	-0.02037220	2.53845358
-0.37972867	-0.02129067	2.53845787
-0.37806949	-0.02277899	2.53846598
-0.37751344	-0.02324227	2.53846884
-0.37725180	-0.02385946	2.53846884
-0.37701258	-0.02448241	2.53846860
-0.37664980	-0.02532452	2.53846884
-0.37650958	-0.02577221	2.53846860
-0.37625903	-0.02607714	2.53846955
-0.37628594	-0.02658182	2.53846765
-0.37645665	-0.02707336	2.53846478
-0.37639362	-0.02752280	2.53846383
-0.37614304	-0.02782774	2.53846478
-0.37593779	-0.02817640	2.53846526
-0.37612325	-0.02852114	2.53846288
-0.37588164	-0.02919370	2.53846264
-0.37587321	-0.02960699	2.53846145
-0.37543768	-0.03034809	2.53846240
-0.37512374	-0.03091976	2.53846312
-0.37509060	-0.03137689	2.53846192
-0.37555575	-0.03217292	2.53845572
-0.37628445	-0.03424703	2.53844357
-0.37463894	-0.03615436	2.53845024
-0.37469143	-0.03694870	2.53844738
-0.37405434	-0.03757370	2.53845024
-0.37422216	-0.03796411	2.53844786
-0.37355861	-0.03886539	2.53845000
-0.37341976	-0.04042744	2.53844619
-0.37246731	-0.04203925	2.53844857
-0.37090537	-0.04358470	2.53845572
-0.37065044	-0.04402095	2.53845620
-0.37084961	-0.04478472	2.53845239
-0.37047762	-0.04585729	2.53845191
-0.37006700	-0.04655463	2.53845286
-0.37014678	-0.04725557	2.53845000
-0.36950770	-0.04811293	2.53845215
-0.36928988	-0.04915690	2.53845048
-0.36981013	-0.05069771	2.53844166
-0.36958790	-0.05262168	2.53843737
-0.36845025	-0.05388880	2.53844213
-0.36901525	-0.05469243	2.53843522
-0.36857995	-0.05543357	2.53843617
-0.36806130	-0.05653668	2.53843689
-0.36757818	-0.05713306	2.53843856
-0.36706588	-0.05865331	2.53843784
-0.36683413	-0.05927820	2.53843760
-0.36661804	-0.06008977	2.53843665
-0.49813777	-0.17235483	2.53706670
-0.56467652	-0.26766774	2.53625226
-0.56582636	-0.26858157	2.53624034
-0.57158983	-0.27779305	2.53616691
-0.57302988	-0.27911067	2.53615165
-0.57396543	-0.28060365	2.53613973
-0.57475400	-0.28059766	2.53613353
-0.57503647	-0.28099945	2.53613019
-0.57623422	-0.28205806	2.53611755
-0.57695979	-0.28325021	2.53610826
-0.57734853	-0.28347862	2.53610444
-0.57847852	-0.28508586	2.53609061
-0.57967645	-0.28614452	2.53607798
-0.58050215	-0.28827566	2.53606486
-0.58042347	-0.28928715	2.53606248
-0.58256119	-0.29308638	2.53603387
-0.58307683	-0.29397768	2.53602719
-0.58347046	-0.29485565	2.53602123
-0.58365571	-0.29520029	2.53601885
-0.58639389	-0.30004513	2.53598237
-0.58697277	-0.30126780	2.53597403
-0.58810103	-0.30310747	2.53595948
-0.58833408	-0.30359691	2.53595614
-0.58888662	-0.30509582	2.53594708
-0.58946383	-0.30655089	2.53593802
-0.58946228	-0.30831283	2.53593254
-0.58900380	-0.30886537	2.53593445
-0.58874011	-0.30953223	2.53593421
-0.58897293	-0.31002164	2.53593087
-0.60276628	-0.33207613	2.53575492
-0.60243291	-0.33352393	2.53575277
-0.60102659	-0.33480832	2.53575969
-0.60036135	-0.33594200	2.53576136
-0.60141706	-0.33768067	2.53574753
-0.60274613	-0.34005162	2.53572989
-0.60333896	-0.34169340	2.53572011
-0.60051084	-0.34407550	2.53573442
-0.60054505	-0.34533077	2.53573036
-0.60025024	-0.34715384	2.53572679
-0.60089064	-0.34894028	2.53571630
-0.70319760	-0.48819134	2.53448677
-0.70574725	-0.52881843	2.53433895
-0.70570254	-0.52955574	2.53433704
-0.70544022	-0.53286636	2.53432870
-0.70489478	-0.53712189	2.53431940
-0.70213455	-0.55124164	2.53429627
-0.70145994	-0.55260575	2.53429723
-0.67745030	-0.57456434	2.53441334
-0.67635739	-0.57509434	2.53442025
-0.67231351	-0.57687879	2.53444576
-0.58573991	-0.58930898	2.53507543
-0.56365192	-0.59190434	2.53523779
-0.54457790	-0.59339368	2.53538060
-0.53565609	-0.59330004	2.53544974
-0.53276968	-0.59312403	2.53547263
-0.53062570	-0.59256476	2.53549099
-0.49124625	-0.58187509	2.53582883
-0.49098381	-0.58077991	2.53583431
-0.48958176	-0.57965475	2.53584862
-0.48549756	-0.57842010	2.53588414
-0.48811132	-0.57374084	2.53587866
-0.49244499	-0.56642461	2.53586841
-0.49239862	-0.56451792	2.53587461
-0.47849005	-0.54226923	2.53605223
-0.47774309	-0.53912657	2.53606796
-0.47774923	-0.53801411	2.53607130
-0.48453191	-0.52639174	2.53605556
-0.48304245	-0.52516174	2.53607106
-0.48268273	-0.52400947	2.53607750
-0.47846904	-0.51835376	2.53612781
-0.47918347	-0.51560289	2.53613091
-0.47824484	-0.51322794	2.53614569
-0.47500220	-0.51143491	2.53617644
-0.47334141	-0.51027930	2.53619289
-0.47095191	-0.50704956	2.53622150
-0.46758097	-0.50359780	2.53625846
-0.46675330	-0.50169903	2.53627086
-0.46580392	-0.49978691	2.53628421
-0.46591192	-0.49938107	2.53628469
-0.46478683	-0.49842343	2.53629637
-0.46435457	-0.49717027	2.53630376
-0.46267697	-0.49471366	2.53632426
-0.46165061	-0.49358070	2.53633595
-0.46079960	-0.49284005	2.53634477
-0.46008682	-0.49248213	2.53635144
-0.45996290	-0.49117169	2.53635645
-0.45947164	-0.49068409	2.53636193
-0.45912433	-0.49033394	2.53636551
-0.45803523	-0.48980102	2.53637576
-0.45753592	-0.48927921	2.53638124
-0.45677656	-0.48836139	2.53639007
-0.45567358	-0.48740944	2.53640151
-0.45495522	-0.48681730	2.53640890
-0.45487630	-0.48629919	2.53641105
-0.45461094	-0.48585162	2.53641462
-0.45374340	-0.48533955	2.53642297
-0.45351782	-0.48485202	2.53642631
-0.45200944	-0.48390022	2.53644085
-0.45161602	-0.48302230	2.53644657
-0.45020777	-0.48226082	2.53645992
-0.45013559	-0.48156184	2.53646278
-0.45029554	-0.48101887	2.53646326
-0.44979388	-0.48054665	2.53646851
-0.44945961	-0.48028207	2.53647208
-0.44905928	-0.47958499	2.53647733
-0.44856256	-0.47916430	2.53648233
-0.44805175	-0.47892258	2.53648710
-0.44597980	-0.47753283	2.53650761
-0.44591746	-0.47678614	2.53651047
-0.44566715	-0.47634250	2.53651381
-0.44526270	-0.47592738	2.53651810
-0.44364285	-0.47509742	2.53653336
-0.44325671	-0.47422135	2.53653908
-0.44312835	-0.47379097	2.53654146
-0.44232589	-0.47337794	2.53654885
-0.44248325	-0.47288448	2.53654909
-0.44184244	-0.47244471	2.53655553
-0.44095194	-0.47174409	2.53656459
-0.44026500	-0.47092721	2.53657246
-0.43881589	-0.46984005	2.53658724
-0.43911207	-0.46913141	2.53658700
-0.43814725	-0.46856219	2.53659630
-0.43834943	-0.46733156	2.53659868
-0.43868768	-0.46653336	2.53659844
-0.43843746	-0.46608964	2.53660178
-0.43773216	-0.46573371	2.53660846
-0.43759626	-0.46530133	2.53661084
-0.43767005	-0.46486863	2.53661156
-0.43641371	-0.46412814	2.53662372
-0.43611729	-0.46330726	2.53662848
-0.43511409	-0.46236289	2.53663921
-0.43521440	-0.46042562	2.53664470
-0.43476206	-0.45986569	2.53664994
-0.43328187	-0.45840532	2.53666592
-0.43327722	-0.45775580	2.53666806
-0.43291926	-0.45637116	2.53667521
-0.43271086	-0.45583785	2.53667855
-0.43192488	-0.45519620	2.53668642
-0.43049431	-0.45364821	2.53670239
-0.43118697	-0.45182306	2.53670287
-0.43028742	-0.45135295	2.53671122
-0.42987370	-0.45116830	2.53671503
-0.42901713	-0.45019338	2.53672481
-0.42900330	-0.44977427	2.53672624
-0.42852622	-0.44925830	2.53673148
-0.42869118	-0.44876671	2.53673172
-0.42776698	-0.44834042	2.53674030
-0.42749524	-0.44747576	2.53674507
-0.42742556	-0.44672722	2.53674793
-0.42703652	-0.44649875	2.53675175
-0.42650282	-0.44606850	2.53675723
-0.42640823	-0.44536370	2.53676009
-0.42606881	-0.44504768	2.53676367
-0.42575407	-0.44468775	2.53676724
-0.42543131	-0.44414309	2.53677154
-0.42554125	-0.44350502	2.53677273
-0.42469841	-0.44294903	2.53678107
-0.42483866	-0.44250140	2.53678131
-0.42437732	-0.44217199	2.53678584
-0.42442936	-0.44143671	2.53678775
-0.42404056	-0.44120830	2.53679156
-0.42357922	-0.44087893	2.53679609
-0.42303860	-0.44014990	2.53680253
-0.42268357	-0.43964720	2.53680706
-0.42237633	-0.43928918	2.53681040
-0.42213449	-0.43891177	2.53681350
-0.42081279	-0.43819073	2.53682590
-0.42045772	-0.43768796	2.53683043
-0.41992229	-0.43749011	2.53683519
-0.41889417	-0.43658954	2.53684592
-0.41581032	-0.43541735	2.53687334
-0.41601080	-0.43441910	2.53687501
-0.41565591	-0.43391639	2.53687930
-0.41509733	-0.43352994	2.53688478
-0.41453058	-0.43295872	2.53689098
-0.41415337	-0.43245023	2.53689551
-0.41351497	-0.43136281	2.53690386
-0.41181868	-0.43071395	2.53691912
-0.41089863	-0.42940757	2.53693032
-0.41097909	-0.42816377	2.53693366
-0.41056538	-0.42797911	2.53693724
-0.41035718	-0.42744586	2.53694057
-0.40980843	-0.42701173	2.53694630
-0.40966269	-0.42662701	2.53694868
-0.40873271	-0.42596638	2.53695774
-0.40832567	-0.42560083	2.53696227
-0.40816510	-0.42521229	2.53696465
-0.40775159	-0.42502773	2.53696847
-0.40676212	-0.42450240	2.53697777
-0.40603995	-0.42407376	2.53698468
-0.40583155	-0.42354044	2.53698802
-0.40567243	-0.42303801	2.53699064
-0.40480343	-0.42263985	2.53699875
-0.40435135	-0.42208004	2.53700399
-0.40373820	-0.42125010	2.53701138
-0.40313017	-0.42095125	2.53701687
-0.40188289	-0.41998023	2.53702974
-0.40138137	-0.41950810	2.53703499
-0.40149117	-0.41886994	2.53703618
-0.40057400	-0.41844547	2.53704453
-0.39987800	-0.41785908	2.53705192
-0.39934695	-0.41678122	2.53705931
-0.39808309	-0.41603881	2.53707147
-0.39732009	-0.41558570	2.53707886
-0.39717054	-0.41473430	2.53708267
-0.39705938	-0.41425812	2.53708506
-0.39704725	-0.41360667	2.53708720
-0.39673537	-0.41259918	2.53709269
-0.39640328	-0.41228497	2.53709626
-0.39605018	-0.41154990	2.53710127
-0.39483219	-0.41118458	2.53711176
-0.39472127	-0.41070843	2.53711414
-0.39491439	-0.40970832	2.53711581
-0.39424402	-0.40866283	2.53712440
-0.39401090	-0.40817338	2.53712773
-0.39359742	-0.40798882	2.53713155
-0.39382103	-0.40717918	2.53713226
-0.39336139	-0.40661740	2.53713751
-0.39325029	-0.40614122	2.53713989
-0.39289343	-0.40587085	2.53714347
-0.39297855	-0.40527654	2.53714490
-0.39255691	-0.40490717	2.53714919
-0.39236590	-0.40432814	2.53715253
-0.39218068	-0.40398347	2.53715515
-0.39222366	-0.40347868	2.53715634
-0.39183465	-0.40325019	2.53715992
-0.39188772	-0.40269780	2.53716135
-0.39161807	-0.40238157	2.53716445
-0.39114943	-0.40220094	2.53716874
-0.39079511	-0.40173042	2.53717279
-0.39054984	-0.40133819	2.53717589
-0.39035210	-0.40094009	2.53717875
-0.38991314	-0.40076706	2.53718281
-0.38806999	-0.40014869	2.53719878
-0.38825673	-0.39873144	2.53720188
-0.38814557	-0.39825529	2.53720427
-0.38821349	-0.39770669	2.53720546
-0.38726431	-0.39732417	2.53721404
-0.38685060	-0.39713958	2.53721786
-0.38698328	-0.39653933	2.53721857
-0.38658869	-0.39607659	2.53722310
-0.38601238	-0.39570367	2.53722882
-0.38581961	-0.39535707	2.53723145
-0.38583845	-0.39492828	2.53723264
-0.38543347	-0.39448097	2.53723717
-0.38508475	-0.39424476	2.53724051
-0.38455841	-0.39396700	2.53724551
-0.38462630	-0.39341843	2.53724670
-0.38267857	-0.39274105	2.53726387
-0.38261685	-0.39217722	2.53726625
-0.38091123	-0.39175880	2.53728056
-0.38138264	-0.38916424	2.53728509
-0.38016409	-0.38861611	2.53729630
-0.38024276	-0.38760465	2.53729892
-0.37991324	-0.38724092	2.53730249
-0.37970504	-0.38670763	2.53730583
-0.37973818	-0.38625050	2.53730702
-0.37932938	-0.38596678	2.53731108
-0.37895459	-0.38555929	2.53731537
-0.37891507	-0.38485062	2.53731775
-0.37843919	-0.38466808	2.53732204
-0.37804514	-0.38438815	2.53732610
-0.37788463	-0.38399962	2.53732848
-0.37781087	-0.38353306	2.53733063
-0.37717301	-0.38322651	2.53733635
-0.37701243	-0.38283804	2.53733897
-0.37612194	-0.38213742	2.53734803
-0.37571922	-0.38148993	2.53735304
-0.37519285	-0.38106152	2.53735852
-0.37459385	-0.38053221	2.53736496
-0.37467897	-0.37993789	2.53736615
-0.37408751	-0.37941045	2.53737235
-0.37411571	-0.37890187	2.53737378
-0.37346563	-0.37869260	2.53737926
-0.37244970	-0.37844345	2.53738809
-0.37252262	-0.37719765	2.53739142
-0.37236959	-0.37681106	2.53739381
-0.37189084	-0.37652740	2.53739834
-0.37145764	-0.37568942	2.53740430
-0.37132180	-0.37525707	2.53740668
-0.37113076	-0.37467805	2.53741002
-0.37094548	-0.37433338	2.53741264
-0.37057391	-0.37405917	2.53741622
-0.37042084	-0.37367257	2.53741860
-0.36998418	-0.37329939	2.53742337
-0.36979893	-0.37295470	2.53742576
-0.36950082	-0.37236625	2.53743005
-0.36893255	-0.37202746	2.53743529
-0.36890379	-0.37160456	2.53743696
-0.36853886	-0.37114945	2.53744125
-0.36834034	-0.37056848	2.53744459
-0.36797386	-0.37034583	2.53744817
-0.36753142	-0.36973828	2.53745341
-0.36531338	-0.36931059	2.53747201
-0.36572814	-0.36620367	2.53747845
-0.36535591	-0.36574671	2.53748274
-0.36472318	-0.36549169	2.53748846
-0.36463672	-0.36497170	2.53749084
-0.36462286	-0.36455265	2.53749228
-0.36451918	-0.36407834	2.53749466
-0.36328757	-0.36329406	2.53750658
-0.36245105	-0.36162582	2.53751826
-0.36221793	-0.36113629	2.53752160
-0.36217296	-0.36034399	2.53752446
-0.36135477	-0.35974422	2.53753257
-0.36109874	-0.35906619	2.53753686
-0.36098778	-0.35859007	2.53753924
-0.36099625	-0.35817674	2.53754044
-0.36056769	-0.35798824	2.53754425
-0.36053896	-0.35756537	2.53754592
-0.36000267	-0.35718465	2.53755116
-0.35993856	-0.35667041	2.53755331
-0.35979539	-0.35623619	2.53755569
-0.35966706	-0.35580575	2.53755808
-0.35928795	-0.35552964	2.53756189
-0.35929894	-0.35506678	2.53756332
-0.35908815	-0.35458305	2.53756642
-0.35869244	-0.35453555	2.53756976
-0.35824788	-0.35397765	2.53757477
-0.35826769	-0.35328424	2.53757691
-0.35784671	-0.35309768	2.53758073
-0.35714227	-0.35292464	2.53758669
-0.35719138	-0.35130739	2.53759146
-0.35687178	-0.35104659	2.53759480
-0.35654485	-0.35078394	2.53759813
-0.35627538	-0.35046774	2.53760123
-0.35612327	-0.34966591	2.53760481
-0.35557216	-0.34928137	2.53761029
-0.35560471	-0.34864143	2.53761220
-0.35538465	-0.34823757	2.53761506
-0.35487133	-0.34804541	2.53761959
-0.35484201	-0.34743971	2.53762174
-0.35424626	-0.34719422	2.53762722
-0.35401651	-0.34683809	2.53763008
-0.35347447	-0.34622303	2.53763628
-0.35321170	-0.34572592	2.53763986
-0.35311478	-0.34507075	2.53764248
-0.35241857	-0.34448430	2.53764987
-0.35194033	-0.34360266	2.53765631
-0.35126561	-0.34268850	2.53766441
-0.35079962	-0.34170961	2.53767109
-0.35045534	-0.34074399	2.53767681
-0.35035342	-0.34003732	2.53767967
-0.35022277	-0.33965650	2.53768206
-0.35003406	-0.33902788	2.53768539
-0.34965256	-0.33880135	2.53768921
-0.34949204	-0.33841285	2.53769159
-0.34932274	-0.33765680	2.53769517
-0.34901556	-0.33729881	2.53769875
-0.34894302	-0.33644912	2.53770208
-0.34831470	-0.33606285	2.53770804
-0.34830081	-0.33489507	2.53771186
-0.34757087	-0.33458298	2.53771853
-0.34700674	-0.33396220	2.53772473
-0.34683228	-0.33315462	2.53772879
-0.34663552	-0.33021367	2.53773952
-0.34661296	-0.32867837	2.53774452
-0.34649366	-0.32801744	2.53774738
-0.34640914	-0.32726508	2.53775048
-0.34601545	-0.32713577	2.53775406
-0.34593830	-0.32563660	2.53775930
-0.34590876	-0.32503083	2.53776145
-0.34551996	-0.32480243	2.53776526
-0.34515423	-0.32188630	2.53777719
-0.34470171	-0.31979686	2.53778720
-0.34450251	-0.31903309	2.53779125
-0.34396419	-0.31795329	2.53779888
-0.34380493	-0.31580281	2.53780675
-0.34352273	-0.31480294	2.53781199
-0.34313512	-0.31341064	2.53781939
-0.34303683	-0.31164110	2.53782582
-0.34293088	-0.31046772	2.53783035
-0.34251428	-0.30940118	2.53783703
-0.34235990	-0.30790022	2.53784275
-0.34188902	-0.30627179	2.53785157
-0.34166518	-0.30555186	2.53785563
-0.34150463	-0.30516332	2.53785801
-0.16863717	-0.31285167	2.53916931
-0.16826960	-0.31304416	2.53917146
-0.16717842	-0.31334174	2.53917909
-0.16664124	-0.31337625	2.53918314
-0.16610385	-0.31341070	2.53918719
-0.16555992	-0.31362614	2.53919077
-0.16515952	-0.31367779	2.53919363
-0.16469705	-0.31376362	2.53919697
-0.16414648	-0.31431058	2.53919935
-0.16249344	-0.31468648	2.53921103
-0.16192228	-0.31499526	2.53921437
-0.16076608	-0.31519383	2.53922272
-0.16000041	-0.31538841	2.53922796
-0.15925968	-0.31553918	2.53923321
-0.15867925	-0.31607845	2.53923607
-0.15771931	-0.31615883	2.53924322
-0.15665133	-0.31664503	2.53924990
-0.15443790	-0.31686682	2.53926635
-0.15385425	-0.31712222	2.53927016
-0.15352993	-0.31744021	2.53927159
-0.15293407	-0.31779286	2.53927517
-0.15252349	-0.31849018	2.53927612
-0.15204382	-0.31862175	2.53927922
-0.15200044	-0.32047331	2.53927374
-0.15138142	-0.32063735	2.53927803
-0.15121646	-0.32112885	2.53927779
-0.15098646	-0.32152137	2.53927827
-0.15088481	-0.32234424	2.53927660
-0.15073375	-0.32325479	2.53927493
-0.15057608	-0.32374823	2.53927445
-0.15047267	-0.32480350	2.53927207
-0.14991394	-0.32729334	2.53926849
-0.14880735	-0.32740426	2.53927660
-0.14891234	-0.32899290	2.53927088
-0.14908044	-0.33091283	2.53926349
-0.14823166	-0.33146936	2.53926826
-0.14814216	-0.33294377	2.53926444
-0.14789498	-0.33491153	2.53925991
-0.14699356	-0.33755016	2.53925872
-0.14671881	-0.33867979	2.53925729
-0.14575866	-0.33876014	2.53926444
-0.14438462	-0.34000263	2.53927112
-0.14313778	-0.34056124	2.53927898
-0.13850424	-0.34752133	2.53929281
-0.13720913	-0.34928191	2.53929734
-0.13640971	-0.34975082	2.53930187
-0.13574135	-0.35000247	2.53930640
-0.13468702	-0.35090768	2.53931165
-0.13391058	-0.35156515	2.53931546
-0.13318375	-0.35213503	2.53931928
-0.13285646	-0.35247040	2.53932095
-0.13237330	-0.35306680	2.53932261
-0.13164626	-0.35363659	2.53932643
-0.12895417	-0.35645109	2.53933835
-0.12763438	-0.35825551	2.53934288
-0.12651369	-0.35794735	2.53935266
-0.12515992	-0.36002603	2.53935647
-0.12409193	-0.36051220	2.53936315
-0.12376469	-0.36084762	2.53936458
-0.12281284	-0.36111268	2.53937125
-0.12245256	-0.36130711	2.53937340
-0.12153935	-0.36194748	2.53937840
-0.12048502	-0.36285266	2.53938365
-0.11903729	-0.36287990	2.53939486
-0.11816357	-0.36348024	2.53939962
-0.11715980	-0.36388257	2.53940606
-0.11689027	-0.36431506	2.53940678
-0.11581220	-0.36484888	2.53941345
-0.11523198	-0.36538815	2.53941631
-0.11485690	-0.36557877	2.53941846
-0.11437743	-0.36571041	2.53942180
-0.11377498	-0.36564586	2.53942680
-0.11337364	-0.36611277	2.53942823
-0.11307109	-0.36640429	2.53942966
-0.11254354	-0.36639112	2.53943396
-0.11191664	-0.36637047	2.53943872
-0.11098775	-0.36682412	2.53944445
-0.11036374	-0.36768538	2.53944659
-0.10975397	-0.36761895	2.53945160
-0.10916800	-0.36792392	2.53945518
-0.10874442	-0.36778697	2.53945875
-0.10840235	-0.36811852	2.53946042
-0.10774786	-0.36878926	2.53946328
-0.10726758	-0.36873806	2.53946733
-0.10661633	-0.36894399	2.53947163
-0.10624144	-0.36913460	2.53947401
-0.10565290	-0.36948913	2.53947735
-0.10497083	-0.36932182	2.53948307
-0.10447198	-0.36973152	2.53948569
-0.10404195	-0.36977550	2.53948879
-0.10381192	-0.37016803	2.53948951
-0.10328207	-0.37020439	2.53949332
-0.10288051	-0.37067124	2.53949499
-0.10211504	-0.37086588	2.53950024
-0.10159679	-0.37062225	2.53950500
-0.10112442	-0.37075570	2.53950834
-0.10060286	-0.37097687	2.53951168
-0.10014440	-0.37152946	2.53951359
-0.09939381	-0.37172785	2.53951859
-0.09898823	-0.37172797	2.53952169
-0.09818418	-0.37154737	2.53952861
-0.09793678	-0.37198555	2.53952909
-0.09752155	-0.37203336	2.53953218
-0.09705752	-0.37235168	2.53953481
-0.09660924	-0.37225851	2.53953838
-0.09605373	-0.37275401	2.53954124
-0.09562347	-0.37279791	2.53954434
-0.09475242	-0.37275061	2.53955126
-0.09454712	-0.37309927	2.53955173
-0.09413095	-0.37356234	2.53955340
-0.09374598	-0.37380061	2.53955579
-0.09323522	-0.37355888	2.53956056
-0.09264781	-0.37349823	2.53956509
-0.09233858	-0.37397069	2.53956604
-0.09194514	-0.37462229	2.53956699
-0.09115499	-0.37486070	2.53957248
-0.09040417	-0.37505907	2.53957748
-0.08993430	-0.37589172	2.53957868
-0.08906582	-0.37579495	2.53958559
-0.08866774	-0.37579694	2.53958869
-0.08828126	-0.37626764	2.53959012
-0.08784191	-0.37654209	2.53959274
-0.08752950	-0.37688130	2.53959417
-0.08701667	-0.37746999	2.53959608
-0.08599260	-0.37703618	2.53960538
-0.08556812	-0.37731439	2.53960776
-0.08517994	-0.37726876	2.53961110
-0.08494994	-0.37766129	2.53961158
-0.08390047	-0.37921607	2.53961468
-0.08283050	-0.37993458	2.53962064
-0.08251891	-0.38045657	2.53962159
-0.08188446	-0.38043401	2.53962636
-0.08110976	-0.38085902	2.53963113
-0.08061095	-0.38126880	2.53963375
-0.08001685	-0.38138902	2.53963780
-0.07951824	-0.38179874	2.53964043
-0.07845929	-0.38205445	2.53964782
-0.07783125	-0.38244897	2.53965139
-0.07731526	-0.38290444	2.53965402
-0.07708527	-0.38329694	2.53965449
-0.07637388	-0.38405341	2.53965759
-0.07387920	-0.38939360	2.53965998
-0.07178774	-0.38962871	2.53967547
-0.06957595	-0.39249441	2.53968358
-0.06813744	-0.39229125	2.53969526
-0.06747077	-0.39231050	2.53970027
-0.06710204	-0.39291823	2.53970122
-0.06653839	-0.39322901	2.53970480
-0.06579748	-0.39337969	2.53971004
-0.06507701	-0.39436671	2.53971243
-0.06466001	-0.39464688	2.53971481
-0.06386355	-0.39599770	2.53971672
-0.06308396	-0.39577320	2.53972340
-0.06249161	-0.39566109	2.53972816
-0.06221953	-0.39614314	2.53972888
-0.06195733	-0.39657751	2.53972960
-0.06129201	-0.39771116	2.53973103
-0.06029172	-0.39764872	2.53973889
-0.05993052	-0.39825839	2.53973985
-0.05942264	-0.39889857	2.53974175
-0.05818795	-0.40010864	2.53974748
-0.05687410	-0.40080059	2.53975558
-0.05626434	-0.40073419	2.53976035
-0.05566408	-0.40196684	2.53976107
-0.05516726	-0.40214422	2.53976440
-0.05464375	-0.40259773	2.53976703
-0.05389373	-0.40297896	2.53977156
-0.05337046	-0.40343258	2.53977418
-0.05224359	-0.40423679	2.53978038
-0.05150108	-0.40461996	2.53978491
-0.05051623	-0.40474412	2.53979206
-0.04885240	-0.40558296	2.53980231
-0.04845899	-0.40623450	2.53980327
-0.04782452	-0.40621188	2.53980827
-0.04713954	-0.40669221	2.53981209
-0.04684453	-0.40698564	2.53981352
-0.04583542	-0.40868330	2.53981590
-0.04510219	-0.41036549	2.53981614
-0.04444771	-0.41103625	2.53981924
-0.04261847	-0.41083699	2.53983402
-0.04141286	-0.41112313	2.53984237
-0.03881158	-0.41070133	2.53986382
-0.03829908	-0.41069204	2.53986788
-0.03696668	-0.41031533	2.53987932
-0.03546467	-0.40978074	2.53989267
-0.03504504	-0.41070849	2.53989291
-0.03345041	-0.41076624	2.53990507
-0.03321138	-0.41138923	2.53990483
-0.03200091	-0.41102591	2.53991532
-0.03126016	-0.41117668	2.53992057
-0.03006096	-0.41188002	2.53992772
-0.02817573	-0.41135120	2.53994393
-0.02780083	-0.41154185	2.53994632
-0.02528752	-0.41140753	2.53996611
-0.02110086	-0.41081303	2.54000020
-0.01887204	-0.41084823	2.54001737
-0.01789472	-0.41097429	2.54002452
-0.01699959	-0.41115367	2.54003096
-0.01662293	-0.41157675	2.54003239
-0.01369613	-0.41125783	2.54005599
-0.01311108	-0.41114756	2.54006100
-0.01159014	-0.41089106	2.54007339
-0.00998650	-0.41117933	2.54008508
-0.00976637	-0.41152412	2.54008555
-0.00885160	-0.41392651	2.54008508
-0.00783302	-0.41432497	2.54009175
-0.00712602	-0.41420144	2.54009748
-0.00663823	-0.41414833	2.54010153
-0.00565821	-0.41492200	2.54010653
-0.00315128	-0.41520485	2.54012513
0.00078218	-0.41440642	2.54015803
0.00289834	-0.41468537	2.54017353
0.00412512	-0.41608012	2.54017854
0.00452471	-0.41631457	2.54018092
0.00630672	-0.42186201	2.54017711
0.00755093	-0.42177296	2.54018712
0.00797372	-0.42181882	2.54019022
0.00858341	-0.42175239	2.54019499
0.00930773	-0.42167461	2.54020095
0.01012106	-0.42172444	2.54020715
0.01233618	-0.42217866	2.54022264
0.01344113	-0.42205715	2.54023170
0.01407561	-0.42203456	2.54023671
0.01486248	-0.42180821	2.54024339
0.01557285	-0.42214945	2.54024792
0.01643564	-0.42228690	2.54025412
0.01733878	-0.42228156	2.54026103
0.01809059	-0.42289522	2.54026484
0.02006446	-0.42402363	2.54027653
0.02248619	-0.42371210	2.54029632
0.02719851	-0.42287207	2.54033542
0.02756774	-0.42329699	2.54033685
0.02816196	-0.42341721	2.54034114
0.03042035	-0.42284667	2.54036045
0.03120157	-0.42285460	2.54036641
0.03740379	-0.42287996	2.54041409
0.04280724	-0.42150491	2.54046035
0.05291705	-0.41877538	2.54054689
0.05470903	-0.41783696	2.54056382
0.07566172	-0.38280392	2.54083610
0.07878135	-0.37045041	2.54089928
0.07933560	-0.36477804	2.54092121
0.07795335	-0.34490076	2.54097342
0.07780828	-0.34435391	2.54097390
0.07759985	-0.34201092	2.54097962
0.07670769	-0.33429766	2.54099703
0.07659337	-0.33277950	2.54100108
0.07640502	-0.33112979	2.54100466
0.07617965	-0.33008778	2.54100633
0.07572417	-0.32577699	2.54101634
0.07525200	-0.32564342	2.54101324
0.07458359	-0.32539171	2.54100871
0.07420985	-0.32408679	2.54100990
0.07331479	-0.32103109	2.54101276
0.07237945	-0.32099453	2.54100561
0.07198274	-0.31987816	2.54100609
0.07160774	-0.31968749	2.54100370
0.07147786	-0.31835598	2.54100704
0.07105510	-0.31831011	2.54100394
0.07064627	-0.31784520	2.54100227
0.07041280	-0.31698793	2.54100299
0.06988548	-0.31700104	2.54099894
0.06955516	-0.31631932	2.54099846
0.06943929	-0.31579700	2.54099941
0.06920785	-0.31529057	2.54099917
0.06900862	-0.31440634	2.54100037
0.06853935	-0.31339085	2.54099989
0.06810886	-0.31200019	2.54100108
0.06766741	-0.31179458	2.54099822
0.06747901	-0.31137323	2.54099822
0.06713490	-0.31111056	2.54099631
0.06684008	-0.31051582	2.54099584
0.06677669	-0.30961895	2.54099822
0.06646807	-0.30821496	2.54100037
0.06556353	-0.30645835	2.54099870
0.06502625	-0.30642387	2.54099464
0.06465900	-0.30470175	2.54099727
0.06431028	-0.30191103	2.54100347
0.06369439	-0.30086505	2.54100204
0.06289314	-0.30016378	2.54099798
0.05595213	-0.12754354	2.54148865
0.05615121	-0.12677981	2.54149270
0.05666512	-0.12565608	2.54150009
0.05707118	-0.12547339	2.54150391
0.05747685	-0.12394400	2.54151177
0.05721787	-0.11822180	2.54152775
0.05730900	-0.11705226	2.54153228
0.05731365	-0.11640275	2.54153419
0.05737999	-0.11518937	2.54153872
0.05734271	-0.11445025	2.54154062
0.05746013	-0.11355700	2.54154444
0.05747232	-0.11290555	2.54154658
0.05792627	-0.11257806	2.54155111
0.05781990	-0.10512252	2.54157376
0.05781379	-0.10401009	2.54157710
0.05762386	-0.10059847	2.54158640
0.05717975	-0.09294271	2.54160714
0.05728161	-0.09223609	2.54161024
0.05786616	-0.09077910	2.54161930
0.05854094	-0.09061368	2.54162502
0.05942509	-0.09033017	2.54163289
0.05873787	-0.07083012	2.54168892
0.05703846	-0.06507878	2.54169393
0.05482161	-0.05998634	2.54169297
0.05432773	-0.05892706	2.54169250
0.05312070	-0.05687886	2.54168963
0.05118519	-0.05765347	2.54167223
0.04650864	-0.05459443	2.54164577
0.04215756	-0.05163836	2.54162145
0.04154781	-0.05170479	2.54161644
-0.11536384	0.01547851	2.54061604
-0.21095818	0.05696831	2.54000831
-0.21126074	0.05725986	2.54000688
-0.21110019	0.05764838	2.54000950
-0.21149248	0.05788475	2.54000711
-0.21177937	0.05836298	2.54000640
-0.21200186	0.05875741	2.54000592
-0.21227334	0.05942224	2.54000592
-0.21225189	0.05984326	2.54000735
-0.21292470	0.06097498	2.54000592
-0.21282107	0.06144923	2.54000807
-0.21317473	0.06206082	2.54000735
-0.21352671	0.06244003	2.54000568
-0.21373197	0.06278870	2.54000521
-0.21401161	0.06326881	2.54000473
-0.21377033	0.06394301	2.54000854
-0.21419662	0.06445367	2.54000688
-0.21505639	0.06547307	2.54000354
-0.21489587	0.06586160	2.54000592
-0.21523216	0.06642748	2.54000521
-0.21558432	0.06680666	2.54000354
-0.21565200	0.06735528	2.54000497
-0.21600398	0.06773447	2.54000330
-0.21673103	0.06830427	2.53999949
-0.21700577	0.06943397	2.54000092
-0.21718152	0.07038835	2.54000258
-0.21750875	0.07072378	2.54000115
-0.21800758	0.07113344	2.53999853
-0.21818331	0.07208785	2.54000020
-0.21855533	0.07316043	2.54000068
-0.21925016	0.07368835	2.53999710
-0.22005130	0.07438963	2.53999305
-0.21978247	0.07590194	2.53999996
-0.22069652	0.07635944	2.53999424
-0.22042307	0.07699177	2.53999829
-0.22127207	0.07754830	2.53999352
-0.22197598	0.07830667	2.53999043
-0.22230324	0.07864207	2.53998899
-0.22252686	0.07945170	2.53998995
-0.22284660	0.07978903	2.53998852
-0.22304550	0.08055482	2.53998923
-0.22377251	0.08112460	2.53998542
-0.22390531	0.08157425	2.53998590
-0.22413528	0.08196674	2.53998542
-0.22442220	0.08244494	2.53998470
-0.22497037	0.08294230	2.53998208
-0.22478686	0.08351940	2.53998518
-0.22499216	0.08386807	2.53998470
-0.22549075	0.08427781	2.53998208
-0.22577764	0.08475602	2.53998160
-0.22594264	0.08524754	2.53998184
-0.22628728	0.08562865	2.53998041
-0.22691709	0.08625559	2.53997731
-0.22670053	0.08697359	2.53998137
-0.22737068	0.08745768	2.53997779
-0.22775659	0.08811121	2.53997684
-0.22775172	0.08876075	2.53997874
-0.22802494	0.08965801	2.53997970
-0.22847414	0.08998008	2.53997707
-0.22882609	0.09035932	2.53997564
-0.22905609	0.09075179	2.53997517
-0.22912376	0.09130041	2.53997636
-0.23000851	0.09236358	2.53997278
-0.23040807	0.09259811	2.53997040
-0.23117065	0.09367464	2.53996801
-0.23191777	0.09493781	2.53996611
-0.23240091	0.09553417	2.53996420
-0.23327440	0.09613459	2.53995943
-0.23378226	0.09677478	2.53995752
-0.23416819	0.09742827	2.53995657
-0.23519930	0.09852205	2.53995204
-0.23502329	0.09909719	2.53995538
-0.23585841	0.10007280	2.53995180
-0.23675194	0.10136658	2.53994918
-0.23769996	0.10209838	2.53994417
-0.23767039	0.10270413	2.53994608
-0.23896110	0.10358466	2.53993893
-0.23880808	0.10397126	2.53994131
-0.24003372	0.10495079	2.53993511
-0.23984823	0.10529554	2.53993750
-0.24057707	0.10609774	2.53993440
-0.24062006	0.10660253	2.53993559
-0.24208960	0.10755552	2.53992724
-0.24233967	0.10864139	2.53992891
-0.24241836	0.10965284	2.53993154
-0.24301420	0.11000549	2.53992796
-0.24329822	0.11136562	2.53993011
-0.24369007	0.11313161	2.53993249
-0.24456084	0.11461385	2.53993058
-0.24515671	0.11496650	2.53992701
-0.24488328	0.11559881	2.53993106
-0.24503626	0.11674173	2.53993344
-0.24551018	0.11710767	2.53993106
-0.24535866	0.11772672	2.53993416
-0.24542813	0.11850769	2.53993607
-0.24578029	0.11888685	2.53993464
-0.24601640	0.12039177	2.53993750
-0.24624641	0.12078428	2.53993702
-0.24653041	0.12214442	2.53993893
-0.24634494	0.12248917	2.53994155
-0.24681424	0.12350463	2.53994107
-0.24710284	0.12421525	2.53994107
-0.24764153	0.12601168	2.53994274
-0.24796878	0.12634706	2.53994107
-0.24855249	0.12735114	2.53993988
-0.24860825	0.12855119	2.53994322
-0.24874097	0.12900081	2.53994370
-0.24919018	0.12932289	2.53994107
-0.24933046	0.12977055	2.53994155
-0.24926890	0.13033438	2.53994370
-0.24992956	0.13211755	2.53994417
-0.24981202	0.13301086	2.53994799
-0.27365148	0.14937496	2.53981543
-0.27410072	0.14969707	2.53981280
-0.27479997	0.15110502	2.53981185
-0.27518585	0.15175846	2.53981113
-0.27592456	0.15260835	2.53980803
-0.27493134	0.15419848	2.53982067
-0.27446976	0.15605739	2.53983021
-0.27507171	0.15752245	2.53982997
-0.27610111	0.15838385	2.53982496
-0.27685463	0.15922987	2.53982162
-0.27648410	0.15991926	2.53982663
-0.27629888	0.16026399	2.53982925
-0.27641308	0.16178218	2.53983307
-0.27742857	0.16306265	2.53982925
-0.27761090	0.16359985	2.53982973
-0.27781621	0.16394854	2.53982925
-0.27834702	0.16440013	2.53982639
-0.27816179	0.16474488	2.53982902
-0.27873465	0.16528603	2.53982615
-0.27853376	0.16581744	2.53982949
-0.27878845	0.16625373	2.53982902
-0.27890575	0.16688994	2.53982997
-0.27985358	0.16762185	2.53982496
-0.28117186	0.16919380	2.53981972
-0.28216922	0.17001325	2.53981471
-0.28211495	0.17057514	2.53981686
-0.28339928	0.17187288	2.53981090
-0.28397948	0.17241214	2.53980827
-0.28674895	0.17447616	2.53979325
-0.28752056	0.17578319	2.53979158
-0.28890210	0.17702375	2.53978467
-0.29020941	0.17813289	2.53977823
-0.29149368	0.17943060	2.53977227
-0.29548049	0.18265894	2.53975177
-0.29625693	0.18331635	2.53974771
-0.29726917	0.18413199	2.53974247
-0.29739457	0.18458349	2.53974295
-0.29793292	0.18503320	2.53974032
-0.29832691	0.18550201	2.53973866
-0.29919231	0.18628712	2.53973436
-0.29953694	0.18666820	2.53973293
-0.29926199	0.18706810	2.53973627
-0.30057734	0.18799247	2.53972912
-0.30153269	0.18872240	2.53972411
-0.30175516	0.18911681	2.53972363
-0.30153710	0.18960243	2.53972673
-0.30232257	0.19049039	2.53972340
-0.30335394	0.19158410	2.53971887
-0.30383688	0.19218057	2.53971720
-0.30429533	0.19273314	2.53971529
-0.30472159	0.19324376	2.53971362
-0.30515516	0.19375256	2.53971195
-0.30568767	0.19443658	2.53971004
-0.30603495	0.19546533	2.53971052
-0.30710006	0.19683340	2.53970671
-0.30789661	0.19818424	2.53970480
-0.30876544	0.19943413	2.53970194
-0.30922365	0.19998674	2.53970003
-0.30900156	0.20093904	2.53970480
-0.31039217	0.20241007	2.53969884
-0.31152982	0.20367727	2.53969383
-0.31309795	0.20633510	2.53969026
-0.31435752	0.20758894	2.53968453
-0.31464618	0.20829958	2.53968453
-0.31501818	0.20937212	2.53968501
-0.31476653	0.21093021	2.53969193
-0.31776869	0.21403435	2.53967834
-0.31987709	0.21584475	2.53966784
-0.33380342	0.22624481	2.53959298
-0.33406559	0.22667919	2.53959227
-0.33519402	0.22771588	2.53958702
-0.33542401	0.22810838	2.53958631
-0.34043580	0.23284759	2.53956270
-0.35061353	0.24082513	2.53950906
-0.35126805	0.24149589	2.53950620
-0.35174191	0.24186179	2.53950357
-0.35206452	0.24284670	2.53950429
-0.35170949	0.24334948	2.53950858
-0.35501420	0.24674514	2.53949380
-0.35538620	0.24781771	2.53949428
-0.35684013	0.24895740	2.53948665
-0.35694814	0.24936318	2.53948712
-0.35797778	0.25022453	2.53948188
-0.35835439	0.25064760	2.53948021
-0.35914013	0.25153551	2.53947711
-0.35895467	0.25188017	2.53947949
-0.36022988	0.25294742	2.53947306
-0.36062717	0.25388101	2.53947282
-0.36102641	0.25429824	2.53947115
-0.36183742	0.25504717	2.53946733
-0.36177331	0.25556144	2.53946948
-0.36197862	0.25591010	2.53946900
-0.36233985	0.25651979	2.53946805
-0.36250651	0.25724366	2.53946900
-0.36286750	0.25785336	2.53946805
-0.36329374	0.25836405	2.53946638
-0.36364570	0.25874323	2.53946495
-0.36366403	0.25920421	2.53946614
-0.36460713	0.26058558	2.53946328
-0.36678237	0.26252937	2.53945255
-0.36626965	0.26406825	2.53946137
-0.36750451	0.26527822	2.53945565
-0.36967155	0.26740676	2.53944564
-0.36974102	0.26818785	2.53944755
-0.37168279	0.27002305	2.53943849
-0.37219989	0.27089369	2.53943706
-0.37264273	0.27163291	2.53943610
-0.37319067	0.27213034	2.53943348
-0.37361690	0.27264097	2.53943181
-0.37346393	0.27302757	2.53943419
-0.37469858	0.27423763	2.53942847
-0.37518910	0.27483216	2.53942657
-0.37558311	0.27530092	2.53942490
-0.37579766	0.27587998	2.53942513
-0.37650156	0.27663848	2.53942204
-0.37733665	0.27761397	2.53941870
-0.37811315	0.27827147	2.53941464
-0.37835237	0.27889442	2.53941488
-0.37976769	0.28040937	2.53940868
-0.38049623	0.28121156	2.53940558
-0.38097939	0.28180799	2.53940368
-0.38173848	0.28241974	2.53939986
-0.38333029	0.28395754	2.53939247
-0.38366181	0.28457475	2.53939176
-0.38385352	0.28594056	2.53939462
-0.38613504	0.28805774	2.53938365
-0.38960934	0.29129541	2.53936696
-0.38935176	0.29174098	2.53937030
-0.38955218	0.29273918	2.53937197
-0.39229351	0.29519388	2.53935862
-0.39306512	0.29650101	2.53935671
-0.39303929	0.29757148	2.53936028
-0.39543283	0.29962766	2.53934836
-0.39520147	0.30034953	2.53935242
-0.39502874	0.30138958	2.53935695
-0.39623898	0.30255574	2.53935122
-0.39666942	0.30394650	2.53935242
-0.39673129	0.30625892	2.53935909
-0.39705080	0.30812579	2.53936267
-0.39753398	0.30872214	2.53936076
-0.39715594	0.30941346	2.53936577
-0.40096512	0.31586093	2.53935671
-0.42867345	0.31330404	2.53913450
