//X	Y	Z
-0.51241785	-0.58127898	3.93656063
-0.47913286	-0.57392645	3.93655610
-0.37581122	-0.54746687	3.93654251
-0.35905218	-0.54216099	3.93654013
-0.36111566	-0.53844440	3.93654037
-0.35994533	-0.53728926	3.93654037
-0.27097553	-0.39008906	3.93652606
-0.26842612	-0.38911435	3.93652558
-0.26784560	-0.38900590	3.93652558
-0.26668006	-0.38831994	3.93652534
-0.26507342	-0.38795939	3.93652511
-0.26403165	-0.38775471	3.93652511
-0.26336312	-0.38753903	3.93652487
-0.26006138	-0.38671046	3.93652463
-0.25892061	-0.38691524	3.93652439
-0.25717807	-0.38718340	3.93652415
-0.25556803	-0.38576028	3.93652391
-0.25260860	-0.38501585	3.93652344
-0.25028664	-0.38458219	3.93652320
-0.24752989	-0.38348806	3.93652296
-0.24404238	-0.38236842	3.93652248
-0.24265389	-0.38161054	3.93652225
-0.24149290	-0.38139370	3.93652201
-0.23886019	-0.38078088	3.93652177
-0.23613553	-0.37899834	3.93652129
-0.23427024	-0.37819174	3.93652105
-0.23395909	-0.37801257	3.93652105
-0.23358603	-0.37802362	3.93652105
-0.23271143	-0.37709516	3.93652081
-0.23195916	-0.37724131	3.93652081
-0.23105228	-0.37700135	3.93652058
-0.22952893	-0.37627879	3.93652034
-0.22721806	-0.37532848	3.93652010
-0.22386515	-0.37417340	3.93651962
-0.22151834	-0.37284899	3.93651938
-0.22044104	-0.37227029	3.93651915
-0.21804301	-0.37061930	3.93651891
-0.21597034	-0.36969328	3.93651867
-0.21468559	-0.36899516	3.93651843
-0.21357232	-0.36804232	3.93651819
-0.21283691	-0.36754766	3.93651819
-0.21218385	-0.36728439	3.93651795
-0.21121004	-0.36676541	3.93651795
-0.21005993	-0.36603189	3.93651772
-0.20826268	-0.36491096	3.93651748
-0.20581697	-0.36399600	3.93651724
-0.20549028	-0.36386436	3.93651700
-0.20442848	-0.36323810	3.93651700
-0.20401838	-0.36346835	3.93651700
-0.20323178	-0.36264721	3.93651676
-0.20119479	-0.36209521	3.93651652
-0.20068225	-0.36167246	3.93651652
-0.20020074	-0.36115456	3.93651628
-0.19943325	-0.36134836	3.93651628
-0.19691125	-0.35921603	3.93651581
-0.19632618	-0.35863850	3.93651581
-0.19452874	-0.35751751	3.93651557
-0.19368982	-0.35696319	3.93651557
-0.19230591	-0.35667443	3.93651533
-0.19127500	-0.35595307	3.93651509
-0.18995452	-0.35488081	3.93651485
-0.18898070	-0.35436177	3.93651485
-0.18759225	-0.35360393	3.93651462
-0.18526220	-0.35163864	3.93651438
-0.18459345	-0.35142294	3.93651414
-0.18028626	-0.34705961	3.93651366
-0.17592196	-0.34249398	3.93651295
-0.17338453	-0.34040922	3.93651247
-0.17134887	-0.33926395	3.93651223
-0.16922498	-0.33801135	3.93651199
-0.16720349	-0.33741185	3.93651175
-0.16516325	-0.33579746	3.93651152
-0.15946735	-0.33067623	3.93651056
-0.09375478	-0.26408225	3.93650079
-0.09172624	-0.26506200	3.93650055
-0.09013970	-0.26512298	3.93650055
-0.08882745	-0.26558247	3.93650031
-0.08727659	-0.26601750	3.93650007
-0.08591182	-0.26674375	3.93649983
-0.08489026	-0.26696074	3.93649983
-0.08425748	-0.26711911	3.93649983
-0.08292952	-0.26762608	3.93649960
-0.08164935	-0.26739708	3.93649936
-0.08057549	-0.26788086	3.93649936
-0.07979233	-0.26812217	3.93649912
-0.07855151	-0.26932976	3.93649912
-0.07768012	-0.26946378	3.93649888
-0.07528656	-0.27198625	3.93649864
-0.07347706	-0.27197534	3.93649840
-0.07141279	-0.27258104	3.93649817
-0.06916224	-0.27289546	3.93649793
-0.06787025	-0.27377662	3.93649769
-0.06655778	-0.27423599	3.93649769
-0.06322958	-0.27767596	3.93649721
-0.06266458	-0.27752000	3.93649721
-0.05837347	-0.27992427	3.93649673
-0.05709696	-0.28075781	3.93649650
-0.05372862	-0.27965033	3.93649602
-0.05168818	-0.27803588	3.93649578
-0.05134606	-0.27795181	3.93649578
-0.04923042	-0.27823094	3.93649554
-0.04590143	-0.27856004	3.93649507
-0.04542467	-0.27851138	3.93649507
-0.04501458	-0.27874163	3.93649507
-0.04355086	-0.27987733	3.93649483
-0.04262821	-0.27968484	3.93649459
-0.04150318	-0.27984214	3.93649459
-0.03937183	-0.28016877	3.93649435
-0.03683059	-0.28072572	3.93649387
-0.03498903	-0.28140330	3.93649364
-0.03389946	-0.28193456	3.93649364
-0.03314748	-0.28208080	3.93649364
-0.03133821	-0.28206995	3.93649340
-0.02982309	-0.28287908	3.93649316
-0.02729732	-0.28338850	3.93649292
-0.02627598	-0.28360549	3.93649268
-0.02562748	-0.28381142	3.93649268
-0.02520190	-0.28408921	3.93649244
-0.02305052	-0.28399432	3.93649220
-0.02250572	-0.28425995	3.93649220
-0.02124123	-0.28398341	3.93649197
-0.02045806	-0.28422475	3.93649197
-0.01984076	-0.28433558	3.93649197
-0.01675127	-0.28409570	3.93649149
-0.01605158	-0.28397515	3.93649149
-0.01425777	-0.28391671	3.93649125
-0.01215760	-0.28414828	3.93649101
-0.01168078	-0.28409958	3.93649077
-0.01077367	-0.28385955	3.93649077
-0.01002169	-0.28400576	3.93649054
-0.00904787	-0.28348672	3.93649054
-0.00742924	-0.28423619	3.93649030
-0.00524215	-0.28376722	3.93649006
-0.00483200	-0.28399745	3.93649006
-0.00303821	-0.28393903	3.93648982
-0.00113726	-0.28275838	3.93648958
-0.00040525	-0.28332624	3.93648934
0.00017522	-0.28321779	3.93648934
0.00153889	-0.28335071	3.93648911
0.00371030	-0.28283417	3.93648887
0.00569499	-0.28201535	3.93648863
0.00779514	-0.28224695	3.93648839
0.00936605	-0.28226039	3.93648815
0.01006573	-0.28213981	3.93648791
0.01372479	-0.28127483	3.93648744
0.01603587	-0.28032446	3.93648720
0.01644576	-0.28055474	3.93648720
0.01906246	-0.28300527	3.93648696
0.02377880	-0.28198317	3.93648624
0.02444734	-0.28176752	3.93648624
0.02531743	-0.28130820	3.93648601
0.02641898	-0.28294957	3.93648601
0.02786724	-0.28403771	3.93648577
0.02894473	-0.28345895	3.93648577
0.02998288	-0.28431681	3.93648553
0.03137404	-0.28560734	3.93648529
0.03278999	-0.28600705	3.93648529
0.03496164	-0.28549051	3.93648481
0.03775330	-0.28713313	3.93648458
0.03872366	-0.28767663	3.93648458
0.04231027	-0.29067069	3.93648410
0.04962683	-0.29516247	3.93648314
0.05684179	-0.29719633	3.93648243
0.06486262	-0.30109832	3.93648148
0.06954698	-0.30309206	3.93648076
0.07845889	-0.30300227	3.93647981
0.08148995	-0.30150965	3.93647933
0.08350666	-0.30137935	3.93647909
0.08631457	-0.29995871	3.93647861
0.08954825	-0.29881582	3.93647814
0.09409767	-0.29706991	3.93647766
0.10074726	-0.29555553	3.93647671
0.10218346	-0.29553369	3.93647647
0.10402846	-0.29514873	3.93647623
0.10501909	-0.29527053	3.93647623
0.10674033	-0.29536694	3.93647599
0.10925862	-0.29429716	3.93647575
0.11007756	-0.29416436	3.93647552
0.11152922	-0.29419002	3.93647528
0.11498559	-0.29297531	3.93647480
0.11759830	-0.29278409	3.93647456
0.11970195	-0.29195321	3.93647432
0.12040164	-0.29183260	3.93647408
0.12154719	-0.29156822	3.93647408
0.12527421	-0.29101753	3.93647361
0.12643495	-0.29080075	3.93647337
0.12735763	-0.29060826	3.93647337
0.12790711	-0.29040474	3.93647313
0.13021803	-0.28945437	3.93647289
0.13119182	-0.28893539	3.93647265
0.13772665	-0.28325981	3.93647170
0.14619549	-0.27398112	3.93647051
0.14720961	-0.27261889	3.93647027
0.15208280	-0.26498872	3.93646955
0.15412405	-0.26026341	3.93646932
0.16201694	-0.23640041	3.93646765
0.16797365	-0.21779633	3.93646669
0.16922718	-0.21329881	3.93646646
0.17714204	-0.18279243	3.93646479
0.17830829	-0.17529130	3.93646455
0.17846400	-0.17179418	3.93646431
0.17826277	-0.16151842	3.93646407
0.17777023	-0.15781535	3.93646407
0.17559899	-0.15151682	3.93646431
0.16950904	-0.13455486	3.93646479
0.16733842	-0.13196050	3.93646502
0.16419262	-0.12929188	3.93646526
0.15946394	-0.12549971	3.93646574
0.15802880	-0.12611496	3.93646598
0.15715754	-0.12598091	3.93646622
0.15422301	-0.12583454	3.93646646
0.15238145	-0.12515698	3.93646669
0.14752169	-0.12397122	3.93646741
0.06319010	-0.06593618	3.93647695
0.06177871	-0.06506732	3.93647718
0.06100647	-0.06534270	3.93647718
0.03544837	-0.05551678	3.93648028
-0.13340536	-0.02072526	3.93650103
-0.13473441	-0.01962493	3.93650126
-0.13879058	-0.01825880	3.93650174
-0.13924706	-0.01788586	3.93650174
-0.14090165	-0.01751054	3.93650198
-0.14263126	-0.01524158	3.93650198
-0.14286619	-0.01420343	3.93650198
-0.14448482	-0.01345400	3.93650222
-0.14647673	-0.01269354	3.93650246
-0.14634928	-0.01114967	3.93650246
-0.15139607	-0.00966167	3.93650317
-0.15287524	-0.00847844	3.93650317
-0.15427116	-0.00765713	3.93650341
-0.15534046	-0.00670418	3.93650341
-0.15561092	-0.00604006	3.93650365
-0.15698661	-0.00479712	3.93650365
-0.15761040	0.00000383	3.93650365
-0.15772614	0.00105416	3.93650365
-0.16041408	0.00275656	3.93650389
-0.16237025	0.00389107	3.93650413
-0.16217136	0.00618307	3.93650413
-0.16254097	0.00725659	3.93650413
-0.16332048	0.00856045	3.93650413
-0.16461270	0.00944147	3.93650436
-0.16921018	0.01213577	3.93650484
-0.17066453	0.01420978	3.93650508
-0.17249060	0.01483980	3.93650532
-0.17248583	0.01530900	3.93650532
-0.17429186	0.01636055	3.93650556
-0.17445880	0.01708438	3.93650556
-0.17733391	0.01908892	3.93650579
-0.18012559	0.02073157	3.93650603
-0.18237969	0.02368782	3.93650627
-0.19110498	0.02700004	3.93650746
-0.19220632	0.02864146	3.93650746
-0.19354627	0.03025846	3.93650770
-0.19381694	0.03092256	3.93650770
-0.19677079	0.03375821	3.93650794
-0.19750997	0.03590526	3.93650794
-0.20173706	0.04063688	3.93650842
-0.20274672	0.04344808	3.93650866
-0.20417015	0.04542698	3.93650866
-0.20460773	0.04681486	3.93650866
-0.20746741	0.04877188	3.93650913
-0.20813861	0.05060458	3.93650913
-0.20921990	0.05266759	3.93650913
-0.20959409	0.05327197	3.93650913
-0.20984451	0.05435770	3.93650913
-0.21026529	0.05510469	3.93650937
-0.21045251	0.05540684	3.93650937
-0.21133591	0.05665093	3.93650937
-0.21175672	0.05739793	3.93650937
-0.21314901	0.05928181	3.93650961
-0.21291329	0.06135455	3.93650937
-0.21550225	0.06264742	3.93650985
-0.21610682	0.06475914	3.93650985
-0.21731189	0.06634082	3.93650985
-0.21739535	0.06670272	3.93650985
-0.21834469	0.07077868	3.93651009
-0.21883805	0.07137089	3.93651009
-0.22054763	0.07406147	3.93651009
-0.22129503	0.07467683	3.93651032
-0.22113189	0.07659475	3.93651032
-0.22240385	0.07789744	3.93651032
-0.22413343	0.08016642	3.93651056
-0.22566514	0.08161641	3.93651080
-0.22671898	0.08252180	3.93651080
-0.22705629	0.08290690	3.93651080
-0.22839624	0.08452396	3.93651104
-0.22950238	0.08569617	3.93651104
-0.23140259	0.08762641	3.93651128
-0.23351480	0.08896799	3.93651152
-0.23454836	0.09029499	3.93651175
-0.23430176	0.09185104	3.93651152
-0.23414683	0.09223732	3.93651152
-0.23503654	0.09817152	3.93651152
-0.24006605	0.10583374	3.93651199
-0.24018903	0.10846331	3.93651199
-0.24033570	0.10960875	3.93651199
-0.24135379	0.11088819	3.93651199
-0.24030375	0.11262451	3.93651199
-0.24137306	0.11357746	3.93651199
-0.24131711	0.11437318	3.93651199
-0.23968600	0.11932877	3.93651175
-0.23918553	0.12086159	3.93651152
-0.23926900	0.12122346	3.93651152
-0.23943117	0.12241650	3.93651152
-0.23920478	0.12355086	3.93651152
-0.23943496	0.12505820	3.93651152
-0.23749000	0.12814459	3.93651128
-0.23727457	0.12979573	3.93651128
-0.23840816	0.13212550	3.93651128
-0.23874548	0.13251062	3.93651128
-0.23857030	0.13331853	3.93651128
-0.23911166	0.13464668	3.93651128
-0.23456049	0.14261433	3.93651056
-0.23529971	0.14476143	3.93651056
-0.23429760	0.14723369	3.93651056
-0.23545317	0.15430118	3.93651056
-0.23685746	0.15729505	3.93651056
-0.23722707	0.15836860	3.93651056
-0.23635487	0.16134545	3.93651032
-0.23725855	0.16216791	3.93651056
-0.23726581	0.16374716	3.93651056
-0.23777486	0.16438687	3.93651056
-0.23829593	0.16613664	3.93651056
-0.23793356	0.16664237	3.93651056
-0.23919733	0.16947670	3.93651056
-0.23902689	0.16981539	3.93651056
-0.23898642	0.17065865	3.93651056
-0.23986506	0.17237192	3.93651056
-0.23917736	0.17360257	3.93651056
-0.24061631	0.17562903	3.93651080
-0.24312559	0.17920175	3.93651104
-0.24509379	0.18144636	3.93651104
-0.24622741	0.18377618	3.93651128
-0.24741593	0.18471697	3.93651128
-0.25067267	0.18890508	3.93651175
-0.25292677	0.19186133	3.93651199
-0.25583419	0.19455436	3.93651223
-0.25873223	0.19818564	3.93651247
-0.25992185	0.19971971	3.93651271
-0.26151562	0.20135996	3.93651295
-0.26330119	0.20283325	3.93651295
-0.26474488	0.20439053	3.93651319
-0.26608944	0.20553836	3.93651342
-0.26630756	0.20593567	3.93651342
-0.26742932	0.20715541	3.93651342
-0.26900750	0.20874810	3.93651366
-0.27055013	0.21071488	3.93651390
-0.27131414	0.21197112	3.93651390
-0.27222392	0.21377946	3.93651390
-0.27373537	0.21565112	3.93651414
-0.27480125	0.21766652	3.93651414
-0.27670601	0.21912764	3.93651438
-0.29819873	0.23223001	3.93651700
-0.30943036	0.23336241	3.93651819
-0.31434587	0.23375252	3.93651891
-0.33588120	0.22927047	3.93652177
-0.33702651	0.22900616	3.93652201
-0.34618980	0.22689115	3.93652320
-0.36132330	0.22296083	3.93652511
-0.36454132	0.22177042	3.93652558
-0.36842215	0.22024021	3.93652606
-0.37008476	0.21908385	3.93652630
-0.39358926	0.19183514	3.93652987
-0.39609897	0.18859282	3.93653011
-0.39700234	0.18571101	3.93653035
-0.39790624	0.17971839	3.93653059
-0.39744860	0.17875209	3.93653059
-0.39869905	0.16850205	3.93653107
-0.39887422	0.16769415	3.93653107
-0.39809555	0.16327944	3.93653107
-0.39806324	0.16259104	3.93653107
-0.41767526	0.06721880	3.93653536
-0.42156011	0.04642986	3.93653631
-0.41806263	0.02969834	3.93653631
-0.41316009	0.02730731	3.93653560
-0.41388756	-0.00407536	3.93653631
-0.41424689	-0.01033367	3.93653655
-0.41192853	-0.01096252	3.93653631
-0.40483746	-0.03908242	3.93653584
-0.38812047	-0.05506511	3.93653417
-0.32863265	-0.21554571	3.93652987
-0.32977432	-0.21845183	3.93652987
-0.32986128	-0.21915244	3.93653011
-0.33280858	-0.22100687	3.93653035
-0.33262965	-0.22284073	3.93653035
-0.33505988	-0.22380328	3.93653083
-0.33583581	-0.22514123	3.93653083
-0.33731121	-0.22659969	3.93653107
-0.33711332	-0.22741860	3.93653107
-0.33892608	-0.22849196	3.93653131
-0.34040624	-0.23041964	3.93653154
-0.34134889	-0.23103371	3.93653178
-0.34174702	-0.23191348	3.93653178
-0.34369916	-0.23342066	3.93653202
-0.34360021	-0.23383012	3.93653202
-0.34417349	-0.23551778	3.93653226
-0.34643662	-0.23720406	3.93653250
-0.34653997	-0.24096803	3.93653250
-0.34777722	-0.24240221	3.93653274
-0.35202131	-0.24384475	3.93653345
-0.35434335	-0.24427845	3.93653369
-0.35621315	-0.24555415	3.93653393
-0.35910815	-0.24767545	3.93653440
-0.36382550	-0.25180846	3.93653488
-0.36458576	-0.25319391	3.93653512
-0.37613159	-0.25700742	3.93653655
-0.37697577	-0.26484606	3.93653703
-0.37724984	-0.26524448	3.93653703
-0.39884877	-0.26523876	3.93653965
-0.40392396	-0.26570410	3.93654037
-0.40507370	-0.27014184	3.93654060
-0.42175931	-0.28356311	3.93654299
-0.42210144	-0.28364715	3.93654299
-0.44586980	-0.32914546	3.93654704
-0.44729882	-0.33074662	3.93654728
-0.45105505	-0.35058504	3.93654799
-0.45653814	-0.39580753	3.93654966
-0.45686471	-0.39593917	3.93654966
-0.45713887	-0.39633757	3.93654990
-0.45971206	-0.39879641	3.93655014
-0.46002305	-0.39897558	3.93655014
-0.46171677	-0.40003678	3.93655038
-0.46282631	-0.39992708	3.93655062
-0.46462381	-0.40104803	3.93655086
-0.46613145	-0.40181813	3.93655109
-0.46731251	-0.40245652	3.93655109
-0.47030035	-0.40515423	3.93655157
-0.47105604	-0.40607053	3.93655181
-0.47232875	-0.40787876	3.93655205
-0.47249919	-0.40821740	3.93655205
-0.47373644	-0.40965161	3.93655229
-0.47437745	-0.41102487	3.93655229
-0.47491020	-0.41186926	3.93655229
-0.47588852	-0.41285741	3.93655252
-0.47794098	-0.41336182	3.93655276
-0.48037124	-0.41432437	3.93655300
-0.48312342	-0.41494939	3.93655348
-0.48492542	-0.41653946	3.93655372
-0.48603845	-0.41749221	3.93655396
-0.48705757	-0.41932368	3.93655396
-0.49093580	-0.42290232	3.93655467
-0.49838859	-0.42459694	3.93655562
-0.49869835	-0.42536941	3.93655562
-0.49960557	-0.42560947	3.93655586
-0.50154680	-0.42763337	3.93655610
-0.50333679	-0.43033352	3.93655634
-0.50546896	-0.43311775	3.93655658
-0.50701600	-0.43532437	3.93655682
-0.51122499	-0.44320801	3.93655753
-0.51254070	-0.44381109	3.93655777
-0.51465738	-0.44664288	3.93655801
-0.51505554	-0.44752264	3.93655825
-0.51620895	-0.44931865	3.93655849
-0.51764870	-0.45040309	3.93655849
-0.51838410	-0.45089772	3.93655872
-0.51979285	-0.45207727	3.93655896
-0.52056396	-0.45294598	3.93655896
-0.52300972	-0.45386100	3.93655944
-0.52412403	-0.45422047	3.93655944
-0.52487981	-0.45513675	3.93655968
-0.52898067	-0.45878720	3.93656015
-0.52958488	-0.46037981	3.93656039
-0.53032023	-0.46087447	3.93656039
-0.53143084	-0.46387565	3.93656063
-0.53170496	-0.46427405	3.93656063
-0.53400016	-0.46897623	3.93656111
-0.53432661	-0.46910781	3.93656111
-0.53508693	-0.47049326	3.93656111
-0.53879011	-0.47326404	3.93656182
-0.53928232	-0.47326517	3.93656182
-0.54009032	-0.47391462	3.93656182
-0.54126412	-0.47613230	3.93656206
-0.54252481	-0.47905058	3.93656230
-0.54326028	-0.47954521	3.93656254
-0.54449344	-0.48362109	3.93656278
-0.54484040	-0.48417434	3.93656278
-0.54521823	-0.48463246	3.93656278
-0.54552805	-0.48540497	3.93656278
-0.54709172	-0.48697072	3.93656301
-0.54861099	-0.49033499	3.93656325
-0.55028611	-0.49719632	3.93656373
-0.55108225	-0.49895591	3.93656373
-0.55211186	-0.50027055	3.93656397
-0.55275309	-0.50164390	3.93656397
-0.55365145	-0.50405639	3.93656421
-0.55400652	-0.50614136	3.93656445
-0.54539269	-0.54035383	3.93656397
-0.54431623	-0.54288602	3.93656373
-0.53452271	-0.56078136	3.93656301
-0.53058648	-0.56527066	3.93656254
-0.51514626	-0.58041984	3.93656087
