//X	Y	Z
-0.08367186	0.32717860	1.69392169
-0.08998349	0.33143291	1.69387853
-0.09402713	0.33381420	1.69385207
-0.10346918	0.33956280	1.69378972
-0.10535940	0.33975744	1.69378054
-0.10927467	0.34158009	1.69375658
-0.10983551	0.34113979	1.69375563
-0.11137149	0.34204909	1.69374561
-0.11253832	0.34258372	1.69373846
-0.11299362	0.34267181	1.69373620
-0.11344145	0.34187376	1.69373691
-0.11470993	0.34232277	1.69372964
-0.11796387	0.34351772	1.69371092
-0.11858989	0.34336248	1.69370866
-0.11905655	0.34341159	1.69370639
-0.11948913	0.34357762	1.69370389
-0.12058523	0.34377623	1.69369829
-0.12102910	0.34390330	1.69369578
-0.12869665	0.34696594	1.69365072
-0.12938286	0.34692043	1.69364786
-0.13092282	0.34724608	1.69363976
-0.13246277	0.34757173	1.69363177
-0.13357016	0.34773138	1.69362617
-0.13592149	0.34840637	1.69361329
-0.13741022	0.34849563	1.69360638
-0.13769805	0.34816724	1.69360614
-0.13819644	0.34835312	1.69360328
-0.14106745	0.34946603	1.69358659
-0.14160816	0.34967363	1.69358337
-0.14321086	0.35019678	1.69357443
-0.14483295	0.35081950	1.69356489
-0.14667459	0.35134760	1.69355488
-0.14712995	0.35143572	1.69355249
-0.14738996	0.35086906	1.69355333
-0.14810379	0.35106185	1.69354939
-0.14959826	0.35154337	1.69354105
-0.15002830	0.35113958	1.69354045
-0.15148865	0.35173804	1.69353187
-0.15243988	0.35144213	1.69352865
-0.15319686	0.35173276	1.69352424
-0.15390581	0.35160935	1.69352150
-0.15428708	0.35153899	1.69351995
-0.15513262	0.35177147	1.69351542
-0.31376600	0.42129344	1.69256163
-0.31494099	0.42196667	1.69255400
-0.31535637	0.42260289	1.69254982
-0.31517360	0.42315048	1.69254875
-0.31580788	0.42361614	1.69254434
-0.31618035	0.42415467	1.69254076
-0.31617475	0.42458600	1.69253933
-0.31632772	0.42521903	1.69253635
-0.31649518	0.42563552	1.69253421
-0.31689379	0.42591861	1.69253147
-0.31731158	0.42630112	1.69252825
-0.31797284	0.42658749	1.69252431
-0.31790954	0.42713755	1.69252264
-0.31871694	0.42758837	1.69251740
-0.31853473	0.42821199	1.69251609
-0.31838617	0.42864263	1.69251525
-0.31865048	0.42913961	1.69251239
-0.31909686	0.42983657	1.69250786
-0.31989059	0.43058017	1.69250178
-0.32079563	0.43118766	1.69249558
-0.32091439	0.43193766	1.69249249
-0.32133490	0.43289018	1.69248724
-0.32243040	0.43383634	1.69247901
-0.32298490	0.43457481	1.69247401
-0.32428506	0.43564284	1.69246435
-0.32544068	0.43621647	1.69245720
-0.32571635	0.43667451	1.69245434
-0.32564488	0.43708599	1.69245327
-0.32678249	0.43805367	1.69244480
-0.32738578	0.43845865	1.69244063
-0.32755327	0.43887514	1.69243848
-0.32793710	0.43937469	1.69243503
-0.32851452	0.44003522	1.69243014
-0.32886994	0.44022050	1.69242787
-0.32916015	0.44046190	1.69242573
-0.32934815	0.44105428	1.69242287
-0.32964647	0.44143426	1.69242013
-0.33014184	0.44179782	1.69241667
-0.33069634	0.44253629	1.69241166
-0.33075574	0.44291127	1.69241011
-0.33142430	0.44326004	1.69240582
-0.33154947	0.44365484	1.69240391
-0.33193648	0.44397679	1.69240105
-0.33257079	0.44444245	1.69239664
-0.33273828	0.44485897	1.69239438
-0.33378822	0.44596103	1.69238579
-0.33405253	0.44645801	1.69238293
-0.33443955	0.44677994	1.69238007
-0.33542687	0.44768459	1.69237244
-0.33620331	0.44807476	1.69236767
-0.33639377	0.44841334	1.69236565
-0.33710518	0.44885984	1.69236088
-0.33728161	0.44949108	1.69235790
-0.33754593	0.44998807	1.69235492
-0.33895427	0.45109770	1.69234478
-0.33934155	0.45141971	1.69234192
-0.34017241	0.45186871	1.69233656
-0.34020913	0.45232174	1.69233489
-0.34096861	0.45318222	1.69232845
-0.34123296	0.45367923	1.69232559
-0.34210056	0.45458120	1.69231856
-0.34282357	0.45498884	1.69231391
-0.34317315	0.45560524	1.69231009
-0.34366429	0.45607015	1.69230628
-0.34405154	0.45639226	1.69230342
-0.34448490	0.45663446	1.69230068
-0.34450927	0.45705014	1.69229913
-0.34480780	0.45743024	1.69229650
-0.34523475	0.45802766	1.69229245
-0.34584618	0.45857117	1.69228780
-0.34641224	0.45927072	1.69228280
-0.34683600	0.46004570	1.69227827
-0.34849483	0.46112138	1.69226706
-0.34932572	0.46157038	1.69226182
-0.35113424	0.46263310	1.69224989
-0.35150808	0.46284160	1.69224751
-0.35164642	0.46334988	1.69224513
-0.35205632	0.46359393	1.69224250
-0.35253531	0.46402162	1.69223881
-0.35266051	0.46441644	1.69223690
-0.35307851	0.46479911	1.69223368
-0.35362816	0.46522138	1.69222975
-0.35367298	0.46581298	1.69222748
-0.35476333	0.46644282	1.69222045
-0.35470003	0.46699291	1.69221878
-0.35479611	0.46782082	1.69221544
-0.35582900	0.46856961	1.69220817
-0.35680801	0.46933553	1.69220114
-0.35663649	0.46984404	1.69220018
-0.35760096	0.47082657	1.69219244
-0.35829467	0.47166723	1.69218636
-0.35823452	0.47203970	1.69218528
-0.35942656	0.47306627	1.69217646
-0.35999590	0.47358823	1.69217205
-0.35993257	0.47413829	1.69217038
-0.36056936	0.47517386	1.69216394
-0.36091003	0.47557545	1.69216096
-0.36270046	0.47669083	1.69214904
-0.36329246	0.47713488	1.69214487
-0.36386985	0.47779542	1.69213998
-0.36379200	0.47856206	1.69213772
-0.36689961	0.48027515	1.69211781
-0.36740631	0.48059970	1.69211435
-0.36765933	0.48113573	1.69211137
-0.36873186	0.48215979	1.69210303
-0.37118739	0.48380134	1.69208622
-0.37228289	0.48474747	1.69207799
-0.37366855	0.48593509	1.69206774
-0.37404752	0.48660070	1.69206369
-0.37440544	0.48735583	1.69205940
-0.37603244	0.48829466	1.69204891
-0.37609181	0.48866963	1.69204724
-0.37689766	0.48945037	1.69204092
-0.37727010	0.48998898	1.69203746
-0.37883216	0.49098414	1.69202697
-0.37974212	0.49190775	1.69201958
-0.38035673	0.49227375	1.69201565
-0.38093737	0.49275672	1.69201136
-0.38129854	0.49333423	1.69200766
-0.38292724	0.49428451	1.69199705
-0.38319153	0.49478155	1.69199419
-0.38369501	0.49528369	1.69199014
-0.38428700	0.49572772	1.69198596
-0.38496417	0.49629110	1.69198096
-0.38521963	0.49657336	1.69197881
-0.38535637	0.49692929	1.69197690
-0.38590521	0.49727547	1.69197333
-0.38618082	0.49773347	1.69197047
-0.38673049	0.49815577	1.69196653
-0.38692904	0.49863297	1.69196403
-0.38721922	0.49887437	1.69196188
-0.38802743	0.49940139	1.69195640
-0.38808703	0.49977648	1.69195485
-0.38933599	0.50060815	1.69194627
-0.38932389	0.50139457	1.69194365
-0.39257956	0.50342458	1.69192195
-0.39323333	0.50398982	1.69191706
-0.39356691	0.50432926	1.69191432
-0.39400437	0.50481147	1.69191074
-0.39482325	0.50604689	1.69190276
-0.39737582	0.50776911	1.69188523
-0.39818406	0.50829613	1.69187987
-0.39856789	0.50879568	1.69187641
-0.39934999	0.50957823	1.69187009
-0.40006170	0.51002479	1.69186532
-0.40158951	0.51113683	1.69185460
-0.40288749	0.51259965	1.69184375
-0.40378910	0.51338458	1.69183695
-0.40446332	0.51412570	1.69183135
-0.40496933	0.51519775	1.69182539
-0.40534180	0.51573628	1.69182181
-0.40692899	0.51708245	1.69181001
-0.40755445	0.51815695	1.69180346
-0.40836519	0.51939481	1.69179547
-0.40914756	0.52017742	1.69178927
-0.40972152	0.52087450	1.69178426
-0.41076654	0.52166033	1.69177687
-0.41163421	0.52256238	1.69176984
-0.41180176	0.52297884	1.69176757
-0.41237271	0.52399457	1.69176149
-0.41385037	0.52494657	1.69175160
-0.41371286	0.52533805	1.69175076
-0.41398776	0.52654350	1.69174540
-0.41457975	0.52698749	1.69174111
-0.41569784	0.52785563	1.69173312
-0.41680789	0.52858514	1.69172561
-0.41727397	0.52938181	1.69172072
-0.41844660	0.53030872	1.69171226
-0.41964996	0.53129637	1.69170344
-0.42028102	0.53193957	1.69169831
-0.42007855	0.53238738	1.69169772
-0.42036903	0.53262901	1.69169557
-0.42053652	0.53304547	1.69169331
-0.42172858	0.53407204	1.69168437
-0.42231733	0.53469360	1.69167960
-0.42268977	0.53523207	1.69167602
-0.43002337	0.53952652	1.69162822
-0.43655995	0.54325497	1.69158590
-0.45252049	0.55045474	1.69148922
-0.45621759	0.55204183	1.69146705
-0.45665014	0.55220789	1.69146454
-0.47151217	0.55507922	1.69138789
-0.47405142	0.55552298	1.69137502
-0.49281269	0.55672139	1.69128656
-0.52059692	0.55341828	1.69117343
-0.52201533	0.55242383	1.69117057
-0.55059922	0.52443779	1.69113982
-0.55263144	0.52174467	1.69114006
-0.55766517	0.51492071	1.69114125
-0.55773246	0.51344562	1.69114614
-0.55893552	0.51162088	1.69114709
-0.55926067	0.51099801	1.69114780
-0.55992210	0.50971299	1.69114923
-0.56011391	0.50855666	1.69115245
-0.56036568	0.50702769	1.69115663
-0.55916208	0.50604010	1.69116545
-0.55887258	0.50505120	1.69117022
-0.56088215	0.50004113	1.69117868
-0.56147063	0.49785042	1.69118369
-0.56154203	0.49743891	1.69118476
-0.56167299	0.49384251	1.69119668
-0.56150091	0.49037367	1.69120955
-0.56049895	0.48968560	1.69121647
-0.56179959	0.48719388	1.69121933
-0.56114870	0.48562735	1.69122767
-0.56075114	0.48459691	1.69123304
-0.56041837	0.48433375	1.69123542
-0.56034511	0.48342782	1.69123888
-0.56000662	0.48277229	1.69124269
-0.55989277	0.48233846	1.69124472
-0.55961716	0.48188043	1.69124758
-0.56008446	0.48118204	1.69124794
-0.56075740	0.47985816	1.69124949
-0.56093770	0.47874072	1.69125259
-0.56134582	0.47766745	1.69125450
-0.56130981	0.47646698	1.69125879
-0.56172985	0.47460705	1.69126344
-0.56271958	0.47252160	1.69126630
-0.56222439	0.47215813	1.69126976
-0.56207871	0.47158742	1.69127238
-0.56217390	0.47117424	1.69127345
-0.56300378	0.46955845	1.69127536
-0.56213617	0.46865642	1.69128239
-0.56133103	0.46795183	1.69128835
-0.56182098	0.46717542	1.69128895
-0.56219244	0.46564913	1.69129252
-0.56188011	0.46473816	1.69129717
-0.56153023	0.46412158	1.69130087
-0.56166178	0.46333766	1.69130301
-0.56311113	0.45685542	1.69131911
-0.64932501	0.30784136	1.69145131
-0.65014601	0.30683443	1.69145107
-0.65058994	0.30696151	1.69144869
-0.65311712	0.30819172	1.69143307
-0.65583915	0.30808794	1.69142115
-0.65690923	0.30854207	1.69141483
-0.65783197	0.30793184	1.69141281
-0.65860677	0.30782825	1.69140971
-0.65905058	0.30795527	1.69140720
-0.65971082	0.30816534	1.69140351
-0.66010690	0.30787855	1.69140279
-0.66075891	0.30795002	1.69139957
-0.66108072	0.30750453	1.69139969
-0.66181821	0.30769557	1.69139576
-0.66262466	0.30690524	1.69139493
-0.66307992	0.30699331	1.69139254
-0.66360116	0.30710125	1.69138980
-0.66400838	0.30677533	1.69138908
-0.66470599	0.30669096	1.69138622
-0.66627192	0.30676109	1.69137907
-0.66692692	0.30583125	1.69137931
-0.66758537	0.30554760	1.69137740
-0.66806436	0.30563390	1.69137490
-0.66847342	0.30580184	1.69137251
-0.66950679	0.30580294	1.69136786
-0.67012143	0.30616891	1.69136381
-0.67121565	0.30505013	1.69136274
-0.67196453	0.30520216	1.69135892
-0.67275870	0.30519813	1.69135535
-0.67321742	0.30510873	1.69135356
-0.67381573	0.30437392	1.69135344
-0.67423666	0.30457887	1.69135094
-0.67501974	0.30461401	1.69134724
-0.67538142	0.30444393	1.69134617
-0.67611647	0.30406508	1.69134426
-0.67656040	0.30419210	1.69134176
-0.67754817	0.30434918	1.69133687
-0.67850029	0.30330586	1.69133615
-0.68000269	0.30392593	1.69132733
-0.68080914	0.30313557	1.69132638
-0.68188000	0.30284226	1.69132268
-0.68302202	0.30213732	1.69131994
-0.68523681	0.30245656	1.69130898
-0.68617731	0.30145210	1.69130826
-0.68748963	0.30173370	1.69130135
-0.68781149	0.30128831	1.69130147
-0.68821055	0.30082381	1.69130123
-0.68969053	0.30152202	1.69129217
-0.68998957	0.30115455	1.69129217
-0.69065297	0.30118704	1.69128907
-0.69131339	0.30139726	1.69128537
-0.69235051	0.30047321	1.69128394
-0.69310820	0.30001640	1.69128215
-0.69373512	0.29959601	1.69128072
-0.69493598	0.30001363	1.69127393
-0.69610488	0.29830578	1.69127464
-0.69683397	0.29753447	1.69127405
-0.69731528	0.29736704	1.69127250
-0.69787049	0.29735801	1.69126999
-0.69841200	0.29681814	1.69126940
-0.69919240	0.29628325	1.69126785
-0.70016241	0.29683444	1.69126153
-0.70220482	0.29642099	1.69125378
-0.70416778	0.29388547	1.69125390
-0.70450997	0.29361588	1.69125330
-0.70546055	0.29406753	1.69124746
-0.70660281	0.29336268	1.69124472
-0.70838940	0.29101959	1.69124484
-0.70895922	0.29079401	1.69124317
-0.70950878	0.29039270	1.69124210
-0.71023226	0.29005271	1.69123995
-0.71099555	0.28916451	1.69123960
-0.71136880	0.28895557	1.69123876
-0.71191591	0.28880799	1.69123673
-0.71231663	0.28883719	1.69123483
-0.71294999	0.28806165	1.69123471
-0.71377277	0.28754848	1.69123280
-0.71437359	0.28738356	1.69123065
-0.71491474	0.28684354	1.69123018
-0.71589267	0.28554463	1.69123030
-0.71656442	0.28571579	1.69122672
-0.71751308	0.28485000	1.69122541
-0.71819979	0.28405696	1.69122517
-0.71925658	0.28323266	1.69122326
-0.72032738	0.28293934	1.69121945
-0.72127926	0.28189591	1.69121885
-0.72195148	0.28131950	1.69121778
-0.72274029	0.28174698	1.69121277
-0.72415960	0.28000522	1.69121253
-0.72472370	0.27938733	1.69121206
-0.72557795	0.27901083	1.69120955
-0.72650397	0.27822304	1.69120824
-0.72979224	0.27443525	1.69120657
-0.73086274	0.27414182	1.69120288
-0.73199368	0.27347600	1.69120014
-0.73324400	0.27281272	1.69119680
-0.73573571	0.27209491	1.69118810
-0.73651928	0.27138242	1.69118702
-0.73775512	0.27093571	1.69118309
-0.73972726	0.26861507	1.69118237
-0.74291432	0.26450673	1.69118237
-0.74353296	0.26394767	1.69118154
-0.74405658	0.26380193	1.69117963
-0.74476719	0.26417226	1.69117522
-0.74538183	0.26453823	1.69117117
-0.74645174	0.26382732	1.69116879
-0.74693400	0.26407745	1.69116580
-0.74779987	0.26366210	1.69116330
-0.74855918	0.26335755	1.69116104
-0.74941188	0.26282874	1.69115901
-0.75055981	0.26251626	1.69115496
-0.75125337	0.26219189	1.69115293
-0.75184274	0.26206595	1.69115078
-0.75266469	0.26147661	1.69114912
-0.75339067	0.26170650	1.69114506
-0.75405574	0.26223272	1.69114029
-0.75444031	0.26198474	1.69113946
-0.75526464	0.26162392	1.69113696
-0.75585085	0.26167557	1.69113421
-0.75652230	0.26102298	1.69113338
-0.75724614	0.26150680	1.69112849
-0.75813711	0.26158333	1.69112420
-0.75886017	0.26199093	1.69111955
-0.76015902	0.26099405	1.69111717
-0.76151353	0.26047364	1.69111300
-0.76194203	0.26039970	1.69111133
-0.76265013	0.26020017	1.69110882
-0.76315665	0.26052460	1.69110537
-0.76467216	0.25961086	1.69110179
-0.76524508	0.25920773	1.69110060
-0.76671863	0.26026106	1.69109035
-0.76860631	0.25988573	1.69108319
-0.76905906	0.25940382	1.69108284
-0.76975912	0.25988936	1.69107795
-0.77022600	0.25993851	1.69107568
-0.77096349	0.26012957	1.69107175
-0.77189934	0.26079762	1.69106519
-0.77312684	0.26021218	1.69106174
-0.77370501	0.26012528	1.69105947
-0.77451146	0.25933495	1.69105864
-0.77531773	0.25854447	1.69105768
-0.77590716	0.25841859	1.69105554
-0.77754337	0.25957227	1.69104421
-0.77883101	0.25861442	1.69104171
-0.78007001	0.25799009	1.69103837
-0.78123486	0.25720727	1.69103587
-0.78205520	0.25694782	1.69103301
-0.78251040	0.25703585	1.69103074
-0.78309107	0.25751886	1.69102645
-0.78415918	0.25665551	1.69102466
-0.78464049	0.25648808	1.69102311
-0.78561449	0.25611424	1.69102001
-0.78609586	0.25594687	1.69101846
-0.78928137	0.25250974	1.69101608
-0.78957182	0.25275135	1.69101393
-0.79059756	0.25186628	1.69101238
-0.79215962	0.25286150	1.69100201
-0.79358947	0.25182822	1.69099915
-0.79387999	0.25206977	1.69099700
-0.79488999	0.25289640	1.69098961
-0.79535973	0.25276786	1.69098794
-0.79616618	0.25197750	1.69098711
-0.79765630	0.25057173	1.69098532
-0.79884660	0.25028092	1.69098091
-0.80419755	0.24468417	1.69097638
-0.80533981	0.24397933	1.69097376
-0.80806971	0.24120188	1.69097114
-0.81252837	0.23346362	1.69097817
-0.81583309	0.22721678	1.69098508
-0.81964248	0.21997708	1.69099319
-0.82019424	0.21733335	1.69099998
-0.82015622	0.21481541	1.69100893
-0.81999695	0.21097761	1.69102299
-0.81947798	0.20862719	1.69103348
-0.81891084	0.20586282	1.69104564
-0.81856096	0.20524628	1.69104934
-0.81833160	0.20388488	1.69105518
-0.81741846	0.20313875	1.69106185
-0.81722301	0.20166041	1.69106781
-0.81669235	0.19934890	1.69107831
-0.81616199	0.19703749	1.69108868
-0.81543618	0.19324774	1.69110513
-0.81503832	0.19221720	1.69111049
-0.81464040	0.19118664	1.69111586
-0.81279647	0.18652874	1.69114041
-0.81256688	0.18516725	1.69114614
-0.81203568	0.18360332	1.69115400
-0.81068754	0.18212128	1.69116521
-0.81026447	0.18059888	1.69117248
-0.80943227	0.17808494	1.69118488
-0.80819094	0.17457947	1.69120264
-0.80758840	0.17342702	1.69120944
-0.80719054	0.17239648	1.69121480
-0.80714250	0.17198250	1.69121647
-0.80678129	0.17140493	1.69122005
-0.80581689	0.17042246	1.69122779
-0.80551863	0.17004246	1.69123054
-0.80508602	0.16987640	1.69123304
-0.80489057	0.16839799	1.69123900
-0.80444396	0.16770092	1.69124341
-0.80433655	0.16691196	1.69124675
-0.80350363	0.16514546	1.69125652
-0.80323923	0.16464847	1.69125950
-0.80263674	0.16349602	1.69126618
-0.80223817	0.16321295	1.69126904
-0.80207062	0.16279647	1.69127119
-0.80138260	0.16152447	1.69127870
-0.80122644	0.16106898	1.69128096
-0.80032212	0.15971398	1.69128978
-0.79922730	0.15802038	1.69130063
-0.79786706	0.15732482	1.69130909
-0.79760265	0.15682781	1.69131207
-0.79749280	0.15546894	1.69131720
-0.79734796	0.15497443	1.69131958
-0.79663724	0.15378049	1.69132698
-0.79566121	0.15283683	1.69133461
-0.79539764	0.15159240	1.69134021
-0.79464877	0.15144035	1.69134402
-0.79408371	0.14999345	1.69135165
-0.79368508	0.14971039	1.69135439
-0.79321647	0.14834386	1.69136131
-0.79257643	0.14748588	1.69136715
-0.79214716	0.14714223	1.69137025
-0.79197395	0.14633343	1.69137383
-0.79147923	0.14522240	1.69137990
-0.79121810	0.14454779	1.69138348
-0.79081655	0.14444241	1.69138563
-0.79058695	0.14308092	1.69139135
-0.78694922	-0.02976692	1.69200969
-0.78753763	-0.03195766	1.69201469
-0.78792083	-0.03427055	1.69202101
-0.78784817	-0.03592402	1.69202709
-0.78746134	-0.03980583	1.69204235
-0.78762144	-0.04027534	1.69204330
-0.78584969	-0.05403569	1.69209921
-0.78319520	-0.06335041	1.69214356
-0.78113693	-0.07033379	1.69217706
-0.77996606	-0.06994346	1.69218099
-0.77870643	-0.07148355	1.69219196
-0.77843899	-0.07180298	1.69219434
-0.77667201	-0.07292020	1.69220614
-0.77486181	-0.07413527	1.69221842
-0.77375460	-0.07429480	1.69222403
-0.77321386	-0.07450237	1.69222713
-0.77199572	-0.07527344	1.69223535
-0.76643109	-0.08541805	1.69229555
-0.74971241	-0.10456400	1.69243729
-0.65722036	-0.22621788	1.69327593
-0.65760559	-0.22721340	1.69327772
-0.65744931	-0.22766884	1.69327998
-0.65707684	-0.22820738	1.69328356
-0.65839863	-0.22928217	1.69328129
-0.65884399	-0.23065008	1.69328415
-0.65895098	-0.23267341	1.69329071
-0.65875804	-0.23358190	1.69329464
-0.65870756	-0.23456581	1.69329834
-0.65941787	-0.23618424	1.69330084
-0.65917438	-0.23807658	1.69330847
-0.65885943	-0.23955756	1.69331503
-0.65834218	-0.24059056	1.69332099
-0.65848517	-0.24141343	1.69332325
-0.65797919	-0.24248548	1.69332922
-0.65936112	-0.24393277	1.69332802
-0.66003412	-0.24525662	1.69332969
-0.66039395	-0.24674392	1.69333315
-0.65964526	-0.25045583	1.69334948
-0.65944111	-0.25132540	1.69335341
-0.65910345	-0.25272831	1.69335985
-0.65937984	-0.25301775	1.69335961
-0.65973914	-0.25375763	1.69336057
-0.65921038	-0.25475168	1.69336641
-0.65898025	-0.25536564	1.69336963
-0.65863055	-0.25598213	1.69337332
-0.65824473	-0.25779915	1.69338131
-0.65740049	-0.25952661	1.69339120
-0.65693521	-0.26107073	1.69339859
-0.65659177	-0.26286593	1.69340646
-0.65632743	-0.26336294	1.69340932
-0.65625405	-0.26426896	1.69341278
-0.65637422	-0.26501390	1.69341493
-0.65690440	-0.26551482	1.69341421
-0.65595257	-0.26803133	1.69342732
-0.65561742	-0.26886436	1.69343174
-0.65540993	-0.26955628	1.69343507
-0.65549606	-0.27018428	1.69343686
-0.65543669	-0.27055925	1.69343841
-0.65521461	-0.27103472	1.69344103
-0.65522987	-0.27199873	1.69344437
-0.65530139	-0.27241015	1.69344544
-0.65502316	-0.27343813	1.69345033
-0.65554172	-0.27390006	1.69344950
-0.65516740	-0.27575603	1.69345772
-0.65476978	-0.27678654	1.69346309
-0.65453947	-0.27740043	1.69346619
-0.65464580	-0.27867633	1.69347024
-0.65459770	-0.27909034	1.69347191
-0.65465784	-0.27946281	1.69347286
-0.65477479	-0.28003025	1.69347429
-0.65424609	-0.28102425	1.69348013
-0.65445173	-0.28164974	1.69348145
-0.65409946	-0.28283614	1.69348717
-0.65406603	-0.28346670	1.69348955
-0.65381366	-0.28475016	1.69349515
-0.65300113	-0.28716448	1.69350719
-0.65285695	-0.28840646	1.69351208
-0.65190458	-0.29017550	1.69352257
-0.65109766	-0.29219744	1.69353318
-0.64867556	-0.29676849	1.69356000
-0.64906967	-0.29837275	1.69356382
-0.64781511	-0.30315661	1.69358611
-0.64624864	-0.30603909	1.69360316
-0.62777942	-0.32992631	1.69376922
-0.62634826	-0.33095792	1.69377923
-0.60725152	-0.34018523	1.69389713
-0.59655350	-0.34498003	1.69396174
-0.45401412	-0.40696931	1.69481719
-0.44374877	-0.40639091	1.69486117
-0.43567401	-0.40001905	1.69487524
-0.43563607	-0.39849484	1.69487011
-0.43276411	-0.39612412	1.69487476
-0.43007568	-0.39408380	1.69487965
-0.40629187	-0.37617025	1.69492400
-0.40496868	-0.37360048	1.69492102
-0.39131320	-0.36231083	1.69494295
-0.29594263	-0.21926096	1.69487250
-0.29344565	-0.21564090	1.69487119
-0.29316926	-0.21535143	1.69487143
-0.29260191	-0.21455601	1.69487119
-0.29236788	-0.21424484	1.69487107
-0.29202643	-0.21389911	1.69487143
-0.29160774	-0.21353424	1.69487202
-0.29119793	-0.21377820	1.69487476
-0.28955102	-0.21208051	1.69487619
-0.28918928	-0.21191052	1.69487727
-0.28749371	-0.20987926	1.69487774
-0.28718314	-0.20947289	1.69487774
-0.28653359	-0.20897451	1.69487894
-0.28375611	-0.20544583	1.69487906
-0.28337160	-0.20519792	1.69488001
-0.28295296	-0.20483300	1.69488060
-0.28257653	-0.20444649	1.69488096
-0.28202438	-0.20461515	1.69488394
-0.28121799	-0.20382473	1.69488490
-0.28078544	-0.20399077	1.69488740
-0.28048635	-0.20362335	1.69488740
-0.27991897	-0.20282789	1.69488716
-0.27935550	-0.20295751	1.69489014
-0.27858645	-0.20246165	1.69489193
-0.27794832	-0.20200220	1.69489312
-0.27756381	-0.20175424	1.69489408
-0.27621597	-0.20042390	1.69489539
-0.27590555	-0.20001751	1.69489539
-0.27517056	-0.19963861	1.69489741
-0.27461779	-0.19905970	1.69489789
-0.27421051	-0.19873381	1.69489861
-0.27336752	-0.19839635	1.69490111
-0.27250093	-0.19723353	1.69490099
-0.27194893	-0.19740205	1.69490409
-0.27112380	-0.19663510	1.69490504
-0.27076209	-0.19646513	1.69490612
-0.27028072	-0.19629771	1.69490767
-0.26878744	-0.19471437	1.69490886
-0.26822412	-0.19484395	1.69491184
-0.26741761	-0.19405359	1.69491267
-0.26699644	-0.19425860	1.69491529
-0.26661196	-0.19401065	1.69491625
-0.26576567	-0.19349566	1.69491816
-0.26531297	-0.19301382	1.69491851
-0.26481369	-0.19245231	1.69491887
-0.26428372	-0.19195133	1.69491947
-0.26385117	-0.19211739	1.69492197
-0.26340729	-0.19224444	1.69492447
-0.26301128	-0.19195758	1.69492519
-0.26196337	-0.19174212	1.69492912
-0.26144469	-0.19128019	1.69492984
-0.26090401	-0.19148773	1.69493306
-0.26015773	-0.19106978	1.69493484
-0.25985855	-0.19070244	1.69493496
-0.25912365	-0.19032349	1.69493699
-0.25860572	-0.19060899	1.69494021
-0.25784814	-0.19015208	1.69494212
-0.25701898	-0.18928370	1.69494271
-0.25485176	-0.18679410	1.69494379
-0.25408274	-0.18629824	1.69494557
-0.25355518	-0.18605101	1.69494700
-0.25313163	-0.18600228	1.69494879
-0.25258112	-0.18567717	1.69495010
-0.25218278	-0.18596011	1.69495285
-0.25130564	-0.18550576	1.69495523
-0.24991035	-0.18533695	1.69496095
-0.24927221	-0.18487757	1.69496214
-0.24891049	-0.18470755	1.69496322
-0.24734713	-0.18420771	1.69496846
-0.24526697	-0.18192855	1.69496989
-0.24092525	-0.17749405	1.69497395
-0.23860286	-0.17504238	1.69497573
-0.23749618	-0.17594945	1.69498396
-0.23679863	-0.17586498	1.69498670
-0.23605226	-0.17544711	1.69498861
-0.23561968	-0.17561319	1.69499111
-0.23456044	-0.17535874	1.69499505
-0.23392293	-0.17564683	1.69499886
-0.23190103	-0.17505752	1.69500589
-0.23131153	-0.17493162	1.69500816
-0.23103514	-0.17464218	1.69500840
-0.22971085	-0.17413726	1.69501257
-0.22825626	-0.17434347	1.69501972
-0.22647588	-0.17317922	1.69502366
-0.22594589	-0.17267823	1.69502437
-0.22546469	-0.17251074	1.69502592
-0.22459880	-0.17209545	1.69502831
-0.22366151	-0.17126858	1.69502962
-0.22103998	-0.16844946	1.69503164
-0.21961567	-0.16784753	1.69503593
-0.21839385	-0.16686979	1.69503796
-0.21690945	-0.16589537	1.69504130
-0.21590379	-0.16483469	1.69504201
-0.21544540	-0.16474515	1.69504380
-0.21503811	-0.16441926	1.69504452
-0.21429180	-0.16400135	1.69504642
-0.21263088	-0.16283458	1.69504976
-0.21170568	-0.16279422	1.69505382
-0.20653410	-0.15756744	1.69505882
-0.19884567	-0.15026717	1.69506788
-0.19806518	-0.14973232	1.69506955
-0.19727090	-0.14972840	1.69507301
-0.19657156	-0.15013772	1.69507766
-0.19356541	-0.14789434	1.69508326
-0.19242316	-0.14718953	1.69508600
-0.19157115	-0.14706688	1.69508934
-0.19112712	-0.14719400	1.69509184
-0.19053780	-0.14706799	1.69509399
-0.18970865	-0.14619966	1.69509470
-0.18911669	-0.14664364	1.69509888
-0.18831092	-0.14660074	1.69510233
-0.18740769	-0.14589086	1.69510388
-0.18696383	-0.14601789	1.69510639
-0.18577032	-0.14554952	1.69511008
-0.18515570	-0.14591548	1.69511414
-0.18477118	-0.14566754	1.69511497
-0.18396792	-0.14505476	1.69511640
-0.18307942	-0.14456141	1.69511867
-0.18259557	-0.14496389	1.69512224
-0.18138884	-0.14577386	1.69513059
-0.18037754	-0.14510550	1.69513273
-0.17946371	-0.14510408	1.69513679
-0.17777891	-0.14592421	1.69514728
-0.17714077	-0.14546481	1.69514847
-0.17584237	-0.14521548	1.69515347
-0.17529845	-0.14524546	1.69515598
-0.17342529	-0.14508674	1.69516385
-0.17242283	-0.14502726	1.69516814
-0.17087081	-0.14456642	1.69517350
-0.17019033	-0.14412867	1.69517505
-0.16905957	-0.14346281	1.69517779
-0.16831389	-0.14379239	1.69518232
-0.16751885	-0.14304098	1.69518328
-0.16703445	-0.14269590	1.69518423
-0.16613516	-0.14291108	1.69518900
-0.16570264	-0.14307712	1.69519150
-0.16527006	-0.14324319	1.69519401
-0.16362059	-0.14211538	1.69519746
-0.16234237	-0.14251396	1.69520462
-0.16192371	-0.14214905	1.69520521
-0.16143927	-0.14180401	1.69520617
-0.16100672	-0.14197004	1.69520867
-0.15986520	-0.14201275	1.69521403
-0.15827584	-0.14125735	1.69521844
-0.15763831	-0.14154544	1.69522238
-0.15716842	-0.14141698	1.69522405
-0.15590674	-0.14071468	1.69522727
-0.15541145	-0.14107820	1.69523072
-0.15335467	-0.13962448	1.69523489
-0.15164280	-0.13821176	1.69523764
-0.15123290	-0.13845584	1.69524038
-0.15058911	-0.13804731	1.69524181
-0.15010285	-0.13853741	1.69524574
-0.14914089	-0.13895005	1.69525146
-0.14770603	-0.13823295	1.69525540
-0.14715886	-0.13808537	1.69525731
-0.14655307	-0.13823663	1.69526052
-0.14596370	-0.13811067	1.69526279
-0.14498729	-0.13796532	1.69526660
-0.14342877	-0.13749072	1.69527197
-0.14293608	-0.13728434	1.69527352
-0.14247265	-0.13751099	1.69527638
-0.14197093	-0.13751937	1.69527864
-0.14068320	-0.13656154	1.69528103
-0.14014253	-0.13676909	1.69528425
-0.13942543	-0.13678426	1.69528747
-0.13884425	-0.13651973	1.69528913
-0.13827753	-0.13647178	1.69529152
-0.13745716	-0.13655370	1.69529545
-0.13706127	-0.13626674	1.69529629
-0.13608471	-0.13646284	1.69530129
-0.13519618	-0.13596946	1.69530356
-0.13472629	-0.13584101	1.69530523
-0.13393518	-0.13601464	1.69530940
-0.13336527	-0.13578910	1.69531119
-0.13244250	-0.13517883	1.69531322
-0.13203114	-0.13509291	1.69531476
-0.13121086	-0.13483344	1.69531751
-0.13060030	-0.13495944	1.69532073
-0.12981981	-0.13442460	1.69532239
-0.12898818	-0.13412617	1.69532502
-0.12856281	-0.13457119	1.69532847
-0.12813434	-0.13449728	1.69533014
-0.12743685	-0.13441283	1.69533300
-0.12622780	-0.13414545	1.69533753
-0.12575072	-0.13373798	1.69533825
-0.12496364	-0.13401303	1.69534266
-0.12372470	-0.13338868	1.69534612
-0.12190932	-0.13232461	1.69535053
-0.12114438	-0.13178915	1.69535208
-0.12063044	-0.13197565	1.69535506
-0.12031338	-0.13223824	1.69535744
-0.11957756	-0.13207644	1.69536018
-0.11887419	-0.13238436	1.69536436
-0.11737913	-0.13211839	1.69537020
-0.11623850	-0.13160257	1.69537342
-0.11545393	-0.13144863	1.69537640
-0.11485469	-0.13147278	1.69537926
-0.11408481	-0.13153532	1.69538283
-0.11319199	-0.13162336	1.69538724
-0.11269030	-0.13211399	1.69539118
-0.11175054	-0.13185701	1.69539452
-0.11131799	-0.13202310	1.69539702
-0.11075696	-0.13158281	1.69539797
-0.10928270	-0.13271226	1.69540858
-0.10767069	-0.13187891	1.69541287
-0.10710457	-0.13257849	1.69541788
-0.10615408	-0.13303006	1.69542372
-0.10504672	-0.13318963	1.69542921
-0.10334039	-0.13186695	1.69543219
-0.10195673	-0.13173705	1.69543803
-0.09978920	-0.13089478	1.69544482
-0.09413451	-0.12681797	1.69545591
-0.09308904	-0.12603267	1.69545794
-0.09243950	-0.12553425	1.69545913
-0.09187281	-0.12548628	1.69546151
-0.09123787	-0.12520444	1.69546330
-0.09078577	-0.12547013	1.69546628
-0.09038988	-0.12518317	1.69546711
-0.08934256	-0.12571527	1.69547367
-0.08831996	-0.12500791	1.69547570
-0.08787021	-0.12552731	1.69547951
-0.08702716	-0.12518989	1.69548213
-0.08608475	-0.12550291	1.69548750
-0.08405721	-0.12448227	1.69549298
-0.07991785	-0.12131928	1.69550061
-0.07931536	-0.12150721	1.69550395
-0.07819587	-0.12088033	1.69550681
-0.07744294	-0.12093092	1.69551039
-0.07686493	-0.12084399	1.69551265
-0.07595360	-0.12027268	1.69551468
-0.07548699	-0.12032177	1.69551694
-0.07459587	-0.12039834	1.69552124
-0.07396904	-0.11997791	1.69552267
-0.07319999	-0.11948203	1.69552433
-0.07248783	-0.11918107	1.69552648
-0.07176816	-0.11976618	1.69553173
-0.06874242	-0.11762241	1.69553781
-0.06813350	-0.11759606	1.69554055
-0.06653282	-0.11680172	1.69554496
-0.06328839	-0.11448724	1.69555140
-0.06194684	-0.11433576	1.69555688
-0.05896416	-0.11243555	1.69556367
-0.02669159	-0.08877519	1.69562602
-0.02431163	-0.08976465	1.69564021
-0.02241412	-0.08447312	1.69563019
-0.00868040	-0.03837256	1.69553125
-0.00267920	-0.01721431	1.69548452
0.00168854	0.00048544	1.69544244
0.00255647	0.00752681	1.69542181
0.00276425	0.01395465	1.69540036
0.00287035	0.03002852	1.69534492
-0.00817284	0.09142177	1.69508147
-0.00894684	0.09562559	1.69506335
-0.04521218	0.25211799	1.69435561
-0.04580531	0.25462687	1.69434428
-0.04650086	0.25678492	1.69433355
-0.05458727	0.27900547	1.69421995
-0.06264254	0.29985946	1.69411111
-0.06459756	0.30273396	1.69409239
-0.08082978	0.32446745	1.69394386
