//X	Y	Z
-0.46228051	0.52065939	2.12303996
-0.46483153	0.51954353	2.12300730
-0.47006753	0.51675195	2.12293887
-0.47214276	0.51525140	2.12291002
-0.47343966	0.51425654	2.12289190
-0.47499627	0.51301748	2.12286997
-0.48179829	0.50742954	2.12277341
-0.48546842	0.50436753	2.12272120
-0.58715713	0.41074777	2.12123990
-0.58955449	0.40762696	2.12120152
-0.59570944	0.39833277	2.12109828
-0.59852129	0.39276886	2.12104607
-0.60378200	0.38540220	2.12096000
-0.70700622	0.24654222	2.11929131
-0.70877314	0.24500817	2.11926603
-0.70992583	0.24351813	2.11924767
-0.71069914	0.24379084	2.11924005
-0.71152198	0.24388680	2.11923122
-0.71311635	0.24278003	2.11920929
-0.71456158	0.24241138	2.11919188
-0.71569538	0.24096894	2.11917400
-0.71658409	0.24027461	2.11916137
-0.71739638	0.23977031	2.11915064
-0.71813565	0.23981398	2.11914253
-0.71893311	0.23926076	2.11913157
-0.72277647	0.23463437	2.11907148
-0.72378033	0.23342782	2.11905575
-0.72623467	0.23061931	2.11901808
-0.72781479	0.22878146	2.11899352
-0.72860289	0.22933051	2.11898685
-0.73230612	0.22433983	2.11892700
-0.73323810	0.22277205	2.11891079
-0.73842049	0.20866828	2.11880016
-0.74015903	0.19953826	2.11874652
-0.74081135	0.18735884	2.11869335
-0.74077761	0.18406309	2.11868143
-0.74037886	0.18303366	2.11868191
-0.74014819	0.18167348	2.11867929
-0.73980236	0.18082541	2.11868000
-0.73970604	0.17890549	2.11867380
-0.73539436	0.00659904	2.11807346
-0.73575449	0.00511120	2.11806393
-0.73586977	0.00437158	2.11805987
-0.73611462	0.00362338	2.11805415
-0.73612428	0.00206619	2.11804819
-0.73626328	0.00072788	2.11804175
-0.73637867	-0.00001179	2.11803770
-0.73639274	-0.00212027	2.11802959
-0.73645520	-0.00326869	2.11802459
-0.73634923	-0.00669840	2.11801291
-0.73417175	-0.02576113	2.11796522
-0.73321044	-0.03371937	2.11794591
-0.73289323	-0.03594459	2.11794114
-0.73022133	-0.04728086	2.11792827
-0.72923142	-0.05079480	2.11792588
-0.72657913	-0.05672684	2.11793303
-0.72549391	-0.05761862	2.11794186
-0.72463876	-0.05930756	2.11794496
-0.72410977	-0.05964635	2.11794949
-0.72250080	-0.06211019	2.11795807
-0.72026598	-0.06660561	2.11796594
-0.71881026	-0.06944929	2.11797142
-0.64299262	-0.22340146	2.11823416
-0.64243066	-0.22487850	2.11823463
-0.64259875	-0.22520933	2.11823153
-0.64218080	-0.22619128	2.11823249
-0.64211321	-0.22687645	2.11823082
-0.62207377	-0.26358733	2.11831522
-0.60552651	-0.28636509	2.11841321
-0.57437515	-0.31764317	2.11864138
-0.56589568	-0.32610774	2.11870360
-0.55090153	-0.33912474	2.11882114
-0.42758107	-0.38954270	2.12000084
-0.42307904	-0.38854101	2.12005448
-0.42065346	-0.38710973	2.12008691
-0.40687907	-0.37702632	2.12027764
-0.40723032	-0.37648255	2.12027574
-0.40613502	-0.37536246	2.12029219
-0.40553927	-0.37445632	2.12030220
-0.40462655	-0.37293595	2.12031817
-0.40506387	-0.37222883	2.12031579
-0.40524626	-0.37182865	2.12031531
-0.40412694	-0.36965501	2.12033606
-0.30664435	-0.28748992	2.12172747
-0.30533785	-0.28516537	2.12175059
-0.30279645	-0.28253981	2.12178874
-0.17982097	-0.16127841	2.12361050
-0.17902808	-0.16104895	2.12362003
-0.17755809	-0.16178425	2.12363362
-0.17428008	-0.15909129	2.12368011
-0.17350170	-0.15835804	2.12369156
-0.17315096	-0.15820001	2.12369609
-0.17245436	-0.15889010	2.12370133
-0.17047977	-0.15840547	2.12372494
-0.16882782	-0.15715627	2.12374806
-0.16775584	-0.15618017	2.12376356
-0.16625662	-0.15485610	2.12378526
-0.16586386	-0.15496133	2.12378907
-0.16516232	-0.15464535	2.12379813
-0.16398016	-0.15393557	2.12381387
-0.16250035	-0.15311377	2.12383342
-0.16135240	-0.15240240	2.12384892
-0.16028094	-0.15188095	2.12386274
-0.15959406	-0.15128861	2.12387252
-0.15896901	-0.15116267	2.12387991
-0.15712985	-0.14953509	2.12390661
-0.15557778	-0.14861976	2.12392735
-0.15336081	-0.14704852	2.12395787
-0.15291464	-0.14688045	2.12396336
-0.15201978	-0.14635633	2.12397528
-0.15168718	-0.14609033	2.12398005
-0.15054470	-0.14608571	2.12399268
-0.14943518	-0.14569668	2.12400651
-0.14886358	-0.14584404	2.12401223
-0.14799856	-0.14574844	2.12402225
-0.14762868	-0.14554295	2.12402701
-0.14676401	-0.14590210	2.12403536
-0.14543808	-0.14614224	2.12404919
-0.14316137	-0.14499438	2.12407875
-0.14264706	-0.14505680	2.12408423
-0.14163348	-0.14513254	2.12409520
-0.14011550	-0.14421573	2.12411547
-0.13965419	-0.14409673	2.12412095
-0.13837640	-0.14314945	2.12413883
-0.13783856	-0.14284052	2.12414598
-0.13656548	-0.14267187	2.12416077
-0.13589782	-0.14212701	2.12417006
-0.13528779	-0.14195198	2.12417769
-0.13493705	-0.14179398	2.12418199
-0.13422111	-0.14220916	2.12418842
-0.13361114	-0.14203413	2.12419581
-0.13263103	-0.14142630	2.12420917
-0.13226560	-0.14177206	2.12421179
-0.13109842	-0.14101322	2.12422776
-0.13071392	-0.14131156	2.12423086
-0.13014223	-0.14123146	2.12423754
-0.12855212	-0.14044856	2.12425804
-0.12806748	-0.14018559	2.12426448
-0.12735094	-0.13991864	2.12427330
-0.12625645	-0.13948059	2.12428713
-0.12566997	-0.13967688	2.12429285
-0.12460303	-0.13970673	2.12430477
-0.12379144	-0.13988447	2.12431312
-0.12344068	-0.13972649	2.12431741
-0.12152922	-0.13823289	2.12434435
-0.12092403	-0.13883646	2.12434888
-0.11987151	-0.13813512	2.12436318
-0.11899230	-0.13899809	2.12436962
-0.11715771	-0.13792169	2.12439418
-0.11584570	-0.13697599	2.12441230
-0.11481313	-0.13723168	2.12442279
-0.11199376	-0.13499624	2.12446237
-0.11162391	-0.13479078	2.12446737
-0.11125827	-0.13490921	2.12447095
-0.11085035	-0.13483611	2.12447572
-0.11014858	-0.13429278	2.12448549
-0.10957702	-0.13444015	2.12449145
-0.10905865	-0.13440600	2.12449718
-0.10868868	-0.13420053	2.12450218
-0.10752581	-0.13376559	2.12451673
-0.10713698	-0.13373999	2.12452102
-0.10669512	-0.13389583	2.12452531
-0.10501365	-0.13319941	2.12454677
-0.10457173	-0.13335523	2.12455106
-0.10414904	-0.13355850	2.12455487
-0.10266903	-0.13250935	2.12457538
-0.10016657	-0.13066082	2.12460995
-0.09809142	-0.12916020	2.12463880
-0.09759530	-0.12911458	2.12464452
-0.09706223	-0.12958422	2.12464857
-0.09594841	-0.12887129	2.12466359
-0.09484294	-0.12857884	2.12467694
-0.09426694	-0.12817487	2.12468481
-0.09360360	-0.12795389	2.12469316
-0.09240265	-0.12765133	2.12470746
-0.09205189	-0.12749335	2.12471199
-0.09136972	-0.12745222	2.12471986
-0.09098069	-0.12719929	2.12472510
-0.08986291	-0.12661724	2.12473965
-0.08929922	-0.12650284	2.12474632
-0.08854471	-0.12659574	2.12475443
-0.08817509	-0.12661758	2.12475848
-0.08652748	-0.12569225	2.12478018
-0.08599527	-0.12609002	2.12478447
-0.08218580	-0.12430170	2.12483358
-0.08154206	-0.12458296	2.12483978
-0.08015372	-0.12367469	2.12485862
-0.07884216	-0.12318370	2.12487483
-0.07790050	-0.12289816	2.12488651
-0.07716092	-0.12271461	2.12489533
-0.07671879	-0.12264306	2.12490058
-0.07560925	-0.12225407	2.12491441
-0.07520567	-0.12250485	2.12491798
-0.07469139	-0.12256726	2.12492323
-0.07387975	-0.12274498	2.12493157
-0.07288069	-0.12231701	2.12494445
-0.07225136	-0.12186714	2.12495303
-0.07134795	-0.12167654	2.12496376
-0.06888367	-0.11992303	2.12499785
-0.06848031	-0.12040120	2.12500048
-0.06677954	-0.11942991	2.12502289
-0.06546354	-0.11861507	2.12504077
-0.05857150	-0.11354869	2.12513638
-0.05824034	-0.11389294	2.12513876
-0.05777907	-0.11377388	2.12514424
-0.05681822	-0.11344092	2.12515616
-0.05618939	-0.11344575	2.12516308
-0.05517504	-0.11283944	2.12517667
-0.05480580	-0.11331604	2.12517905
-0.05438262	-0.11306464	2.12518454
-0.05367276	-0.11255571	2.12519431
-0.05290820	-0.11347613	2.12519932
-0.05235559	-0.11344357	2.12520576
-0.05182242	-0.11368579	2.12521076
-0.05088098	-0.11362766	2.12522125
-0.05019870	-0.11358657	2.12522912
-0.04987173	-0.11402730	2.12523103
-0.04783554	-0.11330374	2.12525630
-0.04730172	-0.11309130	2.12526321
-0.04665813	-0.11337251	2.12526917
-0.04569346	-0.11317036	2.12528062
-0.04527026	-0.11291894	2.12528634
-0.04491532	-0.11266447	2.12529111
-0.04409286	-0.11298774	2.12529922
-0.04331475	-0.11248183	2.12530971
-0.04290700	-0.11263614	2.12531352
-0.04252224	-0.11270707	2.12531757
-0.04159980	-0.11246902	2.12532878
-0.03876564	-0.11051001	2.12536764
-0.03841487	-0.11035204	2.12537217
-0.03427693	-0.10572994	2.12543535
-0.02816668	-0.09890079	2.12552905
0.02280325	-0.02475850	2.12637377
0.02326924	-0.02386089	2.12638235
0.03131294	0.02151970	2.12664247
0.03165811	0.02589601	2.12666273
0.03170139	0.02699699	2.12666726
0.03164369	0.02946667	2.12667608
0.03120637	0.03017377	2.12667370
0.03046730	0.03351180	2.12667823
0.02989024	0.03503794	2.12667751
0.02958325	0.03643563	2.12667942
0.02914134	0.03659143	2.12667513
0.02881414	0.03680480	2.12667227
0.02817091	0.03754076	2.12666774
0.02801159	0.03808504	2.12666798
0.02755573	0.03919929	2.12666726
0.02711383	0.03935514	2.12666297
0.02676740	0.03952103	2.12665963
0.02619538	0.04205313	2.12666297
-0.00375530	0.21216550	2.12697029
-0.00621095	0.21980566	2.12697172
-0.02393237	0.25764805	2.12691736
-0.02478752	0.25933701	2.12691426
-0.02538812	0.26049182	2.12691188
-0.02562389	0.26084614	2.12691069
-0.02791023	0.26404753	2.12689734
-0.05693182	0.29991940	2.12671018
-0.06624588	0.30887246	2.12664032
-0.08083230	0.31982473	2.12651968
-0.08454975	0.32147160	2.12648439
-0.08652452	0.32098705	2.12646079
-0.08692807	0.32123786	2.12645721
-0.08770618	0.32073197	2.12644672
-0.08856079	0.32003608	2.12643456
-0.09074891	0.32006946	2.12641048
-0.09296885	0.32144886	2.12639093
-0.09341073	0.32160470	2.12638664
-0.09548616	0.32271627	2.12636781
-0.09671617	0.32342115	2.12635684
-0.09794611	0.32412606	2.12634563
-0.09826300	0.32373917	2.12634087
-0.09975225	0.32442707	2.12632680
-0.10012233	0.32399422	2.12632108
-0.10085747	0.32436195	2.12631440
-0.10317317	0.32527652	2.12629199
-0.10587317	0.32671678	2.12626743
-0.10749230	0.32716879	2.12625122
-0.10814071	0.32667139	2.12624216
-0.10934192	0.32614148	2.12622690
-0.11092699	0.32636452	2.12620997
-0.11278626	0.32661957	2.12619042
-0.13323784	0.33953518	2.12601185
-0.13370362	0.33886486	2.12600422
-0.29157570	0.40915105	2.12451577
-0.29232526	0.41002247	2.12451077
-0.29298413	0.41035283	2.12450457
-0.29320458	0.41088542	2.12450409
-0.29411793	0.41174987	2.12449741
-0.29435742	0.41223496	2.12449646
-0.29485252	0.41257229	2.12449217
-0.29497725	0.41334233	2.12449384
-0.29600540	0.41392177	2.12448454
-0.29644257	0.41462883	2.12448239
-0.29675478	0.41502059	2.12448025
-0.29743239	0.41553074	2.12447476
-0.29791236	0.41581899	2.12447047
-0.29801852	0.41618183	2.12447071
-0.29858959	0.41655636	2.12446570
-0.29887837	0.41731960	2.12446547
-0.29924762	0.41756874	2.12446213
-0.29968071	0.41859975	2.12446141
-0.30021361	0.41906935	2.12445712
-0.30079603	0.41936219	2.12445188
-0.30070400	0.41995788	2.12445498
-0.30097777	0.42044452	2.12445378
-0.30168965	0.42095628	2.12444782
-0.30209249	0.42188910	2.12444687
-0.30253005	0.42236882	2.12444377
-0.30264002	0.42286250	2.12444448
-0.30348524	0.42349643	2.12443757
-0.30321723	0.42416123	2.12444305
-0.30387563	0.42494625	2.12443852
-0.30409619	0.42525145	2.12443733
-0.30418324	0.42566186	2.12443781
-0.30469707	0.42617887	2.12443423
-0.30509609	0.42698097	2.12443280
-0.30601361	0.42774886	2.12442541
-0.30595595	0.42811868	2.12442756
-0.30704120	0.42878306	2.12441778
-0.30710918	0.42924097	2.12441897
-0.30780572	0.42993098	2.12441373
-0.30868483	0.43079379	2.12440729
-0.30908817	0.43127194	2.12440443
-0.30928987	0.43162480	2.12440372
-0.30956379	0.43188408	2.12440157
-0.31007797	0.43217388	2.12439704
-0.31059179	0.43269098	2.12439322
-0.31086552	0.43317768	2.12439203
-0.31189370	0.43375719	2.12438273
-0.31229702	0.43423527	2.12438011
-0.31262827	0.43457961	2.12437773
-0.31373262	0.43519643	2.12436771
-0.31356061	0.43562391	2.12437129
-0.31447822	0.43616447	2.12436318
-0.31535769	0.43679997	2.12435579
-0.31557816	0.43733263	2.12435532
-0.31695661	0.43820888	2.12434316
-0.31761515	0.43876654	2.12433815
-0.31850949	0.43945104	2.12433076
-0.31887478	0.43979678	2.12432790
-0.31979233	0.44056475	2.12432075
-0.32139170	0.44151890	2.12430644
-0.32108259	0.44216746	2.12431240
-0.32383159	0.44388565	2.12428832
-0.32500023	0.44460219	2.12427807
-0.32627612	0.44570124	2.12426805
-0.32802707	0.44693795	2.12425327
-0.32964557	0.44784468	2.12423873
-0.32984707	0.44819739	2.12423778
-0.32969409	0.44857734	2.12424088
-0.33835003	0.45345104	2.12416315
-0.33865818	0.45371190	2.12416053
-0.33917236	0.45400172	2.12415600
-0.33994097	0.45482564	2.12415051
-0.34026796	0.45549375	2.12414956
-0.34076267	0.45605838	2.12414598
-0.34219411	0.45711601	2.12413406
-0.34391892	0.45815814	2.12411904
-0.34489393	0.45878366	2.12411046
-0.34531257	0.45908350	2.12410688
-0.34571591	0.45956162	2.12410426
-0.34585997	0.46028429	2.12410545
-0.34622920	0.46053344	2.12410235
-0.34646517	0.46088785	2.12410092
-0.34677246	0.46183068	2.12410116
-0.34768549	0.46314991	2.12409592
-0.34827137	0.46380088	2.12409186
-0.34810326	0.46413177	2.12409496
-0.34922245	0.46525252	2.12408686
-0.34906915	0.46585980	2.12409067
-0.35165825	0.46748835	2.12406802
-0.35185963	0.46806848	2.12406802
-0.35196567	0.46865875	2.12406921
-0.35205233	0.46929640	2.12407064
-0.35348380	0.47035402	2.12405872
-0.35517398	0.47207680	2.12404633
-0.35549688	0.47261399	2.12404490
-0.35709214	0.47366464	2.12403107
-0.35799479	0.47438368	2.12402368
-0.35888872	0.47529548	2.12401724
-0.35919660	0.47601119	2.12401652
-0.35979244	0.47771710	2.12401628
-0.36045516	0.47817820	2.12401056
-0.36142546	0.47935495	2.12400436
-0.36217535	0.47999910	2.12399840
-0.36268437	0.48129472	2.12399769
-0.36354434	0.48220509	2.12399149
-0.36446947	0.48323467	2.12398505
-0.36534885	0.48409763	2.12397861
-0.36631513	0.48514342	2.12397170
-0.36649752	0.48554364	2.12397122
-0.36818403	0.48690820	2.12395763
-0.37124467	0.48947287	2.12393332
-0.37210482	0.49015585	2.12392640
-0.37197030	0.49117038	2.12393165
-0.37233561	0.49151611	2.12392902
-0.37260455	0.49278146	2.12393069
-0.37197027	0.49400979	2.12394238
-0.37180877	0.49481016	2.12394714
-0.36960799	0.49928969	2.12398839
-0.36972892	0.49992895	2.12398958
-0.36989224	0.50037670	2.12398934
-0.37021846	0.50149941	2.12399006
-0.36983985	0.50235260	2.12399745
-0.37931812	0.50777704	2.12391257
-0.41931832	0.51886678	2.12351012
-0.42704397	0.52087736	2.12343192
-0.43094918	0.52169114	2.12339163
-0.43709910	0.52237624	2.12332606
-0.44003332	0.52269548	2.12329459
-0.44182044	0.52281654	2.12327528
-0.45135626	0.52219206	2.12316704
-0.45331150	0.52198237	2.12314439
