//X	Y	Z
-0.33520827	-1.53773499	3.14509773
-0.24874234	-1.54257035	3.14509606
-0.24448602	-1.53321517	3.14509606
-0.24400362	-1.53145587	3.14509606
-0.24442406	-1.52698183	3.14509606
-0.24545811	-1.52440381	3.14509630
-0.24416170	-1.52179456	3.14509630
-0.21954426	-1.50067770	3.14509583
-0.21282704	-1.49606740	3.14509583
-0.21001112	-1.49415779	3.14509583
-0.20750427	-1.49188495	3.14509583
-0.20160085	-1.48812449	3.14509559
-0.19881287	-1.48624289	3.14509559
-0.19642752	-1.48443961	3.14509559
-0.19261977	-1.48218060	3.14509559
-0.18888071	-1.47976387	3.14509535
-0.18313622	-1.47616827	3.14509535
-0.18144318	-1.47474539	3.14509535
-0.17823429	-1.47242475	3.14509535
-0.17726147	-1.47140992	3.14509535
-0.17486659	-1.46993935	3.14509535
-0.16877945	-1.46541488	3.14509511
-0.16346371	-1.45975459	3.14509511
-0.16048568	-1.45756078	3.14509511
-0.15652531	-1.45468485	3.14509511
-0.15470117	-1.45312464	3.14509511
-0.15196365	-1.45072520	3.14509487
-0.15089099	-1.44972062	3.14509487
-0.14748245	-1.44742048	3.14509487
-0.14593890	-1.44649506	3.14509487
-0.14420499	-1.44525731	3.14509487
-0.14184739	-1.44348204	3.14509487
-0.13927197	-1.44136667	3.14509487
-0.13637206	-1.43868279	3.14509463
-0.13510936	-1.43736613	3.14509463
-0.13460454	-1.43615282	3.14509463
-0.13432422	-1.43551838	3.14509463
-0.13137750	-1.43347180	3.14509463
-0.12978090	-1.43191922	3.14509463
-0.12390637	-1.42716086	3.14509463
-0.12227230	-1.42591298	3.14509463
-0.12148955	-1.42521036	3.14509463
-0.12097855	-1.42444897	3.14509463
-0.11828783	-1.42141199	3.14509463
-0.11725605	-1.42022216	3.14509463
-0.11827092	-1.41830945	3.14509463
-0.11349030	-1.41503561	3.14509439
-0.11116616	-1.40963948	3.14509439
-0.11086415	-1.40852511	3.14509439
-0.10934919	-1.40660191	3.14509439
-0.10797381	-1.40550852	3.14509439
-0.10743152	-1.40460002	3.14509439
-0.10606919	-1.40329349	3.14509439
-0.10483441	-1.40200460	3.14509439
-0.10383050	-1.40084267	3.14509439
-0.10370658	-1.39922798	3.14509439
-0.10282165	-1.39739025	3.14509439
-0.10319500	-1.39355350	3.14509439
-0.10191005	-1.39278281	3.14509439
-0.07523592	-1.37866008	3.14509392
-0.07489325	-1.37773108	3.14509392
-0.06941076	-1.37440944	3.14509392
-0.06748699	-1.37285984	3.14509392
-0.06345551	-1.36899614	3.14509392
-0.06308158	-1.36791992	3.14509392
0.06554534	-1.25335395	3.14509225
0.06723583	-1.25307608	3.14509225
0.06987114	-1.25181127	3.14509225
0.07393344	-1.25271344	3.14509201
0.08205809	-1.25451791	3.14509201
0.08352979	-1.25355434	3.14509201
0.12252092	-1.22349405	3.14509130
0.12526570	-1.22257221	3.14509130
0.12691867	-1.22198963	3.14509130
0.12801044	-1.22165024	3.14509130
0.13140687	-1.22016275	3.14509130
0.13285081	-1.21922696	3.14509130
0.13359974	-1.21981668	3.14509130
0.13629173	-1.21952176	3.14509106
0.14212640	-1.21560395	3.14509106
0.14363891	-1.21482575	3.14509106
0.14489284	-1.21420217	3.14509106
0.14943044	-1.21186733	3.14509106
0.15140453	-1.21083570	3.14509106
0.15308879	-1.21010590	3.14509082
0.15773337	-1.20925915	3.14509082
0.15882519	-1.20891988	3.14509082
0.16182230	-1.20739126	3.14509082
0.16401777	-1.20590019	3.14509082
0.16641267	-1.20442951	3.14509082
0.20098387	-1.18126678	3.14509010
0.20536265	-1.17909694	3.14509010
0.20812890	-1.17769527	3.14509010
0.21055266	-1.17722237	3.14509010
0.21666975	-1.17643809	3.14508986
0.22554626	-1.17277384	3.14508986
0.22669697	-1.17225933	3.14508986
0.22762021	-1.17175233	3.14508986
0.22968456	-1.17039824	3.14508986
0.23062375	-1.17067564	3.14508963
0.23468138	-1.16895509	3.14508963
0.24884517	-1.16457188	3.14508939
0.25033617	-1.16427350	3.14508939
0.25604439	-1.16311538	3.14508939
0.27694178	-1.14999330	3.14508891
0.27912515	-1.14931464	3.14508891
0.27978635	-1.14908159	3.14508891
0.28188902	-1.14905798	3.14508891
0.28667161	-1.14955199	3.14508891
0.28815052	-1.15006614	3.14508867
0.29258409	-1.15103710	3.14508867
0.29357588	-1.15068758	3.14508867
0.29509816	-1.15024197	3.14508867
0.29605883	-1.15003967	3.14508867
0.29724061	-1.14937794	3.14508867
0.30305386	-1.14593983	3.14508843
0.31981969	-1.13667119	3.14508820
0.32061198	-1.13630104	3.14508820
0.32174104	-1.13626647	3.14508820
0.32373431	-1.13590002	3.14508820
0.32492584	-1.13557088	3.14508820
0.33022529	-1.13403916	3.14508820
0.33274883	-1.13357663	3.14508796
0.33457041	-1.13316178	3.14508796
0.33533147	-1.13293898	3.14508796
0.33913672	-1.13182497	3.14508796
0.34079942	-1.13157499	3.14508796
0.34153879	-1.13183212	3.14508796
0.34521645	-1.13073575	3.14508772
0.34987044	-1.13022172	3.14508772
0.35125902	-1.13105822	3.14508772
0.35356128	-1.13105500	3.14508772
0.35627720	-1.13404822	3.14508748
0.35881969	-1.13425100	3.14508748
0.36130714	-1.13622594	3.14508748
0.36340022	-1.13586962	3.14508748
0.36480093	-1.13589358	3.14508748
0.36887771	-1.13483822	3.14508724
0.37014738	-1.13499928	3.14508724
0.37190995	-1.13475955	3.14508724
0.37258077	-1.13485909	3.14508724
0.37825790	-1.13384819	3.14508724
0.38047230	-1.13302243	3.14508724
0.38108078	-1.13341641	3.14508700
0.38350454	-1.13294363	3.14508700
0.38426560	-1.13272083	3.14508700
0.39539123	-1.13459373	3.14508677
0.39671373	-1.13412774	3.14508677
0.41045207	-1.12756050	3.14508653
0.41140318	-1.12702549	3.14508653
0.41339642	-1.12665904	3.14508653
0.41600776	-1.12701917	3.14508653
0.41817892	-1.12715316	3.14508653
0.42190361	-1.12669408	3.14508629
0.42455316	-1.12838471	3.14508629
0.43037727	-1.12802148	3.14508629
0.43268904	-1.12835085	3.14508629
0.43467012	-1.12879694	3.14508605
0.43748105	-1.12917757	3.14508605
0.44174555	-1.12895513	3.14508605
0.44593883	-1.12972033	3.14508581
0.44660002	-1.12948728	3.14508581
0.44967544	-1.12844884	3.14508581
0.45152310	-1.13017690	3.14508581
0.45327356	-1.13074970	3.14508581
0.45421275	-1.13102722	3.14508581
0.45501438	-1.13098979	3.14508581
0.45872658	-1.13625634	3.14508557
0.46896514	-1.13619888	3.14508533
0.47135758	-1.13587332	3.14508533
0.47384036	-1.13522542	3.14508533
0.47781992	-1.13301468	3.14508533
0.48419192	-1.13047838	3.14508510
0.48841560	-1.13007069	3.14508510
0.49487993	-1.13097990	3.14508486
0.49989092	-1.13249230	3.14508486
0.50097048	-1.13296545	3.14508486
0.50178182	-1.13326061	3.14508486
0.50248063	-1.13333225	3.14508486
0.50472128	-1.13464940	3.14508462
0.50872129	-1.13584614	3.14508462
0.51133251	-1.13620627	3.14508462
0.51593703	-1.13619995	3.14508462
0.51815873	-1.13685179	3.14508438
0.51991880	-1.13775730	3.14508438
0.52262735	-1.13927269	3.14508438
0.52466762	-1.13954353	3.14508438
0.52664888	-1.13998950	3.14508438
0.53141952	-1.14129603	3.14508414
0.53404486	-1.14461172	3.14508414
0.53726298	-1.14753675	3.14508390
0.53808063	-1.14828396	3.14508390
0.54061127	-1.14929914	3.14508390
0.54321051	-1.15047181	3.14508390
0.54639977	-1.15239906	3.14508390
0.55059695	-1.15476131	3.14508367
0.55213821	-1.15498102	3.14508367
0.55443084	-1.15464520	3.14508367
0.55925673	-1.15417945	3.14508343
0.56334299	-1.15345681	3.14508343
0.56779993	-1.15177715	3.14508343
0.56859231	-1.15140700	3.14508343
0.57161486	-1.15099573	3.14508343
0.57216418	-1.15156496	3.14508343
0.57530582	-1.15182900	3.14508319
0.57653803	-1.15168536	3.14508319
0.57853127	-1.15131879	3.14508319
0.58002234	-1.15102041	3.14508319
0.58100212	-1.15148330	3.14508319
0.58318543	-1.15080476	3.14508319
0.58871055	-1.15143657	3.14508295
0.59137154	-1.15128899	3.14508295
0.59928232	-1.15011740	3.14508271
0.60181528	-1.14998746	3.14508271
0.60386777	-1.14944589	3.14508271
0.60628176	-1.14864051	3.14508271
0.61175233	-1.14613128	3.14508247
0.61297488	-1.14565504	3.14508247
0.61360484	-1.14556921	3.14508247
0.61878800	-1.14221692	3.14508247
0.64370710	-1.12489867	3.14508224
0.64767009	-1.12087750	3.14508200
0.65796202	-1.11036682	3.14508200
0.66457725	-1.10197830	3.14508200
0.68799251	-1.06726372	3.14508176
0.68886781	-1.06509364	3.14508176
0.69390720	-1.05012262	3.14508176
0.70345247	-1.00954390	3.14508176
0.70428324	-1.00559139	3.14508200
0.70303243	-0.97776246	3.14508200
0.70012534	-0.96148729	3.14508224
0.69519776	-0.93578047	3.14508247
0.67904794	-0.89721930	3.14508319
0.64992893	-0.83425987	3.14508414
0.64360332	-0.82486516	3.14508438
0.64057863	-0.82150853	3.14508462
0.63652378	-0.81717104	3.14508462
0.63512319	-0.81714702	3.14508462
0.63182437	-0.81487697	3.14508462
0.63020480	-0.81416720	3.14508486
0.62900627	-0.81301850	3.14508486
0.62703711	-0.81176007	3.14508486
0.62314200	-0.80828339	3.14508486
0.62049240	-0.80659270	3.14508510
0.61671621	-0.80379152	3.14508510
0.61386943	-0.80093539	3.14508510
0.61035210	-0.79797941	3.14508533
0.60832369	-0.79689610	3.14508533
0.60513687	-0.79382378	3.14508533
0.60043031	-0.79005194	3.14508557
0.59925079	-0.78956854	3.14508557
0.59769046	-0.78868365	3.14508557
0.59677303	-0.78792620	3.14508557
0.59533423	-0.78657168	3.14508557
0.59348637	-0.78484356	3.14508557
0.59226614	-0.78417486	3.14508581
0.59104615	-0.78350604	3.14508581
0.58995688	-0.78270024	3.14508581
0.58795023	-0.78113705	3.14508581
0.58562165	-0.77899730	3.14508581
0.58085603	-0.77540052	3.14508605
0.57762605	-0.77328789	3.14508605
0.57615662	-0.77310634	3.14508605
0.57395655	-0.77197474	3.14508605
0.57231563	-0.77174491	3.14508629
0.57058686	-0.77069217	3.14508629
0.56809938	-0.76871735	3.14508629
0.56710994	-0.76792181	3.14508629
0.56598014	-0.76693058	3.14508629
0.56228465	-0.76347440	3.14508653
0.55860329	-0.76297367	3.14508653
0.55475509	-0.76013440	3.14508653
0.55405319	-0.76018202	3.14508653
0.55139726	-0.75803947	3.14508677
0.54606068	-0.75435340	3.14508677
0.54147565	-0.75011188	3.14508700
0.54044312	-0.75027609	3.14508700
0.53706622	-0.74751580	3.14508700
0.53645772	-0.74712175	3.14508700
0.53580838	-0.74654233	3.14508700
0.53475678	-0.74604130	3.14508700
0.53417945	-0.74549991	3.14508724
0.53353029	-0.74492049	3.14508724
0.53164178	-0.74300706	3.14508724
0.52992243	-0.74228710	3.14508724
0.52908951	-0.74247175	3.14508724
0.52704221	-0.74072313	3.14508724
0.52607191	-0.74059284	3.14508724
0.52321321	-0.73854899	3.14508748
0.52085435	-0.73758221	3.14508748
0.51876366	-0.73679340	3.14508748
0.51801455	-0.73620379	3.14508748
0.51536506	-0.73451316	3.14508748
0.51453549	-0.73457837	3.14508748
0.51300621	-0.73354626	3.14508772
0.51212627	-0.73309362	3.14508772
0.50983602	-0.73228425	3.14508772
0.50052774	-0.72246051	3.14508796
0.49747193	-0.71925122	3.14508796
0.49598348	-0.71840441	3.14508796
0.49438566	-0.71721482	3.14508820
0.48585507	-0.70897865	3.14508843
0.48465651	-0.70783007	3.14508843
0.48259950	-0.70574892	3.14508843
0.47763357	-0.70110589	3.14508843
0.47441620	-0.69920659	3.14508867
0.47290868	-0.69769460	3.14508867
0.47211888	-0.69691950	3.14508867
0.47087711	-0.69673061	3.14508867
0.46712261	-0.69344950	3.14508891
0.46272013	-0.69233125	3.14508891
0.46160924	-0.69200528	3.14508891
0.45649642	-0.68671471	3.14508915
0.45506459	-0.68683791	3.14508915
0.45328885	-0.68514800	3.14508915
0.45222500	-0.68545943	3.14508915
0.45102644	-0.68431079	3.14508915
0.44955951	-0.68298423	3.14508915
0.44841754	-0.68280554	3.14508915
0.44750011	-0.68204814	3.14508939
0.44444180	-0.67998385	3.14508939
0.44366157	-0.67954141	3.14508939
0.44181132	-0.67895842	3.14508939
0.44114053	-0.67885888	3.14508939
0.43930224	-0.67746341	3.14508939
0.43684739	-0.67808342	3.14508963
0.43599868	-0.67748350	3.14508963
0.43436718	-0.67758620	3.14508963
0.43236434	-0.67762005	3.14508963
0.28419608	-0.58909726	3.14509320
0.28354675	-0.58851784	3.14509320
0.28284729	-0.58742040	3.14509320
0.28234121	-0.58589149	3.14509320
0.28146362	-0.58429372	3.14509320
0.28035787	-0.58167756	3.14509320
0.27916169	-0.57938379	3.14509320
0.27615410	-0.57292449	3.14509344
0.27538592	-0.57166958	3.14509344
0.27502665	-0.57078820	3.14509344
0.27451801	-0.57040441	3.14509344
0.27416819	-0.56985569	3.14509344
0.27298173	-0.56789452	3.14509344
0.27159554	-0.56591296	3.14509344
0.27015671	-0.56455845	3.14509368
0.26657999	-0.56177777	3.14509368
0.26494145	-0.56040281	3.14509368
0.26378042	-0.55955881	3.14509368
0.26309362	-0.55867469	3.14509368
0.26025659	-0.55615103	3.14509392
0.25948837	-0.55489612	3.14509392
0.25876743	-0.55427849	3.14509392
0.25759035	-0.55265003	3.14509392
0.25575224	-0.55125451	3.14509392
0.25517169	-0.55083257	3.14509392
0.25302443	-0.54907376	3.14509392
0.25259647	-0.54803497	3.14509392
0.25132915	-0.54672885	3.14509416
0.25074866	-0.54630691	3.14509416
0.24906933	-0.54474652	3.14509416
0.24878204	-0.54390329	3.14509416
0.24781415	-0.54262793	3.14509416
0.24657497	-0.54129386	3.14509416
0.24385209	-0.53682292	3.14509439
0.23933893	-0.53261954	3.14509439
0.23819956	-0.53129572	3.14509439
0.23782182	-0.53077489	3.14509439
0.23432592	-0.52733922	3.14509463
0.23366708	-0.52642721	3.14509463
0.23297720	-0.52566236	3.14509463
0.22496575	-0.51916838	3.14509487
0.14407983	-0.45652634	3.14509678
0.14297153	-0.45505527	3.14509678
0.14183214	-0.45373148	3.14509678
0.14145440	-0.45321068	3.14509678
0.14123563	-0.45252493	3.14509702
0.13998687	-0.45085827	3.14509702
0.13833867	-0.44915065	3.14509702
0.13827248	-0.44784811	3.14509702
0.13643679	-0.44530755	3.14509702
0.13547869	-0.44436473	3.14509702
0.13478877	-0.44359988	3.14509702
0.13399903	-0.44282478	3.14509702
0.13228467	-0.43981466	3.14509726
0.13069436	-0.43518969	3.14509726
0.12946711	-0.43304321	3.14509726
0.12873016	-0.43164101	3.14509726
0.12748122	-0.42997441	3.14509726
0.11465385	-0.41936570	3.14509773
0.11330510	-0.41768885	3.14509773
0.11236851	-0.41626620	3.14509773
0.11105099	-0.41444206	3.14509773
0.11063261	-0.41373587	3.14509773
0.10851324	-0.41194919	3.14509773
0.10546702	-0.40907237	3.14509797
0.10161254	-0.40578118	3.14509797
0.10036376	-0.40411448	3.14509797
0.10017610	-0.40328154	3.14509797
0.09909905	-0.40166321	3.14509821
0.09775986	-0.40031901	3.14509821
0.09634252	-0.39848468	3.14509821
0.09582432	-0.39776817	3.14509821
0.09472559	-0.39662978	3.14509821
0.09211925	-0.39397934	3.14509821
0.08930372	-0.39097586	3.14509845
0.08663747	-0.38747483	3.14509845
0.08576962	-0.38620970	3.14509845
0.08539186	-0.38568890	3.14509845
0.08452402	-0.38442367	3.14509845
0.08351552	-0.38296285	3.14509845
0.08071196	-0.37914696	3.14509869
0.08023125	-0.37873524	3.14509869
0.07890417	-0.37657845	3.14509869
0.07490923	-0.37309155	3.14509869
0.07361087	-0.37193269	3.14509892
0.07241231	-0.37078404	3.14509892
0.07164408	-0.36952913	3.14509892
0.07003927	-0.36686179	3.14509892
0.06837192	-0.36448893	3.14509892
0.06686437	-0.36297700	3.14509892
0.06640533	-0.36208531	3.14509892
0.06523782	-0.36078948	3.14509916
0.06412955	-0.35931846	3.14509916
0.06361130	-0.35860199	3.14509916
0.06217230	-0.35724753	3.14509916
0.06158223	-0.35649294	3.14509916
0.06039580	-0.35453179	3.14509916
0.05934981	-0.35276628	3.14509916
0.05831961	-0.35178536	3.14509916
0.05712106	-0.35063669	3.14509940
0.05619401	-0.34954673	3.14509940
0.05011097	-0.34412584	3.14509940
0.04954257	-0.34289134	3.14509940
0.04823462	-0.34139982	3.14509964
0.04440346	-0.33545786	3.14509964
0.04438433	-0.33479264	3.14509964
0.04256058	-0.33143958	3.14509964
0.04212306	-0.33006814	3.14509964
0.04149548	-0.32900882	3.14509964
0.04113626	-0.32812744	3.14509988
0.04047742	-0.32721543	3.14509988
0.04134087	-0.32585773	3.14509988
0.03921527	-0.32361910	3.14509988
0.03912739	-0.32279640	3.14509988
0.03873949	-0.32091707	3.14509988
0.03824281	-0.31972086	3.14509988
0.03849518	-0.31911424	3.14509988
0.03780787	-0.31720424	3.14509988
0.03621241	-0.31486958	3.14509988
0.03586276	-0.31432083	3.14509988
0.03450445	-0.31231135	3.14510012
0.03268787	-0.31043604	3.14510012
0.03151097	-0.30880746	3.14510012
0.03031241	-0.30765885	3.14510012
0.02920411	-0.30618778	3.14510012
0.02857655	-0.30512848	3.14510012
0.02788662	-0.30436364	3.14510012
0.02743699	-0.30380476	3.14510012
0.02731803	-0.30312926	3.14510012
0.02723035	-0.30230647	3.14510012
0.02692372	-0.30079809	3.14510036
0.02733751	-0.29888147	3.14510036
0.02661970	-0.29814455	3.14510036
0.02647206	-0.29647118	3.14510036
0.02595386	-0.29575473	3.14510036
0.02443928	-0.29276499	3.14510036
0.01266271	-0.28163168	3.14510059
0.01264358	-0.28096646	3.14510059
0.01223731	-0.27944767	3.14510059
0.01173104	-0.27791882	3.14510083
0.01086318	-0.27665362	3.14510083
0.00640444	-0.26965234	3.14510083
0.00569537	-0.26822230	3.14510083
0.00604761	-0.26762584	3.14510083
0.00581926	-0.26660755	3.14510083
0.00528196	-0.26522586	3.14510083
0.00462109	-0.26054585	3.14510107
0.00500457	-0.25980219	3.14510107
0.00463817	-0.25744313	3.14510107
0.00453116	-0.25595522	3.14510107
0.00524519	-0.25509509	3.14510107
0.00509058	-0.25194395	3.14510107
0.00513376	-0.25098425	3.14510107
0.00470822	-0.24880032	3.14510107
0.00498854	-0.24816579	3.14510107
0.00393301	-0.24606767	3.14510107
0.00393812	-0.24377739	3.14510107
0.00458264	-0.24173406	3.14510107
0.00298738	-0.23939930	3.14510107
0.00381957	-0.23818888	3.14510107
0.00394346	-0.23657414	3.14510107
0.00365138	-0.23310816	3.14510131
0.00409384	-0.23218942	3.14510131
0.00363481	-0.23129779	3.14510131
0.00393663	-0.23018339	3.14510131
0.00395118	-0.22822587	3.14510131
0.00389712	-0.22611076	3.14510131
0.00343794	-0.22521919	3.14510131
0.00354031	-0.22408433	3.14510131
0.00332889	-0.21996331	3.14510131
0.00332429	-0.21734047	3.14510131
0.00335811	-0.21604806	3.14510131
0.00380297	-0.21398425	3.14510131
0.00350609	-0.21280831	3.14510131
0.00442854	-0.21127555	3.14510131
0.00328514	-0.20835471	3.14510131
0.00303069	-0.20519340	3.14510155
0.00358255	-0.20461743	3.14510155
0.00374249	-0.20056540	3.14510155
0.00327389	-0.19934113	3.14510155
0.00318143	-0.19589561	3.14510155
0.00392590	-0.19386235	3.14510155
0.00428051	-0.19212100	3.14510155
0.00423366	-0.19148359	3.14510155
0.00427611	-0.18949804	3.14510155
0.00361982	-0.18744093	3.14510155
0.00324208	-0.18692014	3.14510155
0.00289243	-0.18637130	3.14510155
0.00324467	-0.18577498	3.14510155
-0.01427238	-0.16829178	3.14510202
-0.01766840	-0.16486627	3.14510202
-0.01848681	-0.16309336	3.14510226
-0.01890522	-0.16238719	3.14510226
-0.02048154	-0.16071776	3.14510226
-0.02300714	-0.15741235	3.14510226
-0.02435569	-0.15573540	3.14510226
-0.02640063	-0.15284178	3.14510250
-0.02770855	-0.15135023	3.14510250
-0.02850787	-0.15024251	3.14510250
-0.03543283	-0.14569956	3.14510274
-0.04818705	-0.13787124	3.14510298
-0.05166616	-0.13624579	3.14510298
-0.05647747	-0.13475396	3.14510322
-0.06126972	-0.13392733	3.14510322
-0.10285974	-0.12956862	3.14510393
-0.10911429	-0.13003819	3.14510417
-0.11133829	-0.13053145	3.14510417
-0.11766706	-0.13210796	3.14510441
-0.12131351	-0.13305713	3.14510441
-0.12810394	-0.13488714	3.14510441
-0.20759259	-0.16127509	3.14510584
-0.28217030	-0.18916531	3.14510703
-0.31947845	-0.20490158	3.14510775
-0.32099092	-0.20567977	3.14510775
-0.33108291	-0.21129794	3.14510775
-0.44853973	-0.28964359	3.14510942
-0.45483860	-0.29496023	3.14510965
-0.47334361	-0.31266975	3.14510989
-0.49433637	-0.33331755	3.14511013
-0.50095421	-0.34285119	3.14511013
-0.51156771	-0.35872409	3.14511013
-0.52722001	-0.38465491	3.14511037
-0.55554116	-0.43305835	3.14511037
-0.55528170	-0.43392953	3.14511037
-0.55551499	-0.43520135	3.14511037
-0.57335716	-0.48375326	3.14511037
-0.62105489	-0.60436118	3.14511037
-0.62156600	-0.60512233	3.14511037
-0.64780825	-0.67260849	3.14511037
-0.64814168	-0.67878312	3.14511037
-0.63700533	-0.71697706	3.14510989
-0.63657731	-0.71801585	3.14510989
-0.63624221	-0.72052222	3.14510989
-0.63611370	-0.72153032	3.14510989
-0.63597679	-0.72675836	3.14510965
-0.63581955	-0.72876430	3.14510965
-0.63571525	-0.73139739	3.14510965
-0.63511658	-0.73637176	3.14510965
-0.63467491	-0.74527913	3.14510965
-0.63456810	-0.74676716	3.14510965
-0.63404268	-0.74896127	3.14510965
-0.63382649	-0.75079215	3.14510965
-0.63342750	-0.75574613	3.14510942
-0.63333982	-0.75656891	3.14510942
-0.63202435	-0.92920196	3.14510822
-0.57293499	-1.02624249	3.14510632
-0.57161748	-1.02806664	3.14510632
-0.56944412	-1.03196836	3.14510608
-0.55587876	-1.06248629	3.14510560
-0.55529815	-1.06290829	3.14510560
-0.54637331	-1.07347548	3.14510536
-0.54454470	-1.07453847	3.14510536
-0.54138887	-1.07775807	3.14510536
-0.53916538	-1.08217788	3.14510512
-0.53771293	-1.08546197	3.14510512
-0.53715402	-1.08636391	3.14510512
-0.53662634	-1.08741295	3.14510512
-0.53514409	-1.08780766	3.14510512
-0.53419536	-1.08841789	3.14510512
-0.53274941	-1.09125018	3.14510512
-0.53203154	-1.09198701	3.14510489
-0.53042412	-1.09350920	3.14510489
-0.52314579	-1.11104989	3.14510465
-0.51289809	-1.11623812	3.14510441
-0.51086903	-1.11834717	3.14510441
-0.50989175	-1.11995530	3.14510441
-0.50836045	-1.12475526	3.14510417
-0.50458205	-1.13132441	3.14510417
-0.50180733	-1.13414240	3.14510417
-0.49738815	-1.13707113	3.14510393
-0.49404740	-1.14226890	3.14510393
-0.49253985	-1.14378083	3.14510393
-0.48942873	-1.14521801	3.14510369
-0.48627293	-1.14843750	3.14510369
-0.48316497	-1.14999413	3.14510369
-0.44978240	-1.31807339	3.14510179
-0.45963654	-1.32504249	3.14510179
-0.46060234	-1.32753503	3.14510179
-0.46504509	-1.33217025	3.14510179
-0.46589255	-1.33431244	3.14510179
-0.46673685	-1.33633530	3.14510179
-0.46719387	-1.33921182	3.14510179
-0.46776021	-1.34174514	3.14510179
-0.46808374	-1.34333944	3.14510179
-0.46973014	-1.35031271	3.14510179
-0.46965438	-1.35194790	3.14510179
-0.46933818	-1.35378897	3.14510179
-0.46893817	-1.35485554	3.14510179
-0.46852234	-1.35670698	3.14510179
-0.46901521	-1.35710788	3.14510179
-0.46743098	-1.36128080	3.14510179
-0.46691531	-1.36314237	3.14510179
-0.46594048	-1.36589551	3.14510155
-0.46641451	-1.37187457	3.14510155
-0.46568951	-1.37408912	3.14510155
-0.45183766	-1.39779508	3.14510107
-0.36040187	-1.43720376	3.14509916
-0.32151973	-1.52573681	3.14509773
