//X	Y	Z
-1.00766850	0.91735816	3.40732789
-1.03171229	0.89159614	3.40722513
-1.04805577	0.87375778	3.40715432
-1.06280434	0.85367435	3.40708208
-1.07100081	0.84198439	3.40704083
-1.07327771	0.83872229	3.40702939
-1.07595813	0.83334911	3.40701270
-1.08394527	0.81613559	3.40696025
-1.08664298	0.80942565	3.40694070
-1.08839095	0.80411839	3.40692616
-1.09261227	0.78744292	3.40688252
-1.09333301	0.78232527	3.40687013
-1.09305680	0.78167713	3.40686941
-1.09326410	0.77965909	3.40686464
-1.12301362	0.61024213	3.40644813
-1.12385321	0.60825884	3.40644240
-1.12410784	0.60718066	3.40643954
-1.12494957	0.60472548	3.40643263
-1.12542856	0.60229599	3.40642667
-1.12640631	0.59963500	3.40641904
-1.12680984	0.59795785	3.40641475
-1.12719607	0.59718353	3.40641236
-1.12748098	0.59637874	3.40640998
-1.12774408	0.59541696	3.40640736
-1.12833774	0.59506178	3.40640545
-1.12914288	0.59174538	3.40639687
-1.13242531	0.57655090	3.40635824
-1.13352585	0.57207417	3.40634656
-1.14021170	0.52344728	3.40623093
-1.14218640	0.50830376	3.40619493
-1.14395595	0.49470651	3.40616274
-1.14699471	0.47021836	3.40610528
-1.15032220	0.43396568	3.40602231
-1.15020156	0.43130314	3.40601683
-1.15123320	0.41815037	3.40598726
-1.15063322	0.41791734	3.40598798
-1.15104103	0.40928689	3.40596890
-1.15150285	0.40218434	3.40595317
-1.15080369	0.39901191	3.40594792
-1.15047562	0.39836735	3.40594721
-1.15033960	0.39656997	3.40594363
-1.15029204	0.39362681	3.40593743
-1.14986265	0.39251781	3.40593600
-1.14988184	0.38870609	3.40592813
-1.14950454	0.38802725	3.40592742
-1.14922810	0.38694525	3.40592575
-1.14926267	0.38427168	3.40592003
-1.14919364	0.38360885	3.40591860
-1.14893878	0.38268372	3.40591741
-1.14874697	0.38183337	3.40591598
-1.14876413	0.38049662	3.40591311
-1.14861321	0.37799466	3.40590811
-1.14770019	0.37782153	3.40590954
-1.14801943	0.37390935	3.40590072
-1.14771080	0.37145633	3.40589619
-1.14748859	0.37033272	3.40589428
-1.14790082	0.36476529	3.40588164
-1.14762676	0.35563222	3.40586305
-1.14645708	0.35543948	3.40586495
-1.14594138	0.35500440	3.40586519
-1.14592385	0.35233468	3.40585971
-1.14572120	0.35140574	3.40585804
-1.14573848	0.35006911	3.40585518
-1.14556992	0.34847003	3.40585232
-1.14587641	0.34137839	3.40583658
-1.14460540	0.34072137	3.40583801
-1.14457309	0.33891642	3.40583420
-1.14405942	0.33600628	3.40582919
-1.14413047	0.33419427	3.40582514
-1.14395785	0.33153534	3.40581989
-1.14380252	0.32954311	3.40581608
-1.14376795	0.32821009	3.40581322
-1.14359546	0.32755449	3.40581226
-1.14362979	0.32488108	3.40580654
-1.14323711	0.32062685	3.40579844
-1.14315081	0.31929737	3.40579581
-1.14313555	0.31815910	3.40579343
-1.14309883	0.31729782	3.40579176
-1.14444995	0.29465690	3.40574145
-1.14506733	0.28353667	3.40571666
-1.14518809	0.27417964	3.40569687
-1.14388466	0.27372092	3.40569854
-1.14395142	0.27084899	3.40569234
-1.14362335	0.27020448	3.40569162
-1.14319170	0.26956722	3.40569115
-1.14339900	0.26354265	3.40567803
-1.14319420	0.25994679	3.40567088
-1.14319837	0.25656614	3.40566397
-1.14340341	0.25301671	3.40565610
-1.14294171	0.25210613	3.40565491
-1.14318109	0.24588332	3.40564156
-1.14221227	0.24508783	3.40564179
-1.14225090	0.24347420	3.40563822
-1.14211476	0.23923957	3.40562963
-1.14135087	0.23890123	3.40563059
-1.14158201	0.23456518	3.40562081
-1.14084399	0.23300646	3.40561914
-1.14075530	0.23014551	3.40561342
-1.14068675	0.22634378	3.40560555
-1.13945234	0.22454472	3.40560412
-1.13892341	0.22406900	3.40560436
-1.13868177	0.22318447	3.40560293
-1.13870931	0.22219399	3.40560079
-1.13839877	0.22064655	3.40559816
-1.13828468	0.21987376	3.40559673
-1.13803816	0.21819721	3.40559363
-1.13800192	0.21620037	3.40558958
-1.13802135	0.21439190	3.40558577
-1.13776660	0.21346666	3.40558434
-1.13790476	0.21078585	3.40557837
-1.13737607	0.20874077	3.40557528
-1.13723791	0.20741501	3.40557265
-1.13713646	0.20494734	3.40556765
-1.13715589	0.20313881	3.40556383
-1.13716006	0.20219538	3.40556192
-1.13704133	0.20106450	3.40555978
-1.13608980	0.20093554	3.40556145
-1.13537073	0.20027329	3.40556145
-1.13530195	0.19890884	3.40555882
-1.13515091	0.19797631	3.40555716
-1.13463497	0.19754119	3.40555716
-1.13402832	0.19742179	3.40555811
-1.13410604	0.19663166	3.40555644
-1.13375211	0.19477025	3.40555310
-1.13393557	0.19149770	3.40554595
-1.13327110	0.19052619	3.40554523
-1.13271880	0.18922970	3.40554357
-1.13218784	0.18765631	3.40554142
-1.13168275	0.18486255	3.40553665
-1.13116264	0.18336762	3.40553451
-1.13116705	0.18242410	3.40553260
-1.12948799	0.18038104	3.40553164
-1.12865043	0.17788626	3.40552807
-1.12852097	0.17711073	3.40552664
-1.12794483	0.17612906	3.40552568
-1.12714851	0.17598915	3.40552711
-1.12697577	0.17489971	3.40552521
-1.12671888	0.17244303	3.40552044
-1.12596357	0.17021778	3.40551734
-1.12569380	0.16414785	3.40550518
-1.12421978	0.16256185	3.40550494
-1.12358093	0.16193932	3.40550494
-1.12272215	0.16172463	3.40550613
-1.12223208	0.16006906	3.40550375
-1.12214828	0.15913568	3.40550184
-1.12152052	0.15902545	3.40550280
-1.12151563	0.15823337	3.40550137
-1.12101078	0.15787674	3.40550160
-1.12067592	0.15621033	3.40549874
-1.11988437	0.15599467	3.40549994
-1.11974812	0.15533273	3.40549874
-1.11923444	0.15442592	3.40549779
-1.11885893	0.15284157	3.40549541
-1.11839688	0.14949390	3.40548921
-1.11760283	0.14888228	3.40548944
-1.11709332	0.14703196	3.40548658
-1.12723911	-0.02552211	3.40510345
-1.12744832	-0.02801171	3.40509772
-1.12830317	-0.02885696	3.40509415
-1.12843704	-0.03059426	3.40509033
-1.12927890	-0.03104615	3.40508771
-1.12944901	-0.03192204	3.40508556
-1.12979436	-0.03261426	3.40508342
-1.13032532	-0.03304425	3.40508127
-1.13056707	-0.03372908	3.40507936
-1.13082385	-0.03527895	3.40507555
-1.13126636	-0.03656647	3.40507197
-1.13202596	-0.03728798	3.40506887
-1.13286316	-0.03879958	3.40506411
-1.13385820	-0.04079401	3.40505791
-1.13449693	-0.04217476	3.40505362
-1.13499331	-0.04393774	3.40504885
-1.13528037	-0.04721755	3.40504146
-1.13552427	-0.04837412	3.40503860
-1.13590991	-0.05245331	3.40502930
-1.13627684	-0.05342239	3.40502644
-1.13653350	-0.05497220	3.40502262
-1.13706446	-0.05540213	3.40502071
-1.13740969	-0.05609435	3.40501857
-1.13753927	-0.05688819	3.40501666
-1.13778102	-0.05757299	3.40501451
-1.13838315	-0.05781183	3.40501285
-1.13903272	-0.05911404	3.40500879
-1.13922262	-0.05979523	3.40500712
-1.13978815	-0.06089535	3.40500355
-1.14031887	-0.06132513	3.40500164
-1.14076781	-0.06202471	3.40499926
-1.14141738	-0.06332690	3.40499520
-1.14171088	-0.06401542	3.40499306
-1.14190090	-0.06469664	3.40499139
-1.14239502	-0.06598786	3.40498757
-1.14294767	-0.06669474	3.40498495
-1.14331222	-0.06719214	3.40498328
-1.14389277	-0.06915718	3.40497780
-1.14478183	-0.07067245	3.40497279
-1.14497185	-0.07135376	3.40497112
-1.14512289	-0.07242450	3.40496850
-1.14584374	-0.07353559	3.40496469
-1.14606607	-0.07441527	3.40496230
-1.14635956	-0.07510379	3.40496039
-1.14653003	-0.07597980	3.40495825
-1.14687526	-0.07667190	3.40495610
-1.14730048	-0.07862601	3.40495110
-1.14750957	-0.07954627	3.40494871
-1.14764786	-0.08022389	3.40494704
-1.14838576	-0.08066830	3.40494466
-1.14903760	-0.08244237	3.40493941
-1.14987719	-0.08442578	3.40493369
-1.15033901	-0.08551854	3.40493035
-1.15045762	-0.08639079	3.40492821
-1.15073168	-0.08727407	3.40492582
-1.15167260	-0.08879310	3.40492082
-1.15191436	-0.08947799	3.40491891
-1.15318346	-0.09035239	3.40491438
-1.15448475	-0.09342858	3.40490532
-1.15489709	-0.09699282	3.40489697
-1.15566313	-0.10069886	3.40488768
-1.15613127	-0.10120353	3.40488577
-1.15640759	-0.10255861	3.40488219
-1.15684795	-0.10337442	3.40487957
-1.15724492	-0.10407019	3.40487742
-1.15784919	-0.10678402	3.40487051
-1.15844274	-0.10713914	3.40486860
-1.15928662	-0.10806274	3.40486479
-1.16002035	-0.10956711	3.40486026
-1.16064405	-0.11008281	3.40485787
-1.16083837	-0.11127365	3.40485501
-1.16106057	-0.11215320	3.40485263
-1.16174698	-0.11259407	3.40485024
-1.16291451	-0.11393300	3.40484524
-1.16420281	-0.11661586	3.40483689
-1.16516531	-0.11841178	3.40483117
-1.16602421	-0.12020040	3.40482569
-1.16665876	-0.12264097	3.40481925
-1.16730833	-0.12394312	3.40481520
-1.16792560	-0.12705019	3.40480733
-1.16868520	-0.12777165	3.40480423
-1.16895509	-0.12971479	3.40479970
-1.16915584	-0.13031748	3.40479803
-1.17053485	-0.13061124	3.40479469
-1.17086053	-0.13149816	3.40479207
-1.17242098	-0.13258946	3.40478659
-1.17350221	-0.13525763	3.40477872
-1.17372441	-0.13613728	3.40477657
-1.17391050	-0.13857996	3.40477109
-1.17402923	-0.13945225	3.40476894
-1.17447782	-0.14101958	3.40476465
-1.17545962	-0.14105129	3.40476274
-1.17590427	-0.14237669	3.40475893
-1.17608118	-0.14466789	3.40475368
-1.17705429	-0.14481595	3.40475154
-1.17751634	-0.14547488	3.40474916
-1.17830420	-0.14545134	3.40474772
-1.17837095	-0.14631999	3.40474558
-1.17871618	-0.14744607	3.40474248
-1.17880452	-0.14859161	3.40474010
-1.17965925	-0.14943677	3.40473652
-1.18008888	-0.14989722	3.40473461
-1.18086338	-0.14991423	3.40473294
-1.18141162	-0.15168089	3.40472817
-1.18185425	-0.15253466	3.40472555
-1.18209791	-0.15412512	3.40472174
-1.18299139	-0.15458062	3.40471888
-1.18336058	-0.15515369	3.40471697
-1.18356109	-0.15662423	3.40471339
-1.18446755	-0.15747300	3.40470982
-1.18478048	-0.15996996	3.40470386
-1.18542814	-0.16036665	3.40470171
-1.18571520	-0.16164327	3.40469861
-1.18614447	-0.16297141	3.40469480
-1.18697524	-0.16350174	3.40469217
-1.18760979	-0.16393891	3.40468979
-1.18857014	-0.16526318	3.40468502
-1.18896723	-0.16752833	3.40467954
-1.18983901	-0.16814083	3.40467644
-1.19024694	-0.16875818	3.40467429
-1.19102168	-0.17034468	3.40466952
-1.19146204	-0.17116052	3.40466690
-1.19172525	-0.17212239	3.40466428
-1.19247425	-0.17248836	3.40466189
-1.19278061	-0.17357016	3.40465903
-1.19343448	-0.17381257	3.40465736
-1.19384456	-0.17490166	3.40465426
-1.19430852	-0.17646620	3.40464997
-1.19484162	-0.17736781	3.40464687
-1.19547606	-0.17980832	3.40464044
-1.19670844	-0.18154410	3.40463448
-1.19746804	-0.18426886	3.40462708
-1.19822133	-0.18557850	3.40462279
-1.19870257	-0.18647644	3.40461993
-1.19918597	-0.18784615	3.40461612
-1.19959593	-0.18893516	3.40461302
-1.19983745	-0.18961999	3.40461111
-1.20037079	-0.19052172	3.40460801
-1.20091867	-0.19228825	3.40460324
-1.20117140	-0.19289470	3.40460134
-1.20251369	-0.19605306	3.40459204
-1.20341802	-0.19843331	3.40458536
-1.20424664	-0.20049518	3.40457916
-1.20495009	-0.20227280	3.40457416
-1.20578969	-0.20425621	3.40456820
-1.20647597	-0.20469707	3.40456581
-1.20748818	-0.20602500	3.40456104
-1.20836222	-0.20867869	3.40455365
-1.20915198	-0.21313336	3.40454268
-1.20978665	-0.21557391	3.40453625
-1.21011233	-0.21846408	3.40452957
-1.21187782	-0.24514085	3.40446997
-1.21234190	-0.25471857	3.40444875
-1.21244955	-0.31376427	3.40432453
-1.20717716	-0.39875162	3.40415668
-1.20639157	-0.41126654	3.40413189
-1.20448804	-0.42197460	3.40411329
-1.20094013	-0.43940240	3.40408373
-1.19178534	-0.45490572	3.40406990
-1.15872729	-0.48586196	3.40407181
-1.15627122	-0.48785001	3.40407276
-1.14804220	-0.49198776	3.40408087
-1.14577830	-0.49312541	3.40408301
-1.13831985	-0.49590284	3.40409231
-1.12689686	-0.49958080	3.40410781
-1.11628747	-0.50044918	3.40412736
-1.11306322	-0.50026262	3.40413451
-1.10901666	-0.49942946	3.40414429
-1.10174406	-0.49793810	3.40416217
-1.09779882	-0.49664062	3.40417314
-1.09636140	-0.49536189	3.40417862
-1.09514213	-0.49401933	3.40418386
-1.09282875	-0.49362189	3.40418959
-1.09100938	-0.49251235	3.40419555
-1.08864415	-0.49211121	3.40420103
-1.08845425	-0.49143004	3.40420294
-1.08511114	-0.49037126	3.40421200
-1.08289909	-0.48950922	3.40421820
-1.08079052	-0.48865464	3.40422440
-1.08010221	-0.48573875	3.40423179
-1.07861972	-0.48543787	3.40423560
-1.07562852	-0.48448312	3.40424371
-1.07439387	-0.48427880	3.40424657
-1.07381988	-0.48329502	3.40424967
-1.07313371	-0.48285413	3.40425205
-1.07284880	-0.48204941	3.40425444
-1.07167685	-0.48177028	3.40425730
-1.07019210	-0.48143137	3.40426111
-1.06955767	-0.48099422	3.40426326
-1.06714714	-0.47956753	3.40427113
-1.06717277	-0.47878462	3.40427279
-1.06456804	-0.47817031	3.40427923
-1.06431782	-0.47760183	3.40428114
-1.06242275	-0.47617376	3.40428782
-1.06160069	-0.47552723	3.40429091
-1.06027985	-0.47464895	3.40429544
-1.05942082	-0.47286040	3.40430093
-1.05810213	-0.47245404	3.40430450
-1.05779159	-0.47042882	3.40430927
-1.05749583	-0.46926847	3.40431237
-1.05677724	-0.46862918	3.40431523
-1.05561388	-0.46823382	3.40431833
-1.05497944	-0.46779659	3.40432072
-1.05264020	-0.46617877	3.40432882
-1.05223227	-0.46556127	3.40433097
-1.05193663	-0.46396717	3.40433478
-1.05125892	-0.46384382	3.40433645
-1.04981518	-0.46315336	3.40434098
-1.04859161	-0.46243671	3.40434480
-1.04730952	-0.46160281	3.40434933
-1.04598880	-0.46072471	3.40435386
-1.04528117	-0.45957309	3.40435767
-1.04374695	-0.45926845	3.40436149
-1.04277551	-0.45802265	3.40436602
-1.04265690	-0.45715028	3.40436792
-1.04273200	-0.45633310	3.40436959
-1.04182148	-0.45611036	3.40437198
-1.04097140	-0.45577484	3.40437436
-1.04059374	-0.45488429	3.40437698
-1.03973889	-0.45403901	3.40438056
-1.03912842	-0.45391664	3.40438199
-1.03864717	-0.45345259	3.40438390
-1.03724194	-0.45237225	3.40438914
-1.03496289	-0.45064172	3.40439725
-1.03491330	-0.44710320	3.40440488
-1.03431380	-0.44646847	3.40440750
-1.03424680	-0.44559985	3.40440941
-1.03425944	-0.44485751	3.40441084
-1.03302753	-0.44425726	3.40441465
-1.03185976	-0.44378620	3.40441799
-1.03111100	-0.44298631	3.40442133
-1.02762556	-0.44230974	3.40442967
-1.02616656	-0.44075406	3.40443611
-1.02368045	-0.43900889	3.40444469
-1.02340412	-0.43765381	3.40444803
-1.02111030	-0.43706161	3.40445399
-1.02075183	-0.43597603	3.40445709
-1.01970315	-0.43550962	3.40446019
-1.01962781	-0.43232012	3.40446711
-1.01808453	-0.43099618	3.40447283
-1.01709831	-0.43045488	3.40447617
-1.01654148	-0.42923841	3.40447974
-1.01579499	-0.42891026	3.40448189
-1.01521206	-0.42847663	3.40448403
-1.01439857	-0.42771369	3.40448737
-1.01396894	-0.42681932	3.40448999
-1.01376414	-0.42483926	3.40449452
-1.01341653	-0.42410928	3.40449691
-1.01199675	-0.42373347	3.40450048
-1.01190805	-0.42302173	3.40450215
-1.01187778	-0.42129168	3.40450597
-1.01182163	-0.42034453	3.40450811
-1.01069331	-0.42018554	3.40451074
-1.00996792	-0.41856486	3.40451550
-1.00994658	-0.41742021	3.40451789
-1.00955355	-0.41653228	3.40452075
-1.00894296	-0.41597593	3.40452313
-1.00836039	-0.41554242	3.40452504
-1.00762224	-0.41509786	3.40452766
-1.00646138	-0.41474041	3.40453076
-1.00623906	-0.41386071	3.40453291
-1.00565553	-0.41359314	3.40453482
-1.00505829	-0.41299638	3.40453720
-1.00504315	-0.41213131	3.40453911
-1.00445652	-0.41188985	3.40454078
-1.00370288	-0.41144800	3.40454316
-1.00301623	-0.41030547	3.40454698
-1.00241482	-0.40990061	3.40454912
-1.00231457	-0.40899950	3.40455127
-1.00100684	-0.40851471	3.40455484
-1.00101125	-0.40745491	3.40455699
-1.00017047	-0.40683705	3.40456009
-0.99932790	-0.40655112	3.40456247
-0.99917686	-0.40548041	3.40456486
-0.99857551	-0.40507555	3.40456700
-0.99801230	-0.40444732	3.40456939
-0.99734533	-0.40381151	3.40457225
-0.99637771	-0.40324143	3.40457535
-0.99551308	-0.40230882	3.40457916
-0.99500948	-0.40129986	3.40458226
-0.99441248	-0.39983526	3.40458655
-0.99420029	-0.39904320	3.40458870
-0.99321467	-0.39876974	3.40459108
-0.99240035	-0.39773887	3.40459490
-0.99178612	-0.39694083	3.40459800
-0.99117315	-0.39678055	3.40459943
-0.98991418	-0.39599365	3.40460372
-0.98986959	-0.39523584	3.40460539
-0.98846465	-0.39415571	3.40461063
-0.98751426	-0.39291903	3.40461493
-0.98722088	-0.39022729	3.40462136
-0.98656112	-0.38883746	3.40462565
-0.98616409	-0.38814163	3.40462780
-0.98401594	-0.38784266	3.40463281
-0.98320901	-0.38605773	3.40463829
-0.98178661	-0.38564396	3.40464187
-0.98015732	-0.38321242	3.40465045
-0.97977966	-0.38232177	3.40465307
-0.97960699	-0.38097399	3.40465617
-0.97887099	-0.38100117	3.40465760
-0.97859484	-0.37964621	3.40466094
-0.97807896	-0.37807795	3.40466547
-0.97699988	-0.37788475	3.40466809
-0.97532088	-0.37792444	3.40467143
-0.97432607	-0.37593007	3.40467763
-0.97314346	-0.37372625	3.40468454
-0.97247428	-0.37261873	3.40468836
-0.97048461	-0.37063330	3.40469646
-0.96962774	-0.36931640	3.40470099
-0.96731210	-0.36644384	3.40471172
-0.96686536	-0.36421281	3.40471721
-0.96539146	-0.36179221	3.40472531
-0.96484113	-0.35955393	3.40473127
-0.96459514	-0.35792559	3.40473509
-0.96380609	-0.35731131	3.40473795
-0.96361613	-0.35663015	3.40473986
-0.96236360	-0.35525510	3.40474534
-0.96147311	-0.35510528	3.40474749
-0.96070194	-0.35262513	3.40475416
-0.96046013	-0.35194021	3.40475607
-0.95967108	-0.35132599	3.40475893
-0.95903373	-0.35058314	3.40476179
-0.95810783	-0.34992903	3.40476513
-0.95689070	-0.34905833	3.40476942
-0.95601439	-0.34793615	3.40477347
-0.95519233	-0.34728959	3.40477657
-0.95474333	-0.34659004	3.40477896
-0.95433545	-0.34597272	3.40478110
-0.95391893	-0.34547165	3.40478301
-0.95299530	-0.34528935	3.40478516
-0.95290899	-0.34461552	3.40478683
-0.95246661	-0.34332806	3.40479040
-0.95170903	-0.34307817	3.40479255
-0.95098621	-0.34149545	3.40479732
-0.94997823	-0.34111100	3.40480018
-0.94954872	-0.34021670	3.40480304
-0.94921845	-0.33882007	3.40480661
-0.94888401	-0.33804947	3.40480876
-0.94843519	-0.33735001	3.40481114
-0.94785237	-0.33691636	3.40481329
-0.94770336	-0.33631724	3.40481496
-0.94745088	-0.33571094	3.40481663
-0.94709706	-0.33513504	3.40481853
-0.94494748	-0.33463225	3.40482402
-0.94359440	-0.33355573	3.40482903
-0.94335264	-0.33287084	3.40483093
-0.94232106	-0.33173776	3.40483546
-0.94204712	-0.33085454	3.40483785
-0.94102192	-0.32913339	3.40484357
-0.94000971	-0.32780546	3.40484834
-0.93927163	-0.32736093	3.40485072
-0.93858331	-0.32644838	3.40485406
-0.93842995	-0.32490581	3.40485764
-0.93828118	-0.32387289	3.40486026
-0.93798536	-0.32314640	3.40486240
-0.93782568	-0.32219201	3.40486455
-0.93674457	-0.32152706	3.40486813
-0.93666899	-0.32077470	3.40487003
-0.93652022	-0.32017571	3.40487146
-0.93571162	-0.31975624	3.40487409
-0.93559682	-0.31869185	3.40487647
-0.93403476	-0.31826442	3.40488052
-0.93384886	-0.31739116	3.40488291
-0.93346250	-0.31661677	3.40488529
-0.93254125	-0.31603855	3.40488839
-0.93237472	-0.31497043	3.40489078
-0.93147731	-0.31470704	3.40489316
-0.93127453	-0.31363261	3.40489602
-0.93085575	-0.31309366	3.40489793
-0.92957187	-0.31292364	3.40490079
-0.92907751	-0.31163239	3.40490460
-0.92871678	-0.31094292	3.40490675
-0.92784095	-0.31095636	3.40490842
-0.92662382	-0.31008568	3.40491271
-0.92645335	-0.30920976	3.40491509
-0.92458212	-0.30809647	3.40492105
-0.92435992	-0.30721685	3.40492344
-0.92326349	-0.30568674	3.40492892
-0.92262900	-0.30524957	3.40493107
-0.92220378	-0.30329543	3.40493608
-0.92087877	-0.30347714	3.40493846
-0.92015803	-0.30236614	3.40494227
-0.91897327	-0.30169386	3.40494609
-0.91858029	-0.29993805	3.40495038
-0.91768694	-0.29948255	3.40495324
-0.74499506	-0.30994940	3.40528202
-0.74352521	-0.31047541	3.40528393
-0.74290800	-0.31137496	3.40528321
-0.74278718	-0.31203419	3.40528226
-0.74078226	-0.31319022	3.40528369
-0.74019742	-0.31428820	3.40528274
-0.73882270	-0.31493798	3.40528417
-0.73856807	-0.31786644	3.40527844
-0.73748887	-0.31967640	3.40527678
-0.73677242	-0.32151210	3.40527439
-0.73474801	-0.32286292	3.40527582
-0.73310351	-0.32557613	3.40527344
-0.73173106	-0.32669765	3.40527368
-0.72921038	-0.32828885	3.40527558
-0.72805786	-0.32981819	3.40527463
-0.72753131	-0.33033177	3.40527463
-0.72686219	-0.33122766	3.40527415
-0.72649753	-0.33273351	3.40527177
-0.72370708	-0.33438486	3.40527391
-0.72149503	-0.33552629	3.40527606
-0.72036409	-0.33733255	3.40527463
-0.71815205	-0.33847392	3.40527654
-0.71688092	-0.34113437	3.40527368
-0.71348834	-0.34254688	3.40527749
-0.71242440	-0.34321874	3.40527821
-0.71156764	-0.34390509	3.40527868
-0.71035039	-0.34503752	3.40527868
-0.70954323	-0.34525591	3.40527987
-0.70842761	-0.34592402	3.40528083
-0.70723641	-0.34583980	3.40528321
-0.70671397	-0.34729677	3.40528131
-0.70596075	-0.34799051	3.40528131
-0.70434642	-0.34842712	3.40528369
-0.70338607	-0.34910625	3.40528417
-0.70268476	-0.34980363	3.40528417
-0.70167041	-0.35201061	3.40528154
-0.70023310	-0.35273522	3.40528297
-0.69918633	-0.35274041	3.40528512
-0.69742119	-0.35410959	3.40528584
-0.69560385	-0.35547501	3.40528679
-0.69201916	-0.35773790	3.40528917
-0.68999702	-0.35956049	3.40528941
-0.68990856	-0.36041814	3.40528798
-0.68778497	-0.36070186	3.40529156
-0.68648148	-0.36116052	3.40529323
-0.68563986	-0.36271191	3.40529180
-0.68536788	-0.36430359	3.40528893
-0.67775190	-0.36459506	3.40530372
-0.67744547	-0.36551660	3.40530252
-0.67574704	-0.36575115	3.40530539
-0.67426872	-0.36639357	3.40530705
-0.67358673	-0.36689615	3.40530729
-0.67255723	-0.36823809	3.40530658
-0.67182136	-0.36826533	3.40530801
-0.67044878	-0.36938679	3.40530849
-0.66804886	-0.37031871	3.40531158
-0.66729355	-0.37054080	3.40531254
-0.66607428	-0.37120152	3.40531373
-0.66552818	-0.37190986	3.40531325
-0.66381258	-0.37281096	3.40531492
-0.66225213	-0.37372297	3.40531611
-0.66144502	-0.37394136	3.40531731
-0.65918112	-0.37507904	3.40531945
-0.65707481	-0.37669951	3.40532041
-0.65647274	-0.37846404	3.40531778
-0.65493178	-0.37918127	3.40531945
-0.65295929	-0.38053578	3.40532064
-0.65230751	-0.38076508	3.40532160
-0.65196443	-0.38254797	3.40531850
-0.64664888	-0.38284361	3.40532851
-0.64225721	-0.38332152	3.40533662
-0.64081764	-0.38357443	3.40533900
-0.63781571	-0.38426757	3.40534353
-0.63349730	-0.38702941	3.40534663
-0.63264048	-0.38971907	3.40534258
-0.62193835	-0.39050156	3.40536261
-0.61981261	-0.39231682	3.40536332
-0.61717314	-0.39303559	3.40536714
-0.61566246	-0.39347959	3.40536928
-0.61490929	-0.39417338	3.40536928
-0.61029315	-0.39530325	3.40537620
-0.60814798	-0.39731324	3.40537643
-0.60333103	-0.39784038	3.40538502
-0.60299206	-0.39856333	3.40538430
-0.60144907	-0.39880884	3.40538692
-0.60079730	-0.39903820	3.40538764
-0.59993839	-0.39925295	3.40538907
-0.59834564	-0.39996642	3.40539074
-0.57290792	-0.40509814	3.40543151
-0.56819457	-0.40763587	3.40543580
-0.54200143	-0.40697971	3.40549040
-0.53678948	-0.40728268	3.40550041
-0.44803223	-0.38594645	3.40572548
-0.44379804	-0.38490373	3.40573621
-0.41158569	-0.37318316	3.40582633
-0.33596379	-0.29163593	3.40615129
-0.32792038	-0.28148836	3.40618896
-0.32325670	-0.27554491	3.40621114
-0.26596487	-0.18790694	3.40651155
-0.17793216	-0.04215088	3.40699673
-0.17016506	-0.02935189	3.40703940
-0.16830692	-0.02662869	3.40704894
-0.16735089	-0.02624793	3.40705156
-0.16566971	-0.02581595	3.40705609
-0.16289218	-0.02185060	3.40706992
-0.16167507	-0.02097993	3.40707421
-0.16095431	-0.01986879	3.40707803
-0.15925784	-0.01857179	3.40708423
-0.15851977	-0.01812716	3.40708661
-0.15086927	-0.00773209	3.40712404
-0.14697608	-0.00243163	3.40714312
-0.14620344	-0.00131692	3.40714693
-0.14298345	0.00193267	3.40716052
-0.09187472	0.09463772	3.40745902
-0.08990222	0.09929310	3.40747285
-0.08749625	0.11222984	3.40750504
-0.08660918	0.11928327	3.40752149
-0.08481351	0.13567038	3.40755963
-0.08442077	0.13942932	3.40756845
-0.08500376	0.17391922	3.40763974
-0.08645195	0.18874522	3.40766788
-0.08967838	0.20611645	3.40769792
-0.09549695	0.22413443	3.40772390
-0.09979391	0.23718958	3.40774250
-0.10373458	0.24685203	3.40775490
-0.12809569	0.30222094	3.40782189
-0.16001216	0.37336111	3.40790653
-0.17874503	0.40932924	3.40794396
-0.20124990	0.44648308	3.40797639
-0.20507410	0.45053613	3.40797710
-0.20729920	0.45328748	3.40797830
-0.20989764	0.45609176	3.40797901
-0.21058819	0.45671067	3.40797901
-0.21224561	0.45903069	3.40798044
-0.22653466	0.47963375	3.40799475
-0.22857615	0.48165122	3.40799475
-0.22944590	0.48194432	3.40799356
-0.23079696	0.48334274	3.40799379
-0.23242640	0.48491767	3.40799379
-0.23366088	0.48671663	3.40799522
-0.23431259	0.48694599	3.40799427
-0.23619878	0.48897433	3.40799475
-0.23955899	0.49258870	3.40799546
-0.24268395	0.49547261	3.40799522
-0.24365723	0.49575844	3.40799379
-0.24499527	0.49755013	3.40799475
-0.24569672	0.49824753	3.40799499
-0.24727434	0.49982613	3.40799499
-0.24850881	0.50162518	3.40799618
-0.24921438	0.50137913	3.40799427
-0.25026327	0.50091255	3.40799117
-0.25243866	0.50319588	3.40799165
-0.25410685	0.50516045	3.40799236
-0.25597155	0.50746572	3.40799332
-0.25688231	0.50767672	3.40799189
-0.25775847	0.50855780	3.40799212
-0.25871885	0.50923693	3.40799165
-0.25947198	0.50993073	3.40799141
-0.26012588	0.50968832	3.40798974
-0.26222581	0.51272404	3.40799165
-0.26308692	0.51246691	3.40798950
-0.26450694	0.51452827	3.40799093
-0.26510695	0.51476121	3.40799022
-0.26578015	0.51471364	3.40798879
-0.26718098	0.51658010	3.40798974
-0.26906714	0.51860845	3.40799022
-0.27043959	0.51972997	3.40798974
-0.27403939	0.52313119	3.40798974
-0.27534294	0.52358985	3.40798783
-0.27671775	0.52423948	3.40798664
-0.27741909	0.52493697	3.40798664
-0.27803633	0.52583641	3.40798712
-0.27934185	0.52582341	3.40798450
-0.28066048	0.52742034	3.40798521
-0.28120661	0.52812868	3.40798569
-0.28311002	0.52882034	3.40798306
-0.28609475	0.53085017	3.40798140
-0.28791186	0.53221577	3.40798044
-0.28880322	0.53223181	3.40797877
-0.28956068	0.53198218	3.40797663
-0.29098293	0.53357172	3.40797710
-0.29207927	0.53404498	3.40797591
-0.29339996	0.53517020	3.40797567
-0.29410133	0.53586763	3.40797567
-0.29500997	0.53655034	3.40797520
-0.29662213	0.53745878	3.40797377
-0.29761913	0.53699589	3.40797091
-0.29868093	0.53813940	3.40797114
-0.30008584	0.53906238	3.40797019
-0.30200660	0.54042065	3.40796924
-0.39164248	0.68820298	3.40809774
-0.39265904	0.68993807	3.40809917
-0.39220801	0.69110936	3.40810275
-0.39249268	0.69387722	3.40810800
-0.39284241	0.69467878	3.40810895
-0.39301506	0.69533426	3.40810990
-0.39243245	0.69576776	3.40811205
-0.39268699	0.69669300	3.40811348
-0.39286608	0.69793653	3.40811563
-0.39357838	0.70071578	3.40812016
-0.39359552	0.70138234	3.40812135
-0.39237842	0.70225310	3.40812564
-0.39399049	0.70516479	3.40812850
-0.39376828	0.70604444	3.40813088
-0.39474377	0.70786178	3.40813279
-0.39537826	0.70942783	3.40813470
-0.39644429	0.71163118	3.40813708
-0.39795497	0.71407837	3.40813923
-0.39735088	0.71478879	3.40814209
-0.39820763	0.71747851	3.40814590
-0.39885926	0.71971118	3.40814924
-0.39990813	0.72325110	3.40815449
-0.40028369	0.72483552	3.40815711
-0.40030089	0.72550213	3.40815854
-0.40086642	0.72640520	3.40815926
-0.40136278	0.72864884	3.40816307
-0.40186134	0.73042059	3.40816569
-0.40355545	0.73360193	3.40816903
-0.40388125	0.73471838	3.40817070
-0.40477255	0.73673779	3.40817308
-0.40659836	0.74022281	3.40817666
-0.40866581	0.74345702	3.40817928
-0.41010749	0.74724466	3.40818429
-0.41144338	0.74950814	3.40818644
-0.41170019	0.75196475	3.40819097
-0.41648254	0.75917196	3.40819645
-0.42767888	0.77468944	3.40820622
-0.44671366	0.79763186	3.40821576
-0.45598716	0.80625308	3.40821505
-0.46991149	0.81733716	3.40821004
-0.47354582	0.82006812	3.40820837
-0.48292506	0.82620704	3.40820241
-0.48705781	0.82870662	3.40819907
-0.50170064	0.83714819	3.40818715
-0.51330930	0.84309161	3.40817618
-0.51430422	0.84310055	3.40817404
-0.51831603	0.84494090	3.40816975
-0.52167845	0.84608018	3.40816545
-0.52397466	0.84701943	3.40816259
-0.52809036	0.84885240	3.40815806
-0.52939385	0.84931105	3.40815639
-0.53193176	0.84956545	3.40815187
-0.53844714	0.85233045	3.40814447
-0.53906870	0.85228646	3.40814304
-0.54407334	0.85460740	3.40813780
-0.69582438	0.92788661	3.40798354
-0.69793284	0.92903543	3.40798163
-0.69909823	0.93017161	3.40798163
-0.70398635	0.93289316	3.40797758
-0.70851409	0.93516856	3.40797305
-0.74899638	0.95354611	3.40792942
-0.78466582	0.96844983	3.40788841
-0.78787279	0.96960014	3.40788436
-0.79126751	0.97054100	3.40787935
-0.80652559	0.97434390	3.40785646
-0.81091523	0.97529352	3.40784955
-0.83372217	0.97781938	3.40780830
-0.85694128	0.97878450	3.40776324
-0.86095321	0.97862154	3.40775490
-0.87318933	0.97779775	3.40772820
-0.87768036	0.97720861	3.40771794
-0.89913201	0.97370368	3.40766692
-0.90937245	0.97157234	3.40764165
-0.91892219	0.96882212	3.40761638
-0.95159179	0.95451504	3.40752006
-0.96496773	0.94733316	3.40747786
-1.00269413	0.92132044	3.40734649
