//X	Y	Z
-0.74679732	0.70511973	2.54377484
-0.82130498	0.64207417	2.54340243
-0.85752821	0.60698760	2.54321122
-0.96047902	0.50369632	2.54266047
-0.97530723	0.48573875	2.54257417
-0.97809726	0.48224872	2.54255772
-1.02639771	0.41262990	2.54225206
-1.02883828	0.40779108	2.54223371
-1.12350059	0.26391232	2.54161787
-1.12430120	0.26289552	2.54161310
-1.12477767	0.26223028	2.54161000
-1.12795210	0.25871307	2.54159236
-1.13015032	0.25666332	2.54158092
-1.13130426	0.25658262	2.54157710
-1.13344228	0.25420842	2.54156518
-1.14099455	0.24222863	2.54151487
-1.14977336	0.22516650	2.54144955
-1.15264249	0.21401197	2.54141569
-1.15282226	0.21314833	2.54141307
-1.15318179	0.21142119	2.54140830
-1.15590894	0.19750452	2.54136848
-1.15696192	0.19062272	2.54134989
-1.15675926	0.17518398	2.54131603
-1.15664220	0.17412198	2.54131413
-1.15614700	0.17042413	2.54130721
-1.15179801	0.16782185	2.54131508
-1.14922190	0.16723567	2.54132175
-1.14694154	0.16684765	2.54132795
-1.14572752	0.16660416	2.54133105
-1.14436519	0.16626149	2.54133463
-1.14152455	0.16635108	2.54134369
-1.13986802	0.16356006	2.54134250
-1.13975096	0.16249809	2.54134059
-1.13628817	0.16090378	2.54134774
-1.13551927	0.16095781	2.54135013
-1.13439918	0.15782601	2.54134679
-1.13188910	0.15490121	2.54134798
-1.12552166	0.15348509	2.54136467
-1.12425363	0.15025410	2.54136133
-1.12123585	0.14895734	2.54136777
-1.11978531	0.14883995	2.54137206
-1.11821449	0.14807367	2.54137516
-1.11691213	0.14805537	2.54137921
-1.11466384	0.14670470	2.54138327
-1.11425030	0.14544445	2.54138160
-1.11149740	0.14530876	2.54138994
-1.11091030	0.14224911	2.54138494
-1.10744798	0.14065495	2.54139209
-1.10665596	0.13675866	2.54138589
-1.10488987	0.13207972	2.54138088
-1.10407269	0.12648317	2.54137087
-1.10369074	0.12426019	2.54136705
-1.10280454	0.12325224	2.54136753
-1.10263109	0.12145281	2.54136395
-1.10085881	0.11943686	2.54136515
-1.09985602	0.11736703	2.54136348
-1.09822798	0.11586314	2.54136515
-1.09672117	0.11500826	2.54136801
-1.09666705	0.11202085	2.54136157
-1.09281993	0.11045367	2.54136992
-1.09241271	0.10653043	2.54136252
-1.09067559	0.10313866	2.54136038
-1.08895612	0.10227317	2.54136372
-1.08735728	0.10205659	2.54136825
-1.08588147	0.10023889	2.54136872
-1.08304334	0.09807852	2.54137278
-1.08159971	0.09529823	2.54137087
-1.07837284	0.09357774	2.54137707
-1.07763135	0.09308195	2.54137826
-1.07565057	0.09064236	2.54137897
-1.07112193	0.08890373	2.54138923
-1.06929553	0.08390036	2.54138374
-1.06971765	0.08024758	2.54137421
-1.06759214	0.07729584	2.54137421
-1.06667709	0.07500067	2.54137182
-1.06493020	0.07468492	2.54137659
-1.06342340	0.07383010	2.54137945
-1.06307244	0.07064429	2.54137325
-1.06328976	0.06615496	2.54136276
-1.06422615	0.05821130	2.54134202
-1.06186426	0.05538565	2.54134297
-1.06256056	0.04798108	2.54132438
-1.06292617	0.04359087	2.54131341
-1.06278419	0.04082876	2.54130769
-1.06335449	0.03727514	2.54129791
-1.06291962	0.03390172	2.54129171
-1.06265426	0.03274056	2.54128981
-1.06251216	0.02997851	2.54128408
-1.06365371	0.02287146	2.54126477
-1.06381166	0.01989454	2.54125762
-1.06281090	0.01557466	2.54125094
-1.06302989	0.01292238	2.54124451
-1.06350505	0.01042020	2.54123735
-1.06334281	0.00738177	2.54123116
-1.06376529	0.00372910	2.54122162
-1.06305742	0.00002050	2.54121542
-1.06317270	-0.00075459	2.54121327
-1.06318045	-0.00158057	2.54121161
-1.06354606	-0.00597072	2.54120064
-1.06400347	-0.01099911	2.54118800
-1.06380272	-0.01224869	2.54118562
-1.06380486	-0.01449877	2.54118061
-1.06325078	-0.01668414	2.54117751
-1.06292152	-0.01775670	2.54117608
-1.10764194	-0.18467057	2.54066396
-1.10977995	-0.18704480	2.54065204
-1.11055923	-0.19017468	2.54064250
-1.11293364	-0.19267496	2.54062963
-1.11510038	-0.19376196	2.54062057
-1.11529517	-0.20220144	2.54060102
-1.11577153	-0.20286682	2.54059792
-1.11530757	-0.20752737	2.54058909
-1.11349368	-0.21785679	2.54057145
-1.08371484	-0.32255101	2.54043007
-1.07828379	-0.33191076	2.54042602
-1.07586193	-0.33506075	2.54042649
-1.00576568	-0.40303361	2.54049230
-0.92131752	-0.47841847	2.54058599
-0.91528463	-0.48326188	2.54059386
-0.90750432	-0.48842114	2.54060650
-0.83945632	-0.53158867	2.54072142
-0.83063555	-0.53519201	2.54074073
-0.79510385	-0.54415357	2.54083109
-0.77825034	-0.54705119	2.54087710
-0.74451572	-0.55229652	2.54097009
-0.66603816	-0.55506468	2.54120779
-0.65534437	-0.55513281	2.54124093
-0.65152252	-0.55499983	2.54125309
-0.64953512	-0.55477655	2.54125977
-0.64876616	-0.55472243	2.54126215
-0.64790893	-0.55444330	2.54126549
-0.63009638	-0.55334735	2.54132318
-0.62870264	-0.55272722	2.54132891
-0.62348664	-0.55197418	2.54134679
-0.61957252	-0.55120307	2.54136086
-0.61880362	-0.55114913	2.54136324
-0.61711299	-0.55072737	2.54136944
-0.61572284	-0.55052030	2.54137421
-0.61234212	-0.54967690	2.54138660
-0.61148483	-0.54939759	2.54138994
-0.61056364	-0.54902983	2.54139352
-0.60887301	-0.54860818	2.54139972
-0.60801578	-0.54832900	2.54140306
-0.60747921	-0.54798806	2.54140544
-0.60706699	-0.54741132	2.54140806
-0.60591334	-0.54733038	2.54141188
-0.60531247	-0.54690111	2.54141474
-0.60454315	-0.54684722	2.54141712
-0.60125387	-0.54664212	2.54142785
-0.59977221	-0.54579675	2.54143429
-0.59891486	-0.54551756	2.54143763
-0.59716046	-0.54500723	2.54144430
-0.59696078	-0.54441977	2.54144621
-0.59334707	-0.54386330	2.54145861
-0.59281063	-0.54352248	2.54146099
-0.59105551	-0.54301226	2.54146767
-0.59004653	-0.54241914	2.54147220
-0.58927357	-0.54195225	2.54147553
-0.58850420	-0.54189837	2.54147816
-0.58709061	-0.54155445	2.54148316
-0.58516395	-0.54100651	2.54149055
-0.58421481	-0.54008913	2.54149556
-0.58139443	-0.53972316	2.54150510
-0.58053720	-0.53944409	2.54150844
-0.57985198	-0.53920245	2.54151106
-0.57861048	-0.53889608	2.54151559
-0.57668388	-0.53834820	2.54152274
-0.57599872	-0.53810662	2.54152536
-0.57522929	-0.53805280	2.54152799
-0.57437253	-0.53777337	2.54153132
-0.57300627	-0.53770310	2.54153562
-0.57223690	-0.53764927	2.54153824
-0.57001328	-0.53729975	2.54154587
-0.56767452	-0.53617507	2.54155564
-0.56529915	-0.53551173	2.54156446
-0.56322801	-0.53547603	2.54157090
-0.55887282	-0.53541529	2.54158473
-0.55718625	-0.53540659	2.54158998
-0.55442977	-0.53512931	2.54159904
-0.55273914	-0.53470755	2.54160523
-0.55096072	-0.53406054	2.54161215
-0.55019176	-0.53400654	2.54161477
-0.54942238	-0.53395265	2.54161739
-0.54854482	-0.53344548	2.54162121
-0.53459954	-0.53335118	2.54166460
-0.36586863	-0.53694397	2.54218078
-0.36441803	-0.53706139	2.54218507
-0.36018223	-0.53818882	2.54219580
-0.35926512	-0.53823400	2.54219842
-0.35730916	-0.53897339	2.54220295
-0.35639149	-0.53901863	2.54220557
-0.35242099	-0.53898489	2.54221821
-0.34729695	-0.53887022	2.54223418
-0.34080657	-0.53868502	2.54225492
-0.32720819	-0.53857517	2.54229736
-0.31988585	-0.53641069	2.54232502
-0.31875747	-0.53462940	2.54233241
-0.31650245	-0.53331733	2.54234242
-0.31641054	-0.53267908	2.54234409
-0.31468886	-0.53129447	2.54235244
-0.15727633	-0.46645892	2.54298663
-0.14311616	-0.46128017	2.54304218
-0.14223006	-0.46228814	2.54304266
-0.13846062	-0.46100485	2.54305720
-0.13544060	-0.46005157	2.54306865
-0.13250445	-0.45891064	2.54308033
-0.13079025	-0.45835215	2.54308701
-0.10670388	-0.44512138	2.54319143
-0.03057448	-0.39501184	2.54354000
-0.00200222	-0.36694124	2.54369164
0.05424090	-0.29215971	2.54403353
0.06232606	-0.28025210	2.54408526
0.12126261	-0.15697268	2.54454398
0.12605110	-0.14609627	2.54458332
0.14071235	-0.10774134	2.54471469
0.14226702	-0.10189451	2.54473257
0.15978870	0.03375793	2.54509020
0.16064183	0.04597631	2.54512024
0.16113925	0.05688050	2.54514623
0.16120842	0.06146902	2.54515672
0.16311190	0.22236650	2.54552245
0.16306397	0.22801688	2.54553485
0.16292173	0.23077904	2.54554057
0.16216123	0.23563810	2.54554915
0.14962295	0.29856819	2.54565096
0.14803889	0.30636075	2.54566336
0.13098478	0.36400333	2.54573917
0.12762848	0.37381190	2.54575086
0.12167692	0.38856983	2.54576516
0.11926091	0.39438292	2.54577088
0.11233175	0.40951043	2.54578304
0.09902817	0.43574339	2.54580045
0.09598780	0.44099033	2.54580259
0.09300783	0.44591281	2.54580450
0.06793767	0.48388419	2.54581141
0.03877091	0.51797092	2.54579711
0.01713604	0.54144627	2.54578233
-0.04163766	0.59797800	2.54572606
-0.04492074	0.60043591	2.54572153
-0.05628055	0.60825127	2.54570365
-0.19935191	0.70117521	2.54546690
-0.21793365	0.71237743	2.54543424
-0.23048478	0.71648616	2.54540443
-0.31007430	0.73965126	2.54520893
-0.40639657	0.76506495	2.54496646
-0.40775883	0.76540774	2.54496312
-0.44059291	0.76721001	2.54486513
-0.57593471	0.76139534	2.54443145
-0.58636671	0.75988936	2.54439569
-0.67181861	0.74555045	2.54409814
-0.67582065	0.74455392	2.54408360
-0.68059510	0.74309027	2.54406548
