//X	Y	Z
-0.08328867	-0.03335889	4.07982874
-0.08729889	-0.02608493	4.07981730
-0.08899734	-0.02386472	4.07981348
-0.10031277	-0.01048586	4.07979012
-0.10954193	-0.00325836	4.07977533
-0.11107610	-0.00276508	4.07977390
-0.11191840	-0.00231850	4.07977295
-0.11364505	-0.00127929	4.07977057
-0.11423133	-0.00153996	4.07977057
-0.11643139	0.00009631	4.07976723
-0.11692864	0.00015277	4.07976675
-0.11790080	0.00054394	4.07976580
-0.11842094	0.00049996	4.07976580
-0.11915428	0.00083947	4.07976484
-0.12023444	0.00130666	4.07976389
-0.12116776	0.00102699	4.07976341
-0.12173248	0.00075109	4.07976341
-0.12266128	0.00125849	4.07976246
-0.12322445	0.00124497	4.07976198
-0.12378833	0.00093803	4.07976198
-0.12465133	0.00136872	4.07976103
-0.12553921	0.00161446	4.07976055
-0.12625138	0.00179202	4.07975960
-0.12686098	0.00128411	4.07976007
-0.12796263	0.00176660	4.07975864
-0.12835565	0.00139998	4.07975912
-0.12915416	0.00163841	4.07975817
-0.12960938	0.00154877	4.07975817
-0.13078034	0.00143640	4.07975769
-0.13210066	0.00169294	4.07975674
-0.13270515	0.00164777	4.07975626
-0.13328907	0.00161842	4.07975626
-0.13385040	0.00201393	4.07975531
-0.13447711	0.00216170	4.07975483
-0.13491246	0.00179449	4.07975483
-0.13527943	0.00205307	4.07975435
-0.13605878	0.00204503	4.07975388
-0.13649440	0.00153107	4.07975435
-0.13688299	0.00180490	4.07975388
-0.27455264	0.10570827	4.07954359
-0.27495977	0.10652207	4.07954216
-0.27527896	0.10753733	4.07954073
-0.27559978	0.10829024	4.07953978
-0.27723908	0.10970876	4.07953691
-0.27760580	0.11011402	4.07953596
-0.27753666	0.11070888	4.07953548
-0.27712053	0.11132258	4.07953501
-0.27796143	0.11203150	4.07953358
-0.27843487	0.11262855	4.07953262
-0.27836701	0.11310764	4.07953167
-0.27884042	0.11370467	4.07953072
-0.27924603	0.11478083	4.07952929
-0.27986932	0.11560005	4.07952785
-0.27988714	0.11643344	4.07952690
-0.27968973	0.11682123	4.07952642
-0.27968633	0.11749274	4.07952547
-0.28009194	0.11856878	4.07952356
-0.28119022	0.11972266	4.07952166
-0.28123030	0.12027787	4.07952118
-0.28403056	0.12298052	4.07951593
-0.28676757	0.12537520	4.07951117
-0.28786448	0.12679133	4.07950878
-0.28866076	0.12758559	4.07950735
-0.28975898	0.12873946	4.07950544
-0.29277378	0.13185655	4.07949972
-0.29402187	0.13323255	4.07949734
-0.29656279	0.13589938	4.07949209
-0.29733539	0.13723412	4.07949018
-0.30319035	0.14360917	4.07947874
-0.31355119	0.14972895	4.07946491
-0.32801133	0.15463321	4.07945061
-0.33805653	0.15490682	4.07944489
-0.35328284	0.15496524	4.07943630
-0.37303239	0.15032250	4.07943153
-0.38248694	0.14780882	4.07942963
-0.43111968	0.13044818	4.07942533
-0.43430996	0.12900284	4.07942581
-0.43633264	0.12729162	4.07942677
-0.43728971	0.12647137	4.07942724
-0.43675783	0.12463261	4.07943010
-0.43799719	0.12374777	4.07943058
-0.43846083	0.12205288	4.07943249
-0.43985334	0.12071876	4.07943344
-0.43913561	0.11728442	4.07943821
-0.43910223	0.11538634	4.07944059
-0.44197011	0.11359711	4.07944155
-0.44277412	0.11307946	4.07944155
-0.44379956	0.11163336	4.07944298
-0.44573873	0.11075011	4.07944298
-0.44758949	0.10880174	4.07944441
-0.45078009	0.10735625	4.07944489
-0.45077142	0.10494870	4.07944775
-0.45171046	0.10344175	4.07944918
-0.45092076	0.09989136	4.07945442
-0.45409614	0.09864789	4.07945395
-0.45413953	0.09726492	4.07945585
-0.45570800	0.09646998	4.07945633
-0.45581320	0.09598178	4.07945681
-0.45651361	0.09568995	4.07945681
-0.45664093	0.09492368	4.07945776
-0.45705420	0.09468791	4.07945776
-0.45768395	0.09431092	4.07945776
-0.45751423	0.09381115	4.07945871
-0.45843107	0.09337811	4.07945871
-0.45961982	0.09268568	4.07945871
-0.46051368	0.09155743	4.07945967
-0.46103549	0.09110440	4.07946014
-0.46101707	0.09056450	4.07946062
-0.46164778	0.09021848	4.07946110
-0.46203992	0.08982085	4.07946110
-0.46223691	0.08910868	4.07946205
-0.46265119	0.08890399	4.07946205
-0.46291393	0.08826846	4.07946301
-0.46326250	0.08798707	4.07946301
-0.46402836	0.08650513	4.07946444
-0.46418089	0.08602481	4.07946491
-0.46470481	0.08548716	4.07946539
-0.46529281	0.08496402	4.07946587
-0.46551222	0.08444467	4.07946634
-0.46531901	0.08372101	4.07946730
-0.46564847	0.08319308	4.07946777
-0.46604040	0.08279559	4.07946825
-0.46619603	0.08226156	4.07946873
-0.46667463	0.08177811	4.07946920
-0.46657076	0.08120829	4.07947016
-0.46702412	0.08105668	4.07946968
-0.46745905	0.08083624	4.07947016
-0.46759319	0.08014037	4.07947063
-0.46811643	0.07957160	4.07947111
-0.46844253	0.07909739	4.07947159
-0.46883464	0.07869974	4.07947206
-0.46903247	0.07816516	4.07947254
-0.46910033	0.07768607	4.07947302
-0.46970963	0.07717824	4.07947350
-0.47034022	0.07650787	4.07947397
-0.47030118	0.07598366	4.07947445
-0.47073558	0.07543883	4.07947493
-0.47095758	0.07468808	4.07947588
-0.47130522	0.07422909	4.07947636
-0.47189209	0.07382160	4.07947683
-0.47174403	0.07319039	4.07947731
-0.47224426	0.07272218	4.07947779
-0.47261482	0.07230933	4.07947826
-0.47255486	0.07180104	4.07947874
-0.47303021	0.07151785	4.07947922
-0.47334039	0.07074347	4.07947969
-0.47334176	0.07015660	4.07948065
-0.47341067	0.06970853	4.07948112
-0.47406313	0.06923115	4.07948160
-0.47423738	0.06861937	4.07948208
-0.47458994	0.06784427	4.07948303
-0.47452557	0.06718077	4.07948399
-0.47474653	0.06639907	4.07948446
-0.47488204	0.06591207	4.07948542
-0.47490668	0.06540254	4.07948589
-0.47579283	0.06511508	4.07948589
-0.47582051	0.06422743	4.07948685
-0.47634271	0.06362766	4.07948732
-0.47630438	0.06313461	4.07948828
-0.47650173	0.06274676	4.07948828
-0.47723675	0.06235275	4.07948875
-0.47717503	0.06178236	4.07948923
-0.47735071	0.06105483	4.07949018
-0.47726846	0.06050031	4.07949114
-0.47768071	0.06023356	4.07949114
-0.47789872	0.05982994	4.07949162
-0.47811890	0.05934171	4.07949209
-0.47809824	0.05888638	4.07949257
-0.47834298	0.05850637	4.07949305
-0.47847301	0.05783315	4.07949352
-0.47837186	0.05735649	4.07949448
-0.47878039	0.05711232	4.07949448
-0.47874025	0.05655709	4.07949543
-0.47920141	0.05603583	4.07949591
-0.47954512	0.05574599	4.07949591
-0.47982904	0.05527243	4.07949638
-0.47981092	0.05458567	4.07949734
-0.47997057	0.05388263	4.07949829
-0.48018470	0.05350146	4.07949829
-0.48077792	0.05284007	4.07949877
-0.48117024	0.05229577	4.07949924
-0.48189142	0.05104581	4.07950068
-0.48232645	0.05067873	4.07950115
-0.48254585	0.05015939	4.07950163
-0.48304594	0.04983777	4.07950163
-0.48376554	0.04885016	4.07950258
-0.48424575	0.04810438	4.07950306
-0.48498657	0.04727876	4.07950401
-0.48548675	0.04681054	4.07950401
-0.48551148	0.04630104	4.07950497
-0.48512903	0.04497769	4.07950687
-0.48498449	0.04414611	4.07950783
-0.48662993	0.04357290	4.07950783
-0.48782459	0.04291996	4.07950783
-0.48852065	0.04232629	4.07950830
-0.48810053	0.03989199	4.07951164
-0.48868668	0.03963137	4.07951164
-0.48955745	0.03875025	4.07951260
-0.49042666	0.03813154	4.07951260
-0.48985296	0.03614655	4.07951546
-0.49026838	0.03535512	4.07951641
-0.49031705	0.03430495	4.07951784
-0.49012849	0.03326535	4.07951927
-0.49138647	0.03277382	4.07951927
-0.49184844	0.03148793	4.07952070
-0.49195963	0.03089264	4.07952118
-0.49176729	0.03034659	4.07952213
-0.49248481	0.02991474	4.07952213
-0.49298501	0.02944650	4.07952261
-0.49294594	0.02892233	4.07952309
-0.49307871	0.02834226	4.07952404
-0.49336174	0.02798416	4.07952452
-0.49410257	0.02715851	4.07952499
-0.49451908	0.02625148	4.07952595
-0.49480218	0.02589338	4.07952642
-0.49523717	0.02552623	4.07952642
-0.49556455	0.02508298	4.07952690
-0.49546126	0.02421981	4.07952785
-0.49595991	0.02401397	4.07952785
-0.49602821	0.02338809	4.07952881
-0.49672323	0.02276336	4.07952929
-0.49711540	0.02236572	4.07952976
-0.49725071	0.02155431	4.07953072
-0.49740323	0.02107394	4.07953119
-0.49792492	0.02076755	4.07953119
-0.49782062	0.01987338	4.07953262
-0.49825275	0.01955971	4.07953262
-0.49890685	0.01929110	4.07953262
-0.49901786	0.01884243	4.07953310
-0.49901456	0.01810050	4.07953405
-0.49934462	0.01775029	4.07953453
-0.49960995	0.01735444	4.07953453
-0.49995592	0.01683338	4.07953501
-0.50015640	0.01639193	4.07953548
-0.50074291	0.01613121	4.07953548
-0.50076342	0.01564428	4.07953644
-0.50115824	0.01533972	4.07953644
-0.50143838	0.01488867	4.07953691
-0.50155252	0.01438634	4.07953739
-0.50208855	0.01417139	4.07953739
-0.50252652	0.01389728	4.07953739
-0.50337118	0.01317035	4.07953787
-0.50340039	0.01249146	4.07953882
-0.50368690	0.01178652	4.07953978
-0.50410062	0.01140404	4.07953978
-0.50533366	0.01062642	4.07954025
-0.50557619	0.00985993	4.07954121
-0.50644666	0.00897892	4.07954168
-0.50692868	0.00797063	4.07954264
-0.50777787	0.00707433	4.07954359
-0.50780261	0.00656480	4.07954407
-0.50867182	0.00594608	4.07954454
-0.50874329	0.00511998	4.07954550
-0.50879031	0.00465675	4.07954597
-0.50909567	0.00434501	4.07954645
-0.51009226	0.00390220	4.07954645
-0.51048088	0.00370486	4.07954645
-0.51061565	0.00318685	4.07954693
-0.51146150	0.00249073	4.07954741
-0.51202965	0.00201450	4.07954788
-0.51207596	0.00152022	4.07954836
-0.51327074	0.00072068	4.07954884
-0.51344812	0.00005528	4.07954931
-0.51392543	-0.00016588	4.07954979
-0.51371372	-0.00095838	4.07955074
-0.51455867	-0.00121436	4.07955074
-0.51553541	-0.00161028	4.07955074
-0.51558173	-0.00210457	4.07955122
-0.51623309	-0.00246634	4.07955122
-0.51610821	-0.00334467	4.07955265
-0.51688945	-0.00376192	4.07955265
-0.51730478	-0.00440672	4.07955313
-0.51782817	-0.00512211	4.07955408
-0.51776642	-0.00569253	4.07955456
-0.51846451	-0.00622417	4.07955503
-0.51915902	-0.00655547	4.07955503
-0.51935780	-0.00753018	4.07955599
-0.51977187	-0.00773473	4.07955599
-0.52033556	-0.00789511	4.07955599
-0.52066463	-0.00874737	4.07955694
-0.52170771	-0.00936003	4.07955742
-0.52229625	-0.01017652	4.07955790
-0.52340448	-0.01089029	4.07955837
-0.52466714	-0.01216896	4.07955933
-0.52503920	-0.01284419	4.07955980
-0.52595162	-0.01343249	4.07956028
-0.52669436	-0.01466723	4.07956123
-0.52706623	-0.01534235	4.07956219
-0.52767462	-0.01573464	4.07956219
-0.52772105	-0.01637556	4.07956314
-0.52832907	-0.01662111	4.07956314
-0.52911508	-0.01782544	4.07956409
-0.52992254	-0.01901451	4.07956505
-0.53109878	-0.02035400	4.07956648
-0.53138453	-0.02109013	4.07956696
-0.53171200	-0.02168004	4.07956791
-0.53182304	-0.02212873	4.07956839
-0.53221035	-0.02253488	4.07956839
-0.53234684	-0.02299085	4.07956886
-0.53344983	-0.02356637	4.07956934
-0.53386879	-0.02408706	4.07956982
-0.53400147	-0.02452053	4.07957029
-0.53443009	-0.02463375	4.07956982
-0.53488714	-0.02513240	4.07957029
-0.53526020	-0.02577662	4.07957125
-0.53556502	-0.02626614	4.07957172
-0.53630280	-0.02671365	4.07957172
-0.53660959	-0.02714114	4.07957220
-0.53715259	-0.02743226	4.07957220
-0.53750157	-0.02786033	4.07957268
-0.53778356	-0.02824943	4.07957268
-0.53813231	-0.02867737	4.07957315
-0.53869712	-0.02895334	4.07957315
-0.53874338	-0.02944769	4.07957411
-0.53922045	-0.02966875	4.07957411
-0.53954798	-0.03025870	4.07957458
-0.53985476	-0.03068617	4.07957506
-0.54048347	-0.03109412	4.07957506
-0.54106998	-0.03135489	4.07957506
-0.54113781	-0.03183399	4.07957554
-0.54168165	-0.03241852	4.07957602
-0.54181439	-0.03299861	4.07957697
-0.54227388	-0.03358200	4.07957745
-0.54311854	-0.03383784	4.07957745
-0.54342544	-0.03441195	4.07957792
-0.54394609	-0.03474934	4.07957792
-0.54412389	-0.03556149	4.07957888
-0.54456031	-0.03604436	4.07957935
-0.54469341	-0.03662457	4.07957983
-0.54484767	-0.03704284	4.07958031
-0.54558545	-0.03749032	4.07958078
-0.54580534	-0.03815643	4.07958126
-0.54619604	-0.03843834	4.07958174
-0.54648018	-0.03891206	4.07958174
-0.54687202	-0.03930964	4.07958221
-0.54681182	-0.03999576	4.07958317
-0.54774547	-0.04056874	4.07958364
-0.54766047	-0.04121645	4.07958412
-0.54820430	-0.04132988	4.07958412
-0.54846555	-0.04170306	4.07958460
-0.54892397	-0.04231744	4.07958508
-0.54957688	-0.04294154	4.07958555
-0.54999214	-0.04358637	4.07958603
-0.55010378	-0.04432842	4.07958698
-0.55064678	-0.04461947	4.07958698
-0.55056500	-0.04546742	4.07958841
-0.55048329	-0.04631542	4.07958937
-0.55193627	-0.04681687	4.07958937
-0.55226487	-0.04752244	4.07958984
-0.55222487	-0.04807758	4.07959080
-0.55285501	-0.04860130	4.07959127
-0.55331343	-0.04921567	4.07959175
-0.55349094	-0.05002771	4.07959270
-0.55343014	-0.05089158	4.07959366
-0.55421215	-0.05127768	4.07959366
-0.55460423	-0.05167532	4.07959414
-0.55495316	-0.05257453	4.07959509
-0.55512911	-0.05312419	4.07959557
-0.55517948	-0.05411220	4.07959700
-0.55583078	-0.05432734	4.07959700
-0.55613774	-0.05504812	4.07959747
-0.55924183	-0.05687888	4.07959843
-0.55839223	-0.05999537	4.07960272
-0.55839902	-0.06086709	4.07960415
-0.55905175	-0.06134453	4.07960415
-0.56031173	-0.06224519	4.07960463
-0.56008196	-0.06419550	4.07960749
-0.56030601	-0.06503087	4.07960844
-0.56050068	-0.06551181	4.07960892
-0.56094086	-0.06634164	4.07960939
-0.56126481	-0.06673123	4.07960987
-0.56144571	-0.06759697	4.07961082
-0.56151706	-0.06874755	4.07961226
-0.56141084	-0.06923261	4.07961321
-0.56182140	-0.06956144	4.07961321
-0.56228155	-0.07058482	4.07961416
-0.56211543	-0.07190275	4.07961607
-0.56175959	-0.07414475	4.07961941
-0.56250155	-0.07461484	4.07961941
-0.56267935	-0.07542703	4.07962036
-0.56244820	-0.07679047	4.07962227
-0.56256628	-0.07858208	4.07962465
-0.56349576	-0.07898580	4.07962465
-0.56347042	-0.08234240	4.07962894
-0.71117246	-0.17217548	4.07966471
-0.71205974	-0.17210752	4.07966375
-0.71363366	-0.17091240	4.07966137
-0.71465212	-0.17101553	4.07966089
-0.71508813	-0.17088054	4.07966089
-0.71559948	-0.17011480	4.07965946
-0.71614027	-0.16923240	4.07965803
-0.71672183	-0.16870593	4.07965708
-0.71728671	-0.16898189	4.07965708
-0.71896356	-0.16677684	4.07965326
-0.71943897	-0.16658893	4.07965279
-0.72060072	-0.16527373	4.07965040
-0.72103292	-0.16511621	4.07964993
-0.72150844	-0.16507490	4.07964945
-0.72245383	-0.16361849	4.07964706
-0.72288448	-0.16319859	4.07964659
-0.72318375	-0.16260751	4.07964563
-0.72393793	-0.16181271	4.07964420
-0.72529119	-0.15983596	4.07964087
-0.72705287	-0.15730770	4.07963657
-0.72767788	-0.15675093	4.07963562
-0.72905052	-0.15434974	4.07963181
-0.73001784	-0.15302481	4.07962942
-0.73097146	-0.15317360	4.07962894
-0.73262364	-0.15045902	4.07962465
-0.73414052	-0.15062135	4.07962418
-0.73483342	-0.15054369	4.07962370
-0.73588723	-0.14930457	4.07962132
-0.73649061	-0.14876299	4.07962036
-0.73767865	-0.14821969	4.07961893
-0.73826194	-0.14795570	4.07961845
-0.73925722	-0.14781168	4.07961750
-0.73986375	-0.14779486	4.07961702
-0.74031568	-0.14735964	4.07961655
-0.74184805	-0.14645730	4.07961416
-0.74288684	-0.14642958	4.07961369
-0.74405324	-0.14590149	4.07961226
-0.74517685	-0.14540395	4.07961130
-0.74575669	-0.14446847	4.07960939
-0.74657965	-0.14459291	4.07960939
-0.74815470	-0.14351335	4.07960701
-0.74932265	-0.14324763	4.07960606
-0.74979514	-0.14268160	4.07960510
-0.75094295	-0.14254683	4.07960415
-0.75128567	-0.14192545	4.07960320
-0.75206196	-0.14140882	4.07960224
-0.75266743	-0.14095189	4.07960129
-0.75324827	-0.14092761	4.07960081
-0.75378853	-0.14036959	4.07959986
-0.75430691	-0.14015108	4.07959938
-0.75497657	-0.13982624	4.07959843
-0.75580120	-0.13988855	4.07959795
-0.75597030	-0.13941987	4.07959747
-0.75659323	-0.13892509	4.07959652
-0.75743419	-0.13821621	4.07959509
-0.75834775	-0.13844897	4.07959509
-0.75860423	-0.13803510	4.07959414
-0.75894493	-0.13732903	4.07959318
-0.76026398	-0.13695684	4.07959175
-0.76073575	-0.13689302	4.07959175
-0.76113129	-0.13669536	4.07959127
-0.76134282	-0.13622734	4.07959032
-0.76189959	-0.13613357	4.07958984
-0.76239830	-0.13539723	4.07958889
-0.76284885	-0.13549536	4.07958841
-0.76298541	-0.13500910	4.07958794
-0.76343048	-0.13402662	4.07958651
-0.76414031	-0.13314664	4.07958460
-0.76449990	-0.13266516	4.07958412
-0.76535141	-0.13285047	4.07958364
-0.76562637	-0.13236770	4.07958317
-0.76637888	-0.13069284	4.07958031
-0.76712728	-0.13008414	4.07957935
-0.76769328	-0.12953351	4.07957840
-0.76809573	-0.12887484	4.07957697
-0.76859558	-0.12825410	4.07957602
-0.76953959	-0.12747762	4.07957458
-0.76970935	-0.12697783	4.07957363
-0.77015483	-0.12519988	4.07957125
-0.77149457	-0.12484345	4.07956982
-0.77187848	-0.12363587	4.07956839
-0.77231175	-0.12359402	4.07956791
-0.77273738	-0.12224028	4.07956600
-0.77408206	-0.11865824	4.07956076
-0.77613974	-0.11888041	4.07955980
-0.77758229	-0.11736742	4.07955694
-0.77835649	-0.11644168	4.07955551
-0.77904630	-0.11583929	4.07955408
-0.77988404	-0.11460559	4.07955217
-0.78205192	-0.11498292	4.07955122
-0.78269386	-0.11362386	4.07954931
-0.78327382	-0.11283502	4.07954788
-0.78473973	-0.11156934	4.07954550
-0.78580236	-0.11175770	4.07954502
-0.78650802	-0.11023729	4.07954264
-0.78715581	-0.10992754	4.07954216
-0.78879404	-0.10839343	4.07953930
-0.78974301	-0.10775505	4.07953787
-0.79045439	-0.10713747	4.07953644
-0.79134005	-0.10680713	4.07953548
-0.79242015	-0.10633986	4.07953453
-0.79271823	-0.10548653	4.07953310
-0.79381824	-0.10474166	4.07953167
-0.79559273	-0.10445914	4.07953024
-0.79603839	-0.10282785	4.07952785
-0.79850119	-0.10182709	4.07952547
-0.80061847	-0.10092317	4.07952309
-0.80111516	-0.10071988	4.07952261
-0.80286008	-0.09899408	4.07951927
-0.80339849	-0.09849803	4.07951832
-0.80400193	-0.09795642	4.07951736
-0.80523151	-0.09712034	4.07951546
-0.80587661	-0.09628600	4.07951403
-0.80654782	-0.09622350	4.07951355
-0.80747527	-0.09560040	4.07951212
-0.80844849	-0.09532484	4.07951164
-0.80881125	-0.09442583	4.07951021
-0.81012732	-0.09352893	4.07950830
-0.81099290	-0.09332952	4.07950735
-0.81133407	-0.09244576	4.07950592
-0.81308496	-0.09176934	4.07950449
-0.81316823	-0.09118375	4.07950354
-0.81344622	-0.09060800	4.07950258
-0.81387806	-0.09030375	4.07950211
-0.81432855	-0.08960614	4.07950068
-0.81588209	-0.08854184	4.07949877
-0.81624788	-0.08816761	4.07949781
-0.81840330	-0.08629939	4.07949448
-0.82092935	-0.08499065	4.07949114
-0.82278508	-0.08371344	4.07948828
-0.82321727	-0.08355591	4.07948828
-0.82479131	-0.08236080	4.07948542
-0.82534641	-0.08091575	4.07948351
-0.82659960	-0.08047360	4.07948208
-0.82713938	-0.08009329	4.07948160
-0.82810491	-0.07850587	4.07947874
-0.82853556	-0.07808602	4.07947826
-0.82929003	-0.07743797	4.07947683
-0.83023906	-0.07679960	4.07947540
-0.83133751	-0.07564574	4.07947350
-0.83230960	-0.07525456	4.07947206
-0.83276498	-0.07534420	4.07947206
-0.83394992	-0.07427618	4.07947016
-0.83438432	-0.07434994	4.07947016
-0.83528847	-0.07333305	4.07946825
-0.83694899	-0.07222363	4.07946587
-0.83738112	-0.07206619	4.07946539
-0.83803082	-0.07201889	4.07946491
-0.83847815	-0.07079661	4.07946301
-0.83905995	-0.07027027	4.07946205
-0.84018123	-0.06936347	4.07946014
-0.84076452	-0.06909949	4.07945967
-0.84166986	-0.06819823	4.07945776
-0.84197098	-0.06786960	4.07945728
-0.84283358	-0.06729212	4.07945633
-0.84363091	-0.06646690	4.07945490
-0.84410644	-0.06642556	4.07945442
-0.84540439	-0.06621534	4.07945347
-0.84643805	-0.06510714	4.07945156
-0.84742957	-0.06414500	4.07944965
-0.84827256	-0.06399181	4.07944870
-0.84859508	-0.06364787	4.07944822
-0.84984815	-0.06305906	4.07944679
-0.85133886	-0.06244951	4.07944536
-0.85289949	-0.06287485	4.07944489
-0.85363352	-0.06235760	4.07944393
-0.85527551	-0.06178823	4.07944202
-0.85629225	-0.06162900	4.07944155
-0.85687566	-0.06136498	4.07944059
-0.85880339	-0.06153166	4.07944012
-0.85990834	-0.06157407	4.07943916
-0.86161554	-0.06110579	4.07943773
-0.86306614	-0.06105140	4.07943678
-0.86391026	-0.06101388	4.07943630
-0.86521298	-0.06126624	4.07943630
-0.86579132	-0.06053954	4.07943487
-0.86674356	-0.06042609	4.07943392
-0.86847812	-0.06084529	4.07943392
-0.86923277	-0.06034380	4.07943249
-0.87059700	-0.06035030	4.07943201
-0.87109399	-0.06014714	4.07943153
-0.87154937	-0.06023681	4.07943106
-0.87366986	-0.06000423	4.07942963
-0.87596613	-0.06017470	4.07942867
-0.87672383	-0.06019801	4.07942820
-0.87720078	-0.06027243	4.07942820
-0.87841398	-0.06038544	4.07942772
-0.88055909	-0.06066236	4.07942677
-0.88289738	-0.06068677	4.07942581
-0.88417530	-0.06075409	4.07942486
-0.88744873	-0.06146717	4.07942390
-0.88816327	-0.06152090	4.07942390
-0.88879138	-0.06148890	4.07942343
-0.88957071	-0.06149697	4.07942295
-0.89126050	-0.06168422	4.07942247
-0.97607517	-0.08225271	4.07940245
-0.98265558	-0.08608702	4.07940388
-0.99993515	-0.09841335	4.07941055
-1.01957500	-0.11458397	4.07942057
-1.08403802	-0.19043925	4.07948351
-1.08571637	-0.19250941	4.07948542
-1.08659697	-0.19525808	4.07948828
-1.08662665	-0.20086101	4.07949591
-1.08603036	-0.20690501	4.07950401
-1.08314085	-0.23026581	4.07953596
-1.07637906	-0.25604600	4.07957315
-1.07507944	-0.26000676	4.07957888
-1.07484341	-0.26043645	4.07957935
-1.06547797	-0.27473134	4.07960320
-1.06292939	-0.27655739	4.07960701
-1.06095159	-0.27876657	4.07961082
-1.05688536	-0.28414977	4.07961988
-1.05351019	-0.28872168	4.07962799
-1.05217755	-0.29056770	4.07963085
-1.04501486	-0.29944479	4.07964659
-0.94688076	-0.43867034	4.07988119
-0.94320303	-0.44472194	4.07989073
-0.94052649	-0.44643047	4.07989454
-0.93878490	-0.44466829	4.07989311
-0.93656677	-0.44283175	4.07989216
-0.93328542	-0.43986452	4.07988977
-0.93239439	-0.44005656	4.07989073
-0.93034762	-0.44119987	4.07989311
-0.92888045	-0.44220331	4.07989550
-0.76080096	-0.46264729	4.08001423
-0.74236649	-0.46498644	4.08002710
-0.74106038	-0.46547604	4.08002853
-0.74035752	-0.46581447	4.08002949
-0.74022102	-0.46644735	4.08003044
-0.73877358	-0.46702644	4.08003187
-0.73841810	-0.46753055	4.08003283
-0.73687571	-0.46844974	4.08003473
-0.73415214	-0.46922404	4.08003712
-0.73274785	-0.46977270	4.08003902
-0.73197079	-0.46999586	4.08003950
-0.73156154	-0.47025388	4.08003998
-0.73160625	-0.47095695	4.08004093
-0.73038459	-0.47136706	4.08004236
-0.72968596	-0.47148424	4.08004284
-0.72978276	-0.47217104	4.08004379
-0.72798127	-0.47265503	4.08004522
-0.72790653	-0.47357911	4.08004665
-0.72595644	-0.47487205	4.08004904
-0.72478998	-0.47540021	4.08005047
-0.72403502	-0.47590148	4.08005142
-0.72269589	-0.47655129	4.08005333
-0.72135633	-0.47705436	4.08005476
-0.72057742	-0.47719300	4.08005524
-0.72062367	-0.47768730	4.08005571
-0.71817905	-0.47814798	4.08005762
-0.71781552	-0.47860694	4.08005857
-0.71675712	-0.47905901	4.08005953
-0.71530807	-0.47937572	4.08006096
-0.71474636	-0.47962448	4.08006144
-0.71433568	-0.47976682	4.08006191
-0.71362847	-0.47993594	4.08006239
-0.71218133	-0.48066178	4.08006430
-0.71150196	-0.48100361	4.08006525
-0.71090072	-0.48115870	4.08006573
-0.71050799	-0.48140988	4.08006620
-0.70949262	-0.48183149	4.08006716
-0.70785308	-0.48216105	4.08006859
-0.70714134	-0.48342761	4.08007050
-0.70412004	-0.48534849	4.08007479
-0.70293355	-0.48615417	4.08007622
-0.68632430	-0.48981667	4.08009052
-0.67244208	-0.49322975	4.08010244
-0.63946962	-0.50025481	4.08012962
-0.63906169	-0.50077510	4.08013058
-0.63880348	-0.50125116	4.08013105
-0.63804889	-0.50189924	4.08013248
-0.63718539	-0.50218320	4.08013344
-0.63677561	-0.50261903	4.08013391
-0.63625902	-0.50324643	4.08013535
-0.63578457	-0.50340337	4.08013582
-0.63500738	-0.50395101	4.08013678
-0.63490140	-0.50443619	4.08013773
-0.63464642	-0.50511253	4.08013868
-0.63367182	-0.50541890	4.08013964
-0.63372225	-0.50640696	4.08014059
-0.63339990	-0.50689751	4.08014154
-0.63279808	-0.50770152	4.08014297
-0.63176310	-0.50854737	4.08014441
-0.63118017	-0.50942922	4.08014584
-0.63066584	-0.50981688	4.08014679
-0.63040835	-0.51026177	4.08014774
-0.63019395	-0.51067626	4.08014822
-0.62896472	-0.51213020	4.08015060
-0.62816858	-0.51307106	4.08015251
-0.62780458	-0.51385444	4.08015347
-0.62605983	-0.51558042	4.08015680
-0.62492287	-0.51755172	4.08016014
-0.62451255	-0.51769412	4.08016062
-0.62235212	-0.51862854	4.08016300
-0.62118572	-0.51915658	4.08016396
-0.61991131	-0.51976079	4.08016539
-0.61827266	-0.52053040	4.08016729
-0.61766768	-0.52080959	4.08016825
-0.61697632	-0.52100301	4.08016872
-0.61609215	-0.52174234	4.08017015
-0.61524594	-0.52216637	4.08017111
-0.61483836	-0.52283341	4.08017254
-0.61428082	-0.52310485	4.08017302
-0.61384511	-0.52338660	4.08017349
-0.61196905	-0.52399904	4.08017540
-0.61188203	-0.52470875	4.08017635
-0.61108631	-0.52579641	4.08017826
-0.60903901	-0.52664626	4.08018064
-0.60836929	-0.52697116	4.08018112
-0.60776460	-0.52725047	4.08018208
-0.60704756	-0.52758312	4.08018303
-0.60714114	-0.52806962	4.08018351
-0.60647458	-0.52891916	4.08018494
-0.60520023	-0.52952337	4.08018637
-0.60422963	-0.53017688	4.08018780
-0.60338712	-0.53047681	4.08018875
-0.60252458	-0.53120095	4.08019018
-0.60110062	-0.53217399	4.08019209
-0.60060364	-0.53237700	4.08019257
-0.60006428	-0.53290415	4.08019352
-0.59935290	-0.53352177	4.08019495
-0.59824401	-0.53392792	4.08019590
-0.59771270	-0.53450012	4.08019686
-0.59725887	-0.53467286	4.08019733
-0.59654206	-0.53500563	4.08019829
-0.59639132	-0.53573000	4.08019924
-0.59591794	-0.53632700	4.08020020
-0.59468526	-0.53678501	4.08020163
-0.59504199	-0.53852499	4.08020353
-0.59387881	-0.53972435	4.08020592
-0.59379703	-0.54057229	4.08020687
-0.59274840	-0.54289198	4.08021069
-0.59180295	-0.54420179	4.08021259
-0.58622611	-0.54598814	4.08021832
-0.58549154	-0.54621196	4.08021879
-0.58242375	-0.54749191	4.08022213
-0.57972342	-0.54865992	4.08022499
-0.57728189	-0.54964536	4.08022785
-0.57533771	-0.55042773	4.08022976
-0.57343799	-0.55144191	4.08023214
-0.57237846	-0.55192494	4.08023357
-0.57186073	-0.55243677	4.08023453
-0.57128692	-0.55300826	4.08023548
-0.57056844	-0.55340314	4.08023643
-0.57049257	-0.55421162	4.08023739
-0.56977379	-0.55460632	4.08023834
-0.56931090	-0.55595100	4.08024025
-0.56823230	-0.55668062	4.08024168
-0.56728506	-0.55772799	4.08024359
-0.56698579	-0.55831909	4.08024454
-0.56548369	-0.56095815	4.08024883
-0.56444806	-0.56165719	4.08025026
-0.55987215	-0.58007586	4.08027697
-0.55468905	-0.58252227	4.08028269
-0.53756523	-0.59922874	4.08031368
-0.53014046	-0.60360408	4.08032370
-0.52871406	-0.60818076	4.08033037
-0.50093168	-0.61999971	4.08036089
-0.49960133	-0.62207711	4.08036423
-0.50039542	-0.62473994	4.08036757
-0.49943939	-0.63220769	4.08037758
-0.47794902	-0.64226300	4.08040237
-0.47614062	-0.64415014	4.08040571
-0.47521263	-0.64495105	4.08040762
-0.47523931	-0.64586967	4.08040857
-0.47489601	-0.64619768	4.08040905
-0.47371686	-0.64863956	4.08041286
-0.47260240	-0.65056479	4.08041620
-0.47300637	-0.65323913	4.08041954
-0.47248065	-0.65612733	4.08042336
-0.47160828	-0.65899682	4.08042765
-0.47283933	-0.66243589	4.08043146
-0.47231051	-0.66479945	4.08043480
-0.47203803	-0.66645581	4.08043718
-0.47138971	-0.66708994	4.08043814
-0.47200450	-0.66867828	4.08044004
-0.47220862	-0.67040896	4.08044195
-0.47262973	-0.67195654	4.08044386
-0.47181135	-0.67309034	4.08044577
-0.47138476	-0.67400396	4.08044720
-0.47180200	-0.67505789	4.08044815
-0.47007954	-0.67720854	4.08045197
-0.47010779	-0.67791843	4.08045292
-0.47083104	-0.67972422	4.08045483
-0.47049841	-0.68221331	4.08045816
-0.46956998	-0.68333852	4.08046055
-0.47020483	-0.68464935	4.08046150
-0.46997821	-0.68679988	4.08046484
-0.46961784	-0.68825471	4.08046675
-0.46957773	-0.68880981	4.08046722
-0.46886986	-0.69009900	4.08046961
-0.46892029	-0.69108701	4.08047056
-0.47515100	-0.70222563	4.08048201
-0.47062606	-0.70605212	4.08048916
-0.47170907	-0.71012247	4.08049393
-0.47288311	-0.71539021	4.08050013
-0.47608727	-0.72736931	4.08051395
-0.47440886	-0.72931194	4.08051729
-0.46385849	-0.73682702	4.08053303
-0.46343458	-0.73858970	4.08053541
-0.46330968	-0.73946810	4.08053684
-0.46320671	-0.74047804	4.08053780
-0.46301556	-0.74113965	4.08053875
-0.46252358	-0.74227667	4.08054066
-0.46233085	-0.74267590	4.08054113
-0.46194336	-0.74306536	4.08054209
-0.46136346	-0.74400085	4.08054352
-0.46156290	-0.74479783	4.08054447
-0.46102774	-0.74596524	4.08054638
-0.46060055	-0.74705660	4.08054781
-0.45989734	-0.74913275	4.08055115
-0.45884365	-0.75051856	4.08055353
-0.45845509	-0.75079238	4.08055401
-0.45827198	-0.75291264	4.08055687
-0.45814100	-0.75595880	4.08056068
-0.45958298	-0.75831199	4.08056307
-0.46007448	-0.76118767	4.08056641
-0.45940828	-0.76218408	4.08056831
-0.45952323	-0.76392198	4.08057022
-0.45994484	-0.76529181	4.08057213
-0.46070403	-0.77006149	4.08057785
-0.45941639	-0.77181506	4.08058071
-0.45974171	-0.77232027	4.08058119
-0.45948693	-0.77267206	4.08058167
-0.46095145	-0.77545011	4.08058453
-0.46097970	-0.77677780	4.08058643
-0.46148181	-0.77750850	4.08058691
-0.46036753	-0.77958024	4.08059025
-0.46015322	-0.77999485	4.08059072
-0.45940101	-0.78119868	4.08059311
-0.45936361	-0.78213185	4.08059406
-0.45945814	-0.78352964	4.08059597
-0.45963746	-0.78460413	4.08059740
-0.45918518	-0.78503919	4.08059788
-0.45919344	-0.78664440	4.08060026
-0.45904696	-0.78753805	4.08060122
-0.45894915	-0.78948176	4.08060408
-0.45900524	-0.79184377	4.08060694
-0.45870602	-0.79258150	4.08060789
-0.45786673	-0.79355270	4.08060980
-0.45767391	-0.79395199	4.08061028
-0.45709717	-0.79541218	4.08061266
-0.45630133	-0.79635322	4.08061409
-0.45600694	-0.79802459	4.08061647
-0.45512316	-0.79876399	4.08061790
-0.45441839	-0.80057800	4.08062077
-0.45317349	-0.80262524	4.08062410
-0.45153672	-0.80427516	4.08062696
-0.45030868	-0.80552030	4.08062935
-0.45000762	-0.80584884	4.08062983
-0.44947082	-0.80660731	4.08063126
-0.44999459	-0.80746949	4.08063221
-0.44976020	-0.80816150	4.08063316
-0.44900721	-0.80907190	4.08063459
-0.44728565	-0.81104499	4.08063841
-0.44584286	-0.81255788	4.08064127
-0.44450834	-0.81399471	4.08064365
-0.44278482	-0.81555879	4.08064651
-0.44213855	-0.81613088	4.08064747
-0.43950778	-0.81818700	4.08065176
-0.43931654	-0.81884873	4.08065271
-0.43731236	-0.82061034	4.08065605
-0.43565398	-0.82227540	4.08065939
-0.43377772	-0.82368362	4.08066225
-0.43330386	-0.82413387	4.08066273
-0.43073335	-0.82615304	4.08066702
-0.42961645	-0.82784677	4.08066988
-0.42886347	-0.82875729	4.08067131
-0.42845482	-0.82930851	4.08067226
-0.42768204	-0.83049667	4.08067417
-0.41285038	-0.83856094	4.08069277
-0.40895858	-0.83960080	4.08069658
-0.40679619	-0.84012604	4.08069801
-0.39449465	-0.84274459	4.08070850
-0.38130128	-0.84157342	4.08071423
-0.37794375	-0.84115243	4.08071518
-0.37035799	-0.83975387	4.08071756
-0.36280864	-0.83792436	4.08071947
-0.36107254	-0.83724272	4.08071947
-0.35204780	-0.83307338	4.08071899
-0.34805202	-0.83099461	4.08071852
-0.32636172	-0.81688714	4.08071232
-0.31871095	-0.81090355	4.08070850
-0.31064025	-0.80059534	4.08069992
-0.30232787	-0.78807628	4.08068800
-0.28991109	-0.76588416	4.08066607
-0.29021186	-0.76540887	4.08066511
-0.29052752	-0.76372206	4.08066273
-0.28972051	-0.75866687	4.08065701
-0.28971729	-0.75799555	4.08065605
-0.29001802	-0.75752020	4.08065510
-0.25776279	-0.66194987	4.08054876
-0.22961579	-0.58088350	4.08045912
-0.22852764	-0.57989216	4.08045816
-0.22689119	-0.57752925	4.08045626
-0.22363599	-0.57211661	4.08045101
-0.21805692	-0.56133980	4.08044004
-0.21501836	-0.55190897	4.08042955
-0.21481898	-0.55111206	4.08042860
-0.21455163	-0.54968935	4.08042669
-0.21558189	-0.54805636	4.08042431
-0.21544911	-0.54747629	4.08042336
-0.21654572	-0.54605991	4.08042097
-0.21662734	-0.54506534	4.08041954
-0.21658103	-0.54457104	4.08041906
-0.21709818	-0.54423690	4.08041859
-0.21722564	-0.54358995	4.08041763
-0.21588157	-0.53929299	4.08041286
-0.21492633	-0.53519350	4.08040762
-0.21467902	-0.53349322	4.08040571
-0.21508625	-0.53282613	4.08040476
-0.21404134	-0.52905828	4.08040047
-0.20860349	-0.51135218	4.08038044
-0.20847048	-0.51077199	4.08037949
-0.20785461	-0.50859690	4.08037710
-0.20782793	-0.50767821	4.08037615
-0.20762321	-0.50659645	4.08037472
-0.18607007	-0.44054708	4.08030081
-0.18482465	-0.43459988	4.08029366
-0.18592617	-0.43397078	4.08029222
-0.18646494	-0.43362144	4.08029175
-0.18652466	-0.43264195	4.08029032
-0.18667254	-0.43186408	4.08028936
-0.18772946	-0.43114969	4.08028793
-0.18891734	-0.43045980	4.08028603
-0.18947884	-0.43021092	4.08028555
-0.19068770	-0.42968351	4.08028412
-0.19028997	-0.42805862	4.08028221
-0.19169274	-0.42724755	4.08028030
-0.19208026	-0.42685810	4.08027983
-0.19185761	-0.42566741	4.08027840
-0.19146043	-0.42433587	4.08027697
-0.19197854	-0.42397076	4.08027601
-0.19225556	-0.42342603	4.08027506
-0.19204526	-0.42064583	4.08027172
-0.19195586	-0.41971081	4.08027077
-0.19154027	-0.41797704	4.08026838
-0.18891686	-0.41060442	4.08026028
-0.18906009	-0.40903944	4.08025837
-0.18894865	-0.40844405	4.08025742
-0.18879399	-0.40787902	4.08025694
-0.18872447	-0.40699092	4.08025599
-0.18936753	-0.40574744	4.08025408
-0.18822449	-0.40265647	4.08025074
-0.18880278	-0.40145862	4.08024883
-0.18877487	-0.40027773	4.08024693
-0.18850249	-0.39792120	4.08024406
-0.18825507	-0.39622095	4.08024216
-0.18840319	-0.39558971	4.08024120
-0.18813863	-0.39422059	4.08023977
-0.18749598	-0.39145130	4.08023643
-0.18615338	-0.38741672	4.08023167
-0.18696967	-0.38619828	4.08022976
-0.18733665	-0.38593969	4.08022928
-0.18689504	-0.38437635	4.08022738
-0.18717101	-0.38386258	4.08022690
-0.18591323	-0.37950480	4.08022165
-0.18580210	-0.37890950	4.08022118
-0.18456747	-0.37479889	4.08021641
-0.18458119	-0.37332520	4.08021450
-0.18453813	-0.36934274	4.08020926
-0.18430720	-0.36654681	4.08020592
-0.18427902	-0.36536580	4.08020449
-0.18431711	-0.36440152	4.08020306
-0.18420598	-0.36380622	4.08020210
-0.18446352	-0.36336130	4.08020163
-0.18430576	-0.36227155	4.08020020
-0.18447034	-0.36069128	4.08019829
-0.18498734	-0.36021057	4.08019733
-0.18526338	-0.35922569	4.08019590
-0.18530461	-0.35878617	4.08019543
-0.18536627	-0.35821575	4.08019447
-0.18557739	-0.35712990	4.08019304
-0.18620048	-0.35616404	4.08019114
-0.18591163	-0.35490319	4.08018970
-0.18653509	-0.35408404	4.08018827
-0.18651141	-0.35354352	4.08018780
-0.18683380	-0.35319960	4.08018732
-0.18672124	-0.35248855	4.08018637
-0.18684754	-0.35172588	4.08018541
-0.18682136	-0.35095400	4.08018398
-0.18697262	-0.35052302	4.08018351
-0.18718177	-0.34949917	4.08018208
-0.18743987	-0.34887654	4.08018112
-0.18721721	-0.34768575	4.08017969
-0.18736471	-0.34723231	4.08017921
-0.18751487	-0.34668571	4.08017826
-0.18668011	-0.34475571	4.08017635
-0.18649599	-0.34274745	4.08017397
-0.18729493	-0.34233123	4.08017254
-0.18704960	-0.34104007	4.08017111
-0.18843152	-0.34021312	4.08016920
-0.18829408	-0.33884591	4.08016777
-0.18889764	-0.33845100	4.08016682
-0.18885083	-0.33766329	4.08016586
-0.18941063	-0.33700541	4.08016491
-0.18971035	-0.33656108	4.08016396
-0.19016372	-0.33624160	4.08016348
-0.19005269	-0.33579290	4.08016300
-0.19039759	-0.33525616	4.08016205
-0.19054464	-0.33465594	4.08016109
-0.19123551	-0.33416915	4.08016014
-0.19075081	-0.33278286	4.08015871
-0.19115952	-0.33223146	4.08015776
-0.19163448	-0.33189678	4.08015680
-0.19156504	-0.33115530	4.08015585
-0.19140920	-0.33032805	4.08015490
-0.19191766	-0.32824200	4.08015203
-0.19247121	-0.32653463	4.08014965
-0.19223011	-0.32588387	4.08014870
-0.19246608	-0.32545412	4.08014822
-0.19258785	-0.32405102	4.08014631
-0.19290975	-0.32341373	4.08014536
-0.19324595	-0.32159615	4.08014250
-0.19369611	-0.32060531	4.08014107
-0.19373310	-0.31952539	4.08013964
-0.19418505	-0.31909019	4.08013868
-0.19437787	-0.31869090	4.08013821
-0.19476324	-0.31774575	4.08013678
-0.19460903	-0.31732750	4.08013630
-0.19506085	-0.31674564	4.08013535
-0.19499257	-0.31611979	4.08013439
-0.19531336	-0.31536686	4.08013344
-0.19569886	-0.31456828	4.08013201
-0.19588855	-0.31364429	4.08013105
-0.19627407	-0.31284577	4.08012962
-0.19678959	-0.31210268	4.08012819
-0.19762693	-0.31072223	4.08012629
-0.19788295	-0.31001496	4.08012486
-0.19826384	-0.30842930	4.08012295
-0.19832551	-0.30785894	4.08012199
-0.19899018	-0.30660021	4.08012009
-0.19956538	-0.30487767	4.08011723
-0.19997402	-0.30432630	4.08011627
-0.20057547	-0.30337554	4.08011484
-0.20059088	-0.30231088	4.08011341
-0.20097947	-0.30203706	4.08011293
-0.20062244	-0.30015039	4.08011055
-0.11813173	-0.17847462	4.07999802
-0.08490922	-0.13308568	4.07995749
-0.07824562	-0.11396330	4.07993650
-0.07367074	-0.06874114	4.07988024
-0.08017077	-0.04102758	4.07984066
