//X	Y	Z
-1.03670228	-1.08472443	2.09544992
-0.95774865	-1.14548051	2.09496212
-0.95207644	-1.14953303	2.09492803
-0.93641013	-1.15881634	2.09484029
-0.93158889	-1.15994155	2.09481883
-0.91805899	-1.15892577	2.09477234
-0.91278213	-1.15824699	2.09475517
-0.89771354	-1.15575349	2.09470773
-0.82474864	-1.13297033	2.09451318
-0.79666567	-1.11459112	2.09446955
-0.72563541	-1.05361938	2.09440589
-0.72392249	-1.05194497	2.09440517
-0.72396982	-1.05064833	2.09440947
-0.72131515	-1.04790115	2.09440851
-0.72090030	-1.04668689	2.09441113
-0.72052521	-1.04591060	2.09441209
-0.72048569	-1.04547238	2.09441352
-0.71967196	-1.04413033	2.09441471
-0.72032416	-1.04341722	2.09441948
-0.71967971	-1.04239535	2.09442043
-0.71957386	-1.04186487	2.09442186
-0.71909714	-1.04101229	2.09442282
-0.71918285	-1.04000211	2.09442639
-0.71891081	-1.03945398	2.09442711
-0.71786875	-1.03845572	2.09442663
-0.71822512	-1.03784275	2.09442997
-0.71890378	-1.03678381	2.09443593
-0.71856558	-1.03614330	2.09443665
-0.71835947	-1.03568745	2.09443736
-0.71800810	-1.03426278	2.09444070
-0.71789312	-1.03340220	2.09444308
-0.71759331	-1.03304839	2.09444308
-0.71738720	-1.03259265	2.09444380
-0.71740830	-1.03164160	2.09444690
-0.71736729	-1.03105211	2.09444880
-0.71718478	-1.02994776	2.09445167
-0.71641088	-1.02904391	2.09445167
-0.71607542	-1.02870595	2.09445167
-0.71559733	-1.02770185	2.09445310
-0.71532512	-1.02715361	2.09445381
-0.71438479	-1.02623200	2.09445333
-0.71334010	-1.02493107	2.09445381
-0.71353161	-1.02445173	2.09445620
-0.71309316	-1.02388573	2.09445620
-0.71198499	-1.02279520	2.09445572
-0.71171427	-1.02239823	2.09445596
-0.71060622	-1.02130747	2.09445548
-0.70841515	-1.01862907	2.09445620
-0.70709968	-1.01693130	2.09445691
-0.70728981	-1.01630056	2.09445953
-0.70691597	-1.01567578	2.09446025
-0.70614195	-1.01477182	2.09446025
-0.70536947	-1.01401925	2.09446001
-0.70499426	-1.01324308	2.09446096
-0.70457947	-1.01202869	2.09446335
-0.70236325	-1.00984740	2.09446239
-0.70157349	-1.00785697	2.09446597
-0.70063305	-1.00693536	2.09446549
-0.70091027	-1.00544596	2.09447122
-0.69976246	-1.00391722	2.09447217
-0.69928563	-1.00306439	2.09447312
-0.69970536	-1.00224125	2.09447718
-0.69949806	-1.00163400	2.09447861
-0.69912302	-1.00085783	2.09447956
-0.69948077	-1.00039625	2.09448242
-0.69944108	-0.99995804	2.09448361
-0.69910562	-0.99962002	2.09448361
-0.69995058	-0.99857879	2.09449005
-0.69974315	-0.99797177	2.09449124
-0.69940645	-0.99748230	2.09449172
-0.69738030	-0.99539959	2.09449100
-0.69769442	-0.99404579	2.09449649
-0.69735897	-0.99370778	2.09449625
-0.69703126	-0.99163485	2.09450197
-0.69738901	-0.99117321	2.09450459
-0.69701517	-0.99054837	2.09450531
-0.69697428	-0.98995882	2.09450722
-0.69702023	-0.98851079	2.09451199
-0.69674957	-0.98811382	2.09451222
-0.69767874	-0.98591137	2.09452295
-0.69871259	-0.98408818	2.09453249
-0.69919699	-0.98320615	2.09453726
-0.69899100	-0.98275018	2.09453797
-0.69934881	-0.98228854	2.09454083
-0.69913995	-0.98153007	2.09454250
-0.69945812	-0.98063016	2.09454656
-0.69981593	-0.98016846	2.09454942
-0.69916999	-0.97899556	2.09455085
-0.70001233	-0.97765166	2.09455824
-0.69981146	-0.97707188	2.09455943
-0.69967020	-0.97655708	2.09456062
-0.69869953	-0.97552717	2.09456038
-0.69841129	-0.97389257	2.09456444
-0.69846404	-0.97320092	2.09456706
-0.69852215	-0.97238547	2.09456992
-0.69894457	-0.97186488	2.09457302
-0.69756436	-0.97022605	2.09457326
-0.69788516	-0.96962881	2.09457636
-0.69771349	-0.96900576	2.09457779
-0.69780064	-0.96814716	2.09458089
-0.69709265	-0.96733570	2.09458089
-0.69654977	-0.96639043	2.09458208
-0.69673991	-0.96575975	2.09458470
-0.69596589	-0.96485579	2.09458494
-0.69509029	-0.96387529	2.09458494
-0.69437969	-0.96276116	2.09458590
-0.69400585	-0.96213627	2.09458637
-0.69379854	-0.96152902	2.09458780
-0.69254643	-0.95962095	2.09458923
-0.69033158	-0.95759106	2.09458780
-0.69126105	-0.95538861	2.09459829
-0.69094920	-0.95440215	2.09460044
-0.69113922	-0.95377147	2.09460306
-0.69122624	-0.95291305	2.09460616
-0.69095558	-0.95251596	2.09460640
-0.69127369	-0.95161617	2.09461069
-0.69066739	-0.95088130	2.09461069
-0.69085747	-0.95025063	2.09461355
-0.69044268	-0.94903624	2.09461594
-0.69056940	-0.94861573	2.09461784
-0.69052970	-0.94817758	2.09461904
-0.67650163	-0.93711412	2.09460330
-0.55648935	-0.84347379	2.09446549
-0.53046650	-0.82436752	2.09443188
-0.52746636	-0.82535732	2.09441757
-0.52646267	-0.82464600	2.09441614
-0.52501416	-0.82525486	2.09440875
-0.52263165	-0.82305580	2.09440708
-0.52183676	-0.82310283	2.09440422
-0.52095348	-0.82385719	2.09439850
-0.51562327	-0.81931370	2.09439349
-0.51340842	-0.81728375	2.09439206
-0.51060486	-0.81575668	2.09438658
-0.50788820	-0.81337094	2.09438443
-0.50564349	-0.81387550	2.09437442
-0.49910218	-0.80801356	2.09436941
-0.49809855	-0.80730212	2.09436798
-0.49437821	-0.80420506	2.09436440
-0.49385270	-0.80449766	2.09436154
-0.49299306	-0.80460370	2.09435797
-0.48944184	-0.80182683	2.09435391
-0.48881593	-0.80219424	2.09435034
-0.48771057	-0.80140615	2.09434891
-0.48722076	-0.80168307	2.09434628
-0.48556486	-0.80168468	2.09434009
-0.48406070	-0.80076885	2.09433746
-0.48353517	-0.80106163	2.09433460
-0.48317611	-0.80137193	2.09433246
-0.48265189	-0.80181599	2.09432888
-0.48108166	-0.80080777	2.09432650
-0.48001596	-0.80045789	2.09432364
-0.47911391	-0.79982311	2.09432244
-0.47858837	-0.80011582	2.09431958
-0.47729167	-0.79980713	2.09431577
-0.47617730	-0.80060267	2.09430909
-0.47381210	-0.79964161	2.09430361
-0.47278485	-0.79957843	2.09430003
-0.47108924	-0.79914200	2.09429502
-0.47052401	-0.79899657	2.09429359
-0.46913892	-0.79939514	2.09428716
-0.46729925	-0.79814136	2.09428453
-0.46677366	-0.79843408	2.09428144
-0.46543595	-0.79753590	2.09427953
-0.46398735	-0.79814482	2.09427214
-0.46084958	-0.79643112	2.09426618
-0.45867452	-0.79483920	2.09426332
-0.45629203	-0.79264021	2.09426188
-0.45528972	-0.79208016	2.09425998
-0.45472449	-0.79193461	2.09425831
-0.45399159	-0.79162014	2.09425664
-0.45342642	-0.79147458	2.09425497
-0.44751501	-0.78569919	2.09425211
-0.42780319	-0.76177245	2.09425712
-0.42404827	-0.75619960	2.09426141
-0.42058775	-0.75037527	2.09426761
-0.41898417	-0.74704278	2.09427238
-0.41086981	-0.72826552	2.09430361
-0.39936444	-0.70156777	2.09434795
-0.39863789	-0.69936717	2.09435225
-0.39672881	-0.69316190	2.09436536
-0.39491323	-0.68421179	2.09438777
-0.42388320	-0.55675012	2.09490824
-0.44125387	-0.49668205	2.09516716
-0.50668687	-0.34125054	2.09591246
-0.52027106	-0.31338346	2.09605289
-0.53505170	-0.28781348	2.09619021
-0.56852144	-0.26231939	2.09639621
-0.57597911	-0.25668880	2.09644175
-0.60496116	-0.23618262	2.09661508
-0.75019515	-0.17111586	2.09736085
-0.75504124	-0.16949366	2.09738398
-0.91234124	-0.10614938	2.09816837
-0.96897280	-0.09099898	2.09842610
-0.97901237	-0.08872509	2.09847045
-1.09644747	-0.12952137	2.09877014
-1.14690220	-0.14683700	2.09889960
-1.14922643	-0.14720863	2.09890699
-1.17932236	-0.16056824	2.09897447
-1.18049252	-0.16129729	2.09897637
-1.20837069	-0.17937210	2.09902024
-1.25534964	-0.21298546	2.09908414
-1.30020511	-0.24680695	2.09913945
-1.33285809	-0.27225229	2.09917688
-1.33574247	-0.27480698	2.09917927
-1.34309864	-0.28216261	2.09918237
-1.34558558	-0.28474072	2.09918332
-1.34790468	-0.28714997	2.09918404
-1.34999263	-0.28960052	2.09918356
-1.35937548	-0.30432427	2.09917045
-1.36398530	-0.31182852	2.09916306
-1.36816633	-0.36168668	2.09901667
-1.36830258	-0.36423907	2.09900880
-1.36819482	-0.36604846	2.09900260
-1.35868704	-0.53738397	2.09841132
-1.35348618	-0.57002687	2.09828639
-1.35185492	-0.57657939	2.09825897
-1.29951978	-0.73835129	2.09754133
-1.29821646	-0.73992902	2.09753156
-1.29752183	-0.73990130	2.09752893
-1.29615414	-0.74153775	2.09751868
-1.29562867	-0.74183053	2.09751582
-1.29445219	-0.74298757	2.09750772
-1.29342484	-0.74292445	2.09750414
-1.29300225	-0.74344522	2.09750080
-1.29231036	-0.74372017	2.09749746
-1.29177284	-0.74338025	2.09749651
-1.29056752	-0.74458039	2.09748816
-1.28970921	-0.74483764	2.09748411
-1.28842974	-0.74576700	2.09747648
-1.28786445	-0.74562144	2.09747481
-1.28675032	-0.74641699	2.09746814
-1.28612161	-0.74648172	2.09746575
-1.28472185	-0.74594516	2.09746218
-1.28413022	-0.74614549	2.09745932
-1.28301728	-0.74709231	2.09745216
-1.28205705	-0.74727309	2.09744811
-1.28026676	-0.74943012	2.09743452
-1.27829432	-0.75048292	2.09742379
-1.27600968	-0.75054944	2.09741521
-1.27521491	-0.75059646	2.09741211
-1.27355886	-0.75059819	2.09740615
-1.27250934	-0.75133479	2.09739971
-1.27149916	-0.75250977	2.09739232
-1.27043211	-0.75200856	2.09738994
-1.26948142	-0.75251919	2.09738493
-1.26792860	-0.75274867	2.09737825
-1.26743221	-0.75299835	2.09737563
-1.26671243	-0.75346774	2.09737158
-1.26582789	-0.75407070	2.09736633
-1.25882924	-0.76299208	2.09731174
-1.25712717	-0.76444179	2.09730077
-1.25525761	-0.76572269	2.09728956
-1.25364137	-0.76616251	2.09728217
-1.25248718	-0.76651996	2.09727693
-1.25101638	-0.76792854	2.09726691
-1.25055552	-0.76816219	2.09726429
-1.24805737	-0.76950783	2.09725094
-1.24663246	-0.76946831	2.09724569
-1.24583495	-0.76921278	2.09724355
-1.24491334	-0.76968026	2.09723878
-1.24445105	-0.76976275	2.09723663
-1.24327469	-0.77091980	2.09722877
-1.24218392	-0.77106696	2.09722424
-1.24122012	-0.77079362	2.09722161
-1.23998022	-0.77216113	2.09721255
-1.23718750	-0.77375805	2.09719706
-1.23603356	-0.77411538	2.09719157
-1.23449934	-0.77573425	2.09718084
-1.23193777	-0.77728999	2.09716630
-1.23080587	-0.77684778	2.09716344
-1.22933531	-0.77825630	2.09715343
-1.22809541	-0.77962369	2.09714460
-1.22756994	-0.77991629	2.09714174
-1.22677374	-0.77981216	2.09713912
-1.22522211	-0.78019297	2.09713221
-1.22469664	-0.78048575	2.09712911
-1.22322941	-0.77970546	2.09712625
-1.22228539	-0.78097272	2.09711885
-1.22192764	-0.78143436	2.09711599
-1.22062826	-0.78082293	2.09711313
-1.21922207	-0.78217268	2.09710360
-1.21775615	-0.78154373	2.09710026
-1.21657979	-0.78270078	2.09709215
-1.21401811	-0.78425664	2.09707761
-1.21223569	-0.78467870	2.09706974
-1.21085048	-0.78507733	2.09706330
-1.20921183	-0.78631687	2.09705329
-1.20801806	-0.78623611	2.09704924
-1.20633852	-0.78688627	2.09704089
-1.20547771	-0.78684098	2.09703779
-1.20340180	-0.78766584	2.09702754
-1.20287764	-0.78810990	2.09702420
-1.20241404	-0.78804106	2.09702277
-1.20185041	-0.78804690	2.09702063
-1.20149124	-0.78835720	2.09701824
-1.20096695	-0.78880125	2.09701490
-1.20008230	-0.78940427	2.09700966
-1.19951725	-0.78925878	2.09700799
-1.19866025	-0.78966737	2.09700370
-1.19796693	-0.78979099	2.09700060
-1.19744146	-0.79008371	2.09699774
-1.19691598	-0.79037642	2.09699488
-1.19603515	-0.79143345	2.09698820
-1.19530237	-0.79111892	2.09698653
-1.19497907	-0.79141343	2.09698439
-1.19441640	-0.79157054	2.09698176
-1.19357145	-0.79261178	2.09697533
-1.19301164	-0.79307163	2.09697175
-1.19262493	-0.79357636	2.09696865
-1.19220376	-0.79424834	2.09696507
-1.19079614	-0.79544652	2.09695601
-1.19037497	-0.79611856	2.09695220
-1.18985093	-0.79656249	2.09694886
-1.18926191	-0.79706538	2.09694505
-1.18834436	-0.79798687	2.09693861
-1.18720746	-0.79958206	2.09692931
-1.18585825	-0.79996502	2.09692311
-1.18455899	-0.80199647	2.09691167
-1.18371665	-0.80334038	2.09690428
-1.18329561	-0.80401218	2.09690046
-1.18257999	-0.80493563	2.09689498
-1.18211639	-0.80486673	2.09689331
-1.18176007	-0.80547971	2.09688997
-1.18079090	-0.80724400	2.09688067
-1.17959094	-0.80904955	2.09687042
-1.17767751	-0.80943811	2.09686232
-1.17637718	-0.81131840	2.09685135
-1.17545414	-0.81163466	2.09684682
-1.17469490	-0.81166589	2.09684396
-1.17375219	-0.81308436	2.09683585
-1.17276192	-0.81315678	2.09683204
-1.17204905	-0.81438279	2.09682536
-1.17078412	-0.81624722	2.09681463
-1.17025995	-0.81669128	2.09681129
-1.16925132	-0.81801742	2.09680343
-1.16756678	-0.82070500	2.09678841
-1.16636670	-0.82251042	2.09677815
-1.16522992	-0.82410574	2.09676886
-1.16386199	-0.82574224	2.09675837
-1.16240597	-0.82808608	2.09674549
-1.16204941	-0.82869899	2.09674215
-1.16131651	-0.82838458	2.09674048
-1.16102338	-0.82878727	2.09673810
-1.16011643	-0.83019006	2.09673023
-1.15943921	-0.83140022	2.09672379
-1.15891516	-0.83184421	2.09672046
-1.15813744	-0.83312917	2.09671330
-1.15704548	-0.83312500	2.09670949
-1.15654492	-0.83292061	2.09670830
-1.15530503	-0.83428806	2.09669924
-1.15429509	-0.83546287	2.09669161
-1.15228140	-0.83592612	2.09668279
-1.15073001	-0.83630717	2.09667587
-1.15020299	-0.83644855	2.09667349
-1.14930511	-0.83626771	2.09667063
-1.14748263	-0.83625168	2.09666395
-1.14678955	-0.83637536	2.09666109
-1.14620721	-0.83617646	2.09665966
-1.14563549	-0.83673263	2.09665561
-1.14517462	-0.83696645	2.09665322
-1.14347637	-0.83622742	2.09664941
-1.14265907	-0.83707410	2.09664369
-1.14167285	-0.83760059	2.09663820
-1.14004064	-0.83886755	2.09662819
-1.13907695	-0.83859420	2.09662557
-1.13814199	-0.83946234	2.09661913
-1.13727045	-0.83966482	2.09661531
-1.13644004	-0.84091204	2.09660816
-1.13555682	-0.84166640	2.09660268
-1.13457048	-0.84219277	2.09659719
-1.13352084	-0.84292954	2.09659100
-1.13305867	-0.84301192	2.09658909
-1.13263345	-0.84322995	2.09658670
-1.06419146	-1.00196397	2.09581971
-1.06393683	-1.00265360	2.09581637
-1.06481373	-1.00378537	2.09581590
-1.06498814	-1.00471091	2.09581375
-1.06470442	-1.00544369	2.09581017
-1.06607246	-1.00644994	2.09581208
-1.06544292	-1.00827706	2.09580374
-1.06587207	-1.00851309	2.09580445
-1.06624329	-1.00883520	2.09580493
-1.06589615	-1.00977814	2.09580064
-1.06659865	-1.01071370	2.09580016
-1.06710052	-1.01106942	2.09580088
-1.06638920	-1.01436019	2.09578753
-1.06728995	-1.01484382	2.09578919
-1.06677902	-1.01607168	2.09578347
-1.06769836	-1.01794434	2.09578061
-1.06790698	-1.01870286	2.09577894
-1.06834412	-1.01911747	2.09577918
-1.06783605	-1.02064800	2.09577250
-1.06879377	-1.02280748	2.09576893
-1.06710780	-1.02534378	2.09575438
-1.06792140	-1.02668595	2.09575319
-1.06724548	-1.02804744	2.09574628
-1.06756926	-1.02966642	2.09574223
-1.06844628	-1.03079832	2.09574175
-1.06894183	-1.03304017	2.09573627
-1.06939769	-1.03484392	2.09573197
-1.06941485	-1.03608179	2.09572816
-1.06963968	-1.03792679	2.09572291
-1.06886077	-1.03906035	2.09571648
-1.06801844	-1.04040432	2.09570885
-1.06870401	-1.04201555	2.09570622
-1.06511045	-1.04818857	2.09567308
-1.06472898	-1.04929864	2.09566808
-1.06445181	-1.05078804	2.09566212
-1.06426167	-1.05141866	2.09565926
-1.06453383	-1.05196691	2.09565854
-1.06190276	-1.05561912	2.09563708
-1.06223810	-1.05595720	2.09563708
-1.04253685	-1.07950640	2.09548831
