//X	Y	Z
-0.20699844	0.78340340	2.05894136
-0.24028721	0.82642072	2.05861878
-0.25432917	0.84098613	2.05850005
-0.25986063	0.84499955	2.05846167
-0.26708907	0.85012615	2.05841184
-0.30878782	0.86811578	2.05818081
-0.31751883	0.87069660	2.05813813
-0.32831097	0.87152016	2.05809689
-0.33440763	0.87210023	2.05807304
-0.50343478	0.88592291	2.05742192
-0.51195931	0.88805854	2.05738211
-0.51414788	0.88840431	2.05737281
-0.51630843	0.88896680	2.05736279
-0.52524006	0.89098459	2.05732203
-0.53857160	0.89246953	2.05726886
-0.61296630	0.88540417	2.05704570
-0.63236952	0.88251084	2.05699253
-0.74282742	0.85811901	2.05672812
-0.74774611	0.85657454	2.05671859
-0.77826780	0.84463155	2.05667067
-0.78161150	0.84306896	2.05666661
-0.78893864	0.83912951	2.05666018
-0.78905028	0.83823574	2.05666423
-0.81316185	0.82714170	2.05663443
-0.85460019	0.80668408	2.05658960
-0.85529280	0.80535400	2.05659366
-0.85837483	0.80380690	2.05659056
-0.85938549	0.80202806	2.05659556
-0.86677361	0.79863632	2.05658650
-0.87322879	0.79533768	2.05658007
-0.87415606	0.79423630	2.05658221
-0.87616068	0.79291189	2.05658150
-0.87795889	0.79114246	2.05658388
-0.88115835	0.78970975	2.05657983
-0.88065618	0.78848797	2.05658746
-0.88111985	0.78793728	2.05658841
-0.88283467	0.78684503	2.05658770
-0.88411272	0.78605920	2.05658722
-0.88475007	0.78518963	2.05658913
-0.88562095	0.78452134	2.05658937
-0.88913393	0.78165948	2.05659103
-0.89084303	0.77955890	2.05659509
-0.89203191	0.77844214	2.05659652
-0.89409304	0.77668488	2.05659771
-0.89484650	0.77590215	2.05659890
-0.89781243	0.77426821	2.05659652
-0.89826465	0.77170098	2.05660748
-0.90190065	0.76996183	2.05660319
-0.90235865	0.76840287	2.05660915
-0.90340316	0.76741582	2.05661035
-0.90415668	0.76663327	2.05661154
-0.90498912	0.76419270	2.05662036
-0.90615118	0.76332009	2.05662060
-0.90585428	0.76251620	2.05662537
-0.90794933	0.76155049	2.05662298
-0.90864766	0.76122862	2.05662203
-0.90931201	0.76011491	2.05662513
-0.91059136	0.75935662	2.05662441
-0.91148472	0.75746363	2.05663037
-0.91273582	0.75692201	2.05662870
-0.91354579	0.75570631	2.05663180
-0.91456223	0.75493592	2.05663180
-0.91467381	0.75404203	2.05663586
-0.91537213	0.75372016	2.05663490
-0.91643929	0.75150830	2.05664206
-0.91788542	0.74939561	2.05664706
-0.91858375	0.74907368	2.05664635
-0.91933143	0.74728262	2.05665231
-0.92148179	0.74585629	2.05665183
-0.92144907	0.74509221	2.05665565
-0.92306888	0.74266070	2.05666161
-0.92267716	0.74051756	2.05667329
-0.92337549	0.74019569	2.05667257
-0.92427582	0.73933846	2.05667353
-0.92494023	0.73822474	2.05667663
-0.92539811	0.73666579	2.05668259
-0.92597914	0.73622960	2.05668259
-0.92660964	0.73432434	2.05668974
-0.92777282	0.73347926	2.05668974
-0.92904639	0.73171294	2.05669379
-0.93054891	0.72916687	2.05670094
-0.93117934	0.72726166	2.05670786
-0.93155390	0.72637999	2.05671096
-0.95082259	0.72034758	2.05667329
-0.95317918	0.71936643	2.05666995
-0.95402187	0.71891469	2.05666924
-0.95570838	0.71803904	2.05666757
-0.96053910	0.71619117	2.05665970
-0.96179020	0.71564949	2.05665803
-0.96330190	0.71506494	2.05665565
-0.96635807	0.71378946	2.05665135
-0.96783692	0.71244085	2.05665255
-0.97010458	0.71112877	2.05665112
-0.97298574	0.71014452	2.05664587
-0.97343791	0.70757723	2.05665684
-0.97582293	0.70637971	2.05665421
-0.97663403	0.70519155	2.05665708
-0.97861052	0.70408386	2.05665565
-0.98101783	0.70166129	2.05665898
-1.14579046	0.64942294	2.05634117
-1.14663875	0.64997941	2.05633569
-1.15150106	0.64886820	2.05632401
-1.15214872	0.64998764	2.05631638
-1.15465546	0.64988512	2.05630827
-1.15620208	0.65011966	2.05630183
-1.16127205	0.64948142	2.05628729
-1.16296315	0.64958626	2.05628109
-1.16377890	0.64937884	2.05627918
-1.16733468	0.64926976	2.05626750
-1.17027700	0.64883304	2.05625939
-1.17310190	0.64828199	2.05625224
-1.17342567	0.64884168	2.05624843
-1.17535126	0.64917541	2.05624008
-1.17920423	0.64987028	2.05622339
-1.18355322	0.65077865	2.05620408
-1.18443000	0.65111876	2.05619931
-1.18699181	0.65055543	2.05619335
-1.18850470	0.64999843	2.05619073
-1.18947041	0.65066934	2.05618405
-1.19025660	0.65065074	2.05618143
-1.19259667	0.65190279	2.05616736
-1.19437802	0.65236622	2.05615902
-1.19677329	0.65315747	2.05614686
-1.20411515	0.65218753	2.05612612
-1.21121216	0.64900017	2.05611706
-1.21188247	0.64889491	2.05611515
-1.21508169	0.64746201	2.05611110
-1.26506078	0.61552113	2.05609226
-1.27735162	0.60758781	2.05608797
-1.36829984	0.53811550	2.05610847
-1.37029862	0.53578293	2.05611300
-1.37051177	0.53200638	2.05613041
-1.36996078	0.52702332	2.05615640
-1.36902535	0.52093327	2.05618882
-1.30521715	0.40508467	2.05696821
-1.24988830	0.30339208	2.05765009
-1.24949777	0.30127645	2.05766177
-1.24904633	0.29861340	2.05767608
-1.24935997	0.29718432	2.05768180
-1.24947166	0.29629052	2.05768585
-1.24814343	0.29328737	2.05770493
-1.24880338	0.29119310	2.05771279
-1.24723613	0.28698054	2.05773854
-1.24175715	0.27632293	2.05780888
-1.23992443	0.27204320	2.05783582
-1.23912811	0.27007285	2.05784798
-1.23874450	0.26899299	2.05785465
-1.23940206	0.26684377	2.05786276
-1.23872149	0.26495999	2.05787396
-1.23804128	0.26307663	2.05788541
-1.23786294	0.26241475	2.05788922
-1.23870564	0.26196310	2.05788851
-1.23657739	0.25690699	2.05792022
-1.23495865	0.25323781	2.05794358
-1.23468626	0.25213450	2.05794978
-1.23564291	0.25084418	2.05795288
-1.23477876	0.24729064	2.05797291
-1.23436129	0.24541935	2.05798340
-1.23331857	0.24120349	2.05800724
-1.23333728	0.23989588	2.05801368
-1.23309803	0.23868653	2.05802035
-1.23318136	0.23800927	2.05802321
-1.23296916	0.23655564	2.05803108
-1.23310912	0.23544532	2.05803585
-1.23269486	0.23452693	2.05804181
-1.23242986	0.23358917	2.05804706
-1.23265636	0.23275444	2.05805039
-1.23235261	0.23091474	2.05806041
-1.23243845	0.23029289	2.05806303
-1.23226023	0.22963095	2.05806684
-1.23175800	0.22840908	2.05807447
-1.23187089	0.22754285	2.05807829
-1.23116124	0.22584844	2.05808878
-1.22891295	0.22062245	2.05812192
-1.22748637	0.21619746	2.05814815
-1.21714389	0.19264582	2.05829740
-1.21507454	0.18721172	2.05833077
-1.21427512	0.18428853	2.05834770
-1.21391845	0.18296471	2.05835533
-1.19875133	0.14914247	2.05857086
-1.19859552	0.14725584	2.05858064
-1.19870722	0.14636204	2.05858445
-1.18994045	0.12544806	2.05871558
-1.18938255	0.12378927	2.05872560
-1.18928635	0.12242250	2.05873251
-1.18983531	0.12211987	2.05873203
-1.18991876	0.12144257	2.05873513
-1.18965125	0.12044969	2.05874085
-1.19067156	0.11976217	2.05874062
-1.19095445	0.11849423	2.05874562
-1.19094861	0.11748596	2.05875063
-1.19006181	0.11515713	2.05876493
-1.18996799	0.11384544	2.05877161
-1.19043541	0.11337768	2.05877209
-1.18968928	0.11083609	2.05878687
-1.18943429	0.11011940	2.05879140
-1.19031131	0.10958892	2.05879092
-1.19044971	0.10845082	2.05879593
-1.19129264	0.10799919	2.05879521
-1.19043386	0.10545388	2.05881047
-1.19066405	0.10470177	2.05881310
-1.19183838	0.10410523	2.05881190
-1.19223547	0.10199878	2.05882072
-1.19307244	0.10053894	2.05882502
-1.19440830	0.09934773	2.05882597
-1.19389462	0.09610941	2.05884337
-1.19365799	0.09323369	2.05885816
-1.19449949	0.09275423	2.05885744
-1.19560051	0.09133442	2.05886054
-1.19538951	0.08990821	2.05886817
-1.19461632	0.08761099	2.05888200
-1.19536901	0.08593056	2.05888748
-1.19447970	0.08354636	2.05890203
-1.19467902	0.08295567	2.05890417
-1.19417512	0.08080885	2.05891633
-1.19426084	0.08018664	2.05891895
-1.19392562	0.07761049	2.05893254
-1.19265521	0.07420184	2.05895352
-1.19191504	0.07179822	2.05896759
-1.19214416	0.07101889	2.05897045
-1.19216669	0.06979416	2.05897641
-1.19236374	0.06914844	2.05897880
-1.19177234	0.06759566	2.05898833
-1.19158757	0.06502770	2.05900145
-1.19143748	0.06414929	2.05900621
-1.19066215	0.06092635	2.05902433
-1.19138432	0.05940737	2.05902910
-1.19049740	0.05707857	2.05904341
-1.19026315	0.05597930	2.05904961
-1.18981886	0.05435231	2.05905890
-1.18978488	0.05356053	2.05906296
-1.18144798	0.02958274	2.05920744
-1.17592204	0.01432115	2.05930018
-1.17639697	0.01229706	2.05930829
-1.17496955	0.00697425	2.05933881
-1.17399347	0.00431448	2.05935502
-1.17416155	0.00298740	2.05936074
-1.17424035	0.00132936	2.05936861
-1.16616368	-0.02096999	2.05950403
-1.16604197	-0.02206491	2.05950975
-1.16577446	-0.02305774	2.05951548
-1.16547430	-0.02481484	2.05952501
-1.16555774	-0.02549214	2.05952787
-1.16525650	-0.02727647	2.05953765
-1.16583633	-0.02774053	2.05953789
-1.16592085	-0.02839033	2.05954075
-1.16544700	-0.02982826	2.05954933
-1.16476202	-0.03269273	2.05956531
-1.16123211	-0.04426031	2.05963349
-1.14506423	-0.08570065	2.05988908
-1.14111531	-0.09389032	2.05994225
-1.13725555	-0.10174940	2.05999351
-1.12585652	-0.12373860	2.06013918
-1.10682523	-0.16027217	2.06038117
-1.09931922	-0.17450880	2.06047559
-1.09770131	-0.17727982	2.06049466
-1.09670734	-0.17773411	2.06050038
-1.09626746	-0.17838067	2.06050491
-1.05738473	-0.23732597	2.06092358
-0.98810905	-0.34434852	2.06167936
-0.98672348	-0.34694597	2.06169677
-0.98119712	-0.35520914	2.06175566
-0.97961199	-0.35721624	2.06177092
-0.90932161	-0.41092640	2.06227303
-0.87929767	-0.43374240	2.06248689
-0.87426227	-0.43754283	2.06252265
-0.85718715	-0.44679978	2.06262636
-0.81925666	-0.46167654	2.06282926
-0.76042348	-0.48418501	2.06314111
-0.67114550	-0.51743954	2.06361032
-0.65731752	-0.51913810	2.06366634
-0.51649749	-0.51932347	2.06415415
-0.50795943	-0.51827288	2.06417871
-0.42036781	-0.50342512	2.06440997
-0.40563309	-0.50004423	2.06444454
-0.39768758	-0.49741343	2.06445932
-0.34318504	-0.47744811	2.06455159
-0.33585334	-0.47448924	2.06456256
-0.21806663	-0.41908151	2.06470275
-0.11023059	-0.31775308	2.06458688
-0.06607217	-0.26018390	2.06446195
-0.06103420	-0.25355139	2.06444740
-0.05368379	-0.24315688	2.06442261
-0.04836035	-0.23531178	2.06440330
-0.00947756	-0.17270559	2.06423569
-0.00722596	-0.16839647	2.06422281
0.03023508	-0.05685747	2.06381440
0.03138095	-0.05298758	2.06379962
0.03395265	-0.04302737	2.06376052
0.04232448	0.00038895	2.06358004
0.04818296	0.03948072	2.06341171
0.04882306	0.05078322	2.06335950
0.05193114	0.13045236	2.06298614
0.05231616	0.14596108	2.06291246
0.05207230	0.18664134	2.06271553
0.05200568	0.18819699	2.06270766
0.05171198	0.19417608	2.06267786
0.04218793	0.31411451	2.06206656
0.03041290	0.37722942	2.06172132
0.02925861	0.38055107	2.06170130
0.01146628	0.42839023	2.06140924
0.00606599	0.44247371	2.06132245
0.00287381	0.45049345	2.06127286
-0.00001569	0.45670062	2.06123281
-0.01718903	0.48835570	2.06102085
-0.01848321	0.49056709	2.06100559
-0.01892430	0.49124113	2.06100082
-0.01992274	0.49267617	2.06099057
-0.02271286	0.49656340	2.06096220
-0.04457653	0.53098983	2.06072044
-0.04508410	0.53145176	2.06071663
-0.04602030	0.53231150	2.06070924
-0.04690281	0.53365993	2.06069946
-0.05042725	0.53894258	2.06066179
-0.05207580	0.54155213	2.06064367
-0.05427472	0.54388690	2.06062484
-0.05474296	0.54431695	2.06062102
-0.05668012	0.54666716	2.06060314
-0.05820885	0.54910719	2.06058598
-0.05964404	0.55023599	2.06057549
-0.06163646	0.55212528	2.06055951
-0.06269126	0.55312711	2.06055117
-0.06553790	0.55658132	2.06052470
-0.06634735	0.55623585	2.06052351
-0.06908105	0.56055635	2.06049323
-0.07043172	0.56233478	2.06047988
-0.07116397	0.56280452	2.06047511
-0.07451707	0.56846106	2.06043625
-0.16113371	0.71629959	2.05942369
-0.20132899	0.77529764	2.05900025
