//X	Y	Z
0.00251138	0.03688604	1.61268795
0.00218577	0.03817599	1.61266899
-0.03539478	0.06977755	1.61213458
-0.05375414	0.08341327	1.61189890
-0.05642103	0.08539025	1.61186469
-0.05690688	0.08536400	1.61186385
-0.05829369	0.08626991	1.61184788
-0.06048784	0.08760016	1.61182392
-0.06091857	0.08777806	1.61182034
-0.06246570	0.08874678	1.61180305
-0.06323774	0.08897401	1.61179805
-0.06407276	0.08929641	1.61179149
-0.06597270	0.09037100	1.61177182
-0.06765644	0.09096483	1.61175954
-0.06827439	0.09048169	1.61176491
-0.06872328	0.09069048	1.61176085
-0.07010139	0.09097211	1.61175370
-0.07159489	0.09171258	1.61173964
-0.07213131	0.09140026	1.61174285
-0.07288029	0.09181148	1.61173522
-0.07403836	0.09215225	1.61172771
-0.07441679	0.09166946	1.61173368
-0.07517504	0.09194765	1.61172795
-0.07570220	0.09176834	1.61172915
-0.07622790	0.09202141	1.61172438
-0.07693011	0.09217888	1.61172044
-0.07786638	0.09192912	1.61172175
-0.07814388	0.09155833	1.61172640
-0.07853016	0.09124105	1.61172998
-0.07940865	0.09173377	1.61172092
-0.08010723	0.09200024	1.61171556
-0.08062987	0.09173889	1.61171794
-0.08154538	0.09169948	1.61171639
-0.08210685	0.09168965	1.61171520
-0.08346896	0.09183273	1.61170995
-0.08478034	0.09242521	1.61169851
-0.08521263	0.09200750	1.61170340
-0.08609681	0.09247621	1.61169469
-0.08660525	0.09272610	1.61168993
-0.08718159	0.09269308	1.61168897
-0.08762361	0.09292743	1.61168468
-0.08808581	0.09230013	1.61169243
-0.08876394	0.09247997	1.61168826
-0.08942860	0.09225056	1.61168993
-0.09047460	0.09234988	1.61168611
-0.09153522	0.09272293	1.61167836
-0.09220895	0.09265755	1.61167765
-0.09318363	0.09311949	1.61166883
-0.09352665	0.09257320	1.61167574
-0.09453344	0.09288123	1.61166894
-0.09512137	0.09274153	1.61166954
-0.09564473	0.09296830	1.61166513
-0.09652104	0.09313762	1.61166072
-0.09697498	0.09283438	1.61166394
-0.09893808	0.09370717	1.61164689
-0.09971701	0.09390883	1.61164224
-0.10031404	0.09379928	1.61164236
-0.10110135	0.09354308	1.61164415
-0.10151821	0.09377196	1.61163998
-0.10218499	0.09386594	1.61163700
-0.10265008	0.09391617	1.61163521
-0.10318869	0.09379336	1.61163568
-0.10412110	0.09408352	1.61162937
-0.10473964	0.09422221	1.61162591
-0.10533427	0.09422015	1.61162460
-0.10615548	0.09459360	1.61161733
-0.10660356	0.09447759	1.61161792
-0.10788897	0.09457649	1.61161351
-0.10835555	0.09419441	1.61161780
-0.10904156	0.09451038	1.61161172
-0.10943144	0.09408411	1.61161685
-0.10990113	0.09421642	1.61161387
-0.11035936	0.09429222	1.61161172
-0.11081424	0.09415063	1.61161268
-0.11120870	0.09380638	1.61161649
-0.11207362	0.09391925	1.61161292
-0.11256626	0.09386745	1.61161244
-0.11305900	0.09381573	1.61161208
-0.11356544	0.09371296	1.61161232
-0.11500652	0.09408981	1.61160362
-0.11557048	0.09367539	1.61160803
-0.11604014	0.09380771	1.61160505
-0.11777458	0.09411548	1.61159670
-0.11924336	0.09409321	1.61159348
-0.11988266	0.09415545	1.61159110
-0.12087108	0.09456630	1.61158299
-0.12248501	0.09509038	1.61157179
-0.12374573	0.09442654	1.61157823
-0.12424319	0.09415981	1.61158073
-0.12493848	0.09434279	1.61157656
-0.12521841	0.09386447	1.61158264
-0.12613246	0.09412357	1.61157680
-0.12678459	0.09380986	1.61157966
-0.12732646	0.09390444	1.61157703
-0.12777238	0.09359892	1.61158037
-0.12829715	0.09352710	1.61158013
-0.12906918	0.09375425	1.61157513
-0.12979667	0.09391719	1.61157107
-0.13031617	0.09314147	1.61158073
-0.13110638	0.09356281	1.61157298
-0.13217646	0.09363972	1.61156929
-0.13273206	0.09368315	1.61156738
-0.13412721	0.09413110	1.61155784
-0.13526224	0.09465594	1.61154771
-0.13602054	0.09493413	1.61154199
-0.13699518	0.09539607	1.61153316
-0.13745250	0.09514698	1.61153567
-0.13835046	0.09556472	1.61152756
-0.13958672	0.09551731	1.61152542
-0.14004403	0.09526829	1.61152780
-0.14081606	0.09549545	1.61152279
-0.14156058	0.09582472	1.61151636
-0.14223430	0.09575935	1.61151564
-0.14416581	0.09589490	1.61150920
-0.14498745	0.09543609	1.61151373
-0.14557756	0.09535202	1.61151350
-0.14633578	0.09563023	1.61150777
-0.14666720	0.09519066	1.61151326
-0.14740966	0.09516717	1.61151183
-0.14801373	0.09473503	1.61151648
-0.14872162	0.09500238	1.61151099
-0.14923152	0.09495375	1.61151052
-0.14990962	0.09513354	1.61150634
-0.15234923	0.09611309	1.61148679
-0.15327999	0.09545646	1.61149383
-0.15510897	0.09659670	1.61147344
-0.15564297	0.09639180	1.61147511
-0.15691462	0.09654175	1.61146998
-0.15806329	0.09563643	1.61148000
-0.15843132	0.09525878	1.61148453
-0.15924510	0.09487268	1.61148798
-0.15987970	0.09501613	1.61148453
-0.16043115	0.09451738	1.61149025
-0.16111267	0.09475132	1.61148524
-0.16158485	0.09461292	1.61148608
-0.16225545	0.09403314	1.61149275
-0.16304825	0.09418385	1.61148870
-0.16377912	0.09426707	1.61148584
-0.16435108	0.09385502	1.61149025
-0.16490449	0.09384283	1.61148918
-0.16548996	0.09383996	1.61148775
-0.16610393	0.09403050	1.61148369
-0.16692662	0.09397158	1.61148250
-0.16736324	0.09379905	1.61148393
-0.16805314	0.09357519	1.61148548
-0.16878510	0.09368630	1.61148214
-0.16996148	0.09405801	1.61147416
-0.17199229	0.09481098	1.61145878
-0.17308199	0.09464968	1.61145842
-0.17426457	0.09437402	1.61145949
-0.17670658	0.09524610	1.61144149
-0.17735413	0.09485038	1.61144555
-0.17811684	0.09383142	1.61145806
-0.17859788	0.09402020	1.61145425
-0.17943200	0.09401780	1.61145234
-0.17990634	0.09393504	1.61145234
-0.18126014	0.09453606	1.61144066
-0.18255484	0.09450196	1.61143816
-0.18333291	0.09437875	1.61143804
-0.18395379	0.09440995	1.61143613
-0.18454985	0.09397551	1.61144090
-0.18496500	0.09355471	1.61144578
-0.18545164	0.09385329	1.61144042
-0.18612540	0.09378789	1.61143982
-0.18666396	0.09366512	1.61144018
-0.18724266	0.09352460	1.61144090
-0.18816815	0.09384021	1.61143422
-0.18862091	0.09350912	1.61143780
-0.19012369	0.09411659	1.61142564
-0.19082861	0.09370632	1.61142981
-0.19153915	0.09340585	1.61143231
-0.19211635	0.09369764	1.61142683
-0.19291751	0.09339045	1.61142933
-0.19372034	0.09373287	1.61142266
-0.19412613	0.09344508	1.61142576
-0.19501720	0.09388830	1.61141729
-0.19618902	0.09417801	1.61141050
-0.19679983	0.09401739	1.61141133
-0.19739552	0.09404320	1.61140954
-0.19809994	0.09439020	1.61140299
-0.19891182	0.09489664	1.61139393
-0.19936776	0.09508003	1.61139023
-0.19997732	0.09505476	1.61138916
-0.20114075	0.09580235	1.61137593
-0.20250441	0.09551313	1.61137676
-0.20299920	0.09565084	1.61137366
-0.20364864	0.09590489	1.61136854
-0.20407516	0.09554053	1.61137259
-0.20497456	0.09552589	1.61137068
-0.20641525	0.09636292	1.61135554
-0.20781876	0.09635299	1.61135232
-0.20828535	0.09597091	1.61135662
-0.20961602	0.09675593	1.61134243
-0.21412347	0.09963257	1.61129117
-0.21488084	0.09958590	1.61129010
-0.21654247	0.10068865	1.61127055
-0.21725158	0.10082065	1.61126709
-0.21802361	0.10104781	1.61126196
-0.21897911	0.10115389	1.61125827
-0.21957457	0.10147663	1.61125231
-0.22020693	0.10156436	1.61124957
-0.22073272	0.10181748	1.61124480
-0.22144866	0.10192393	1.61124158
-0.22208792	0.10198606	1.61123919
-0.22304885	0.10249905	1.61122966
-0.22389905	0.10233800	1.61122990
-0.22439721	0.10269318	1.61122370
-0.22533099	0.10255086	1.61122358
-0.22579977	0.10235830	1.61122513
-0.22736639	0.10338592	1.61120701
-0.22813147	0.10363856	1.61120164
-0.22911359	0.10331774	1.61120379
-0.23038477	0.10422493	1.61118805
-0.23188505	0.10493984	1.61117435
-0.36792573	0.21147972	1.60935056
-0.37266579	0.21438152	1.60929847
-0.37294278	0.21476799	1.60929227
-0.37268755	0.21600905	1.60927546
-0.37474206	0.21719983	1.60925376
-0.38053107	0.22047701	1.60919392
-0.38055232	0.22118562	1.60918379
-0.38044071	0.22186300	1.60917449
-0.38065565	0.22247909	1.60916531
-0.38124433	0.22282736	1.60915899
-0.38170105	0.22333556	1.60915077
-0.38242796	0.22425576	1.60913610
-0.38336116	0.22513837	1.60912144
-0.38426110	0.22590876	1.60910845
-0.38458279	0.22635952	1.60910130
-0.38437393	0.22677222	1.60909605
-0.38476300	0.22740015	1.60908628
-0.38528031	0.22811107	1.60907495
-0.38562956	0.22845981	1.60906923
-0.38612619	0.22924726	1.60905695
-0.38782087	0.23065490	1.60903311
-0.38940671	0.23177063	1.60901368
-0.39111367	0.23355955	1.60898435
-0.39223349	0.23456781	1.60896754
-0.39300403	0.23522735	1.60895646
-0.39329571	0.23588762	1.60894644
-0.39368030	0.23643364	1.60893774
-0.39466044	0.23730245	1.60892320
-0.39533487	0.23785897	1.60891378
-0.39562654	0.23851927	1.60890377
-0.39566278	0.23904142	1.60889637
-0.39640671	0.24012789	1.60887921
-0.39701456	0.24083202	1.60886788
-0.39725947	0.24123859	1.60886157
-0.39829478	0.24190325	1.60884976
-0.39867687	0.24255666	1.60883963
-0.39897096	0.24310948	1.60883117
-0.39962023	0.24366061	1.60882187
-0.40032095	0.24425039	1.60881186
-0.40062878	0.24475220	1.60880411
-0.40112546	0.24553967	1.60879183
-0.40178335	0.24671492	1.60877371
-0.40234208	0.24727285	1.60876453
-0.40250877	0.24806753	1.60875285
-0.40338218	0.24910161	1.60873628
-0.40395558	0.24993333	1.60872316
-0.40481672	0.25058609	1.60871196
-0.40622181	0.25152287	1.60869539
-0.40600494	0.25209650	1.60868776
-0.40645838	0.25238729	1.60868263
-0.40657145	0.25295371	1.60867441
-0.40677947	0.25359535	1.60866487
-0.40761063	0.25445759	1.60865068
-0.40822539	0.25513628	1.60863972
-0.40850562	0.25574002	1.60863054
-0.40927625	0.25639963	1.60861933
-0.40922812	0.25795740	1.60859752
-0.40989894	0.25875679	1.60858464
-0.41181141	0.25991562	1.60856378
-0.41186595	0.26046878	1.60855591
-0.41236869	0.26090598	1.60854852
-0.41301191	0.26180738	1.60853434
-0.41396448	0.26277822	1.60851836
-0.41432053	0.26310140	1.60851300
-0.41446805	0.26354021	1.60850644
-0.41490626	0.26431447	1.60849452
-0.41552335	0.26488554	1.60848498
-0.41602600	0.26532266	1.60847759
-0.41601077	0.26580611	1.60847080
-0.41683596	0.26701880	1.60845172
-0.41795576	0.26802710	1.60843492
-0.41859901	0.26892853	1.60842073
-0.41918617	0.26970917	1.60840833
-0.42012942	0.27081305	1.60839045
-0.42090690	0.27144706	1.60837972
-0.42128915	0.27210057	1.60836959
-0.42143422	0.27264693	1.60836160
-0.42152423	0.27339745	1.60835075
-0.42170471	0.27414101	1.60833979
-0.42253816	0.27489579	1.60832727
-0.42269024	0.27541664	1.60831952
-0.42289588	0.27616572	1.60830843
-0.42344770	0.27674913	1.60829890
-0.42359519	0.27718797	1.60829246
-0.42406341	0.27775267	1.60828328
-0.42520380	0.27868432	1.60826755
-0.42587015	0.27940178	1.60825586
-0.42662549	0.28054476	1.60823786
-0.42707294	0.28118593	1.60822785
-0.42822722	0.28206667	1.60821271
-0.42889801	0.28286609	1.60819983
-0.42971778	0.28367192	1.60818648
-0.43094420	0.28451473	1.60817170
-0.43179151	0.28521854	1.60815978
-0.43224588	0.28583425	1.60815001
-0.43356290	0.28667039	1.60813510
-0.43386927	0.28760448	1.60812128
-0.43522856	0.28861243	1.60810375
-0.43668514	0.28958791	1.60808659
-0.43783489	0.29038665	1.60807264
-0.44297770	0.29386532	1.60801136
-0.44511449	0.29550728	1.60798323
-0.44591951	0.29603934	1.60797381
-0.44583985	0.29685983	1.60796249
-0.44604790	0.29750142	1.60795295
-0.44723067	0.29860491	1.60793459
-0.44813403	0.29942948	1.60792077
-0.44809574	0.30009693	1.60791147
-0.44848719	0.30061734	1.60790324
-0.44922236	0.30107960	1.60789490
-0.44920021	0.30158854	1.60788786
-0.44985580	0.30287141	1.60786819
-0.45079216	0.30400071	1.60785007
-0.45151216	0.30494639	1.60783505
-0.45205706	0.30555528	1.60782516
-0.45249766	0.30622205	1.60781467
-0.46345010	0.31343672	1.60768712
-0.46452525	0.31438068	1.60767126
-0.46500030	0.31491980	1.60766244
-0.46598738	0.31576318	1.60764825
-0.46654844	0.31621352	1.60764062
-0.46724463	0.31672129	1.60763180
-0.47005326	0.31919050	1.60759032
-0.47201201	0.32136044	1.60755515
-0.47330827	0.32227302	1.60753918
-0.47512880	0.32387114	1.60751235
-0.47572285	0.32462630	1.60750031
-0.47781733	0.32609645	1.60747457
-0.47788569	0.32659861	1.60746729
-0.48164868	0.32914594	1.60742259
-0.48134336	0.32991582	1.60741234
-0.48809871	0.33435103	1.60733390
-0.48862985	0.33501098	1.60732329
-0.48916101	0.33567095	1.60731280
-0.48962080	0.33669353	1.60729730
-0.49018884	0.33711836	1.60728991
-0.49060094	0.33756226	1.60728264
-0.49133468	0.33845693	1.60726833
-0.49183282	0.33881211	1.60726213
-0.49230096	0.33937669	1.60725307
-0.49289507	0.34013194	1.60724103
-0.49425429	0.34113973	1.60722363
-0.49453220	0.34185112	1.60721290
-0.49678791	0.34370905	1.60718143
-0.49695367	0.34417889	1.60717440
-0.49815947	0.34509835	1.60715854
-0.49914649	0.34594154	1.60714436
-0.50025243	0.34700081	1.60712683
-0.50135839	0.34806010	1.60710919
-0.50240839	0.34899864	1.60709357
-0.50255352	0.34954497	1.60708547
-0.50351602	0.35100466	1.60706258
-0.50516838	0.35224035	1.60704124
-0.50578403	0.35324395	1.60702562
-0.50691760	0.35420111	1.60700953
-0.50807422	0.35497427	1.60699582
-0.50859159	0.35568532	1.60698462
-0.51002067	0.35676295	1.60696602
-0.51025170	0.35722041	1.60695910
-0.51105678	0.35775241	1.60694969
-0.51159483	0.35838684	1.60693944
-0.51194394	0.35873547	1.60693371
-0.51254731	0.35935760	1.60692346
-0.51291031	0.35965529	1.60691845
-0.51300025	0.36040577	1.60690761
-0.51362640	0.36114091	1.60689580
-0.51391596	0.36161166	1.60688841
-0.51439238	0.36201549	1.60688162
-0.51475525	0.36231309	1.60687661
-0.51512611	0.36291015	1.60686731
-0.51567334	0.36341155	1.60685897
-0.51600873	0.36381125	1.60685253
-0.51638407	0.36449021	1.60684204
-0.51650852	0.36511308	1.60683298
-0.51730669	0.36567059	1.60682321
-0.51759142	0.36635637	1.60681283
-0.51830709	0.36692303	1.60680318
-0.51912445	0.36783639	1.60678840
-0.51943815	0.36828485	1.60678136
-0.51994312	0.36861446	1.60677552
-0.52144855	0.37019649	1.60674965
-0.52213222	0.37061995	1.60674202
-0.52244818	0.37096083	1.60673642
-0.52275151	0.37138063	1.60672987
-0.52325058	0.37206060	1.60671902
-0.52389288	0.37263721	1.60670936
-0.52460378	0.37341887	1.60669672
-0.52491164	0.37392065	1.60668886
-0.52603835	0.37490338	1.60667241
-0.52638751	0.37525204	1.60666668
-0.52715808	0.37591156	1.60665548
-0.52784508	0.37655249	1.60664487
-0.52810133	0.37701544	1.60663772
-0.52890640	0.37754744	1.60662830
-0.52915132	0.37795401	1.60662198
-0.52973765	0.37840986	1.60661423
-0.53020352	0.37878492	1.60660779
-0.53073359	0.37941700	1.60659766
-0.53137469	0.38012901	1.60658610
-0.53166878	0.38068178	1.60657763
-0.53281462	0.38202032	1.60655606
-0.53532577	0.38401639	1.60652196
-0.53581703	0.38439703	1.60651541
-0.53616619	0.38474569	1.60650969
-0.53630435	0.38531750	1.60650122
-0.53713799	0.38607240	1.60648870
-0.53794158	0.38703677	1.60647321
-0.53837436	0.38740411	1.60646701
-0.53894085	0.38826138	1.60645354
-0.54076278	0.38942701	1.60643280
-0.54208994	0.39045504	1.60641515
-0.54283059	0.39132413	1.60640121
-0.54314530	0.39180037	1.60639369
-0.54423755	0.39291069	1.60637546
-0.54656219	0.39451349	1.60634732
-0.54707623	0.39500707	1.60633922
-0.54797959	0.39583164	1.60632539
-0.54852539	0.39676538	1.60631096
-0.54887468	0.39711413	1.60630524
-0.54919481	0.39799714	1.60629201
-0.55010504	0.39879623	1.60627854
-0.55433071	0.40150142	1.60623050
-0.55526173	0.40222394	1.60621810
-0.55606681	0.40275595	1.60620868
-0.55695873	0.40352401	1.60619569
-0.55731481	0.40384719	1.60619032
-0.55776703	0.40427339	1.60618329
-0.55829823	0.40493333	1.60617268
-0.55839050	0.40557623	1.60616338
-0.55964166	0.40718186	1.60613775
-0.56062865	0.40802512	1.60612357
-0.56233376	0.40916431	1.60610354
-0.56454730	0.41085052	1.60607445
-0.56576324	0.41196176	1.60605597
-0.56707323	0.41282326	1.60604072
-0.56743616	0.41312093	1.60603559
-0.56811625	0.41378736	1.60602462
-0.56885606	0.41433167	1.60601521
-0.56958526	0.41514426	1.60600197
-0.57161677	0.41651919	1.60597789
-0.57207352	0.41702741	1.60596955
-0.57249141	0.41741794	1.60596311
-0.57342350	0.41816828	1.60595036
-0.57557392	0.41975915	1.60592282
-0.57612121	0.42026052	1.60591447
-0.57661706	0.42072320	1.60590672
-0.57783771	0.42175326	1.60588932
-0.57877982	0.42269546	1.60587382
-0.57918054	0.42308286	1.60586739
-0.58024973	0.42437723	1.60584664
-0.58088762	0.42487186	1.60583818
-0.58183777	0.42595020	1.60582066
-0.58465022	0.42785001	1.60578728
-0.58505428	0.42832106	1.60577965
-0.58544916	0.42889565	1.60577059
-0.58607435	0.42946914	1.60576105
-0.58621597	0.43009514	1.60575187
-0.58671021	0.43099016	1.60573816
-0.58748531	0.43173167	1.60572577
-0.58765888	0.43250090	1.60571456
-0.58944643	0.43379414	1.60569215
-0.59326547	0.43646222	1.60564542
-0.59501523	0.43766570	1.60562432
-0.59574580	0.43834311	1.60561311
-0.59619349	0.43868721	1.60560715
-0.59809524	0.44041157	1.60557830
-0.59895492	0.44149667	1.60556102
-0.60305220	0.44428211	1.60551202
-0.60332555	0.44491145	1.60550249
-0.60408926	0.44559655	1.60549104
-0.63561761	0.46553338	1.60513544
-0.66984212	0.48664516	1.60475683
-0.70029527	0.50218135	1.60446584
-0.72373432	0.51000530	1.60430014
-0.73267311	0.51173854	1.60425448
-0.85476929	0.52599716	1.60376489
-0.85592198	0.52593106	1.60376310
-0.85716510	0.52585816	1.60376120
-0.86359602	0.52259415	1.60379207
-0.86911625	0.51928842	1.60382569
-0.87109584	0.51786637	1.60384107
-0.87423384	0.51326942	1.60389841
-0.87647498	0.50995874	1.60393977
-0.87672275	0.50950050	1.60394573
-0.87847960	0.50578380	1.60399389
-0.88177156	0.49424425	1.60414886
-0.88233864	0.48944950	1.60421515
-0.88198841	0.48739678	1.60424495
-0.88185841	0.48498791	1.60427916
-0.88129133	0.48488796	1.60428190
-0.88082224	0.48399842	1.60429561
-0.88026595	0.48333299	1.60430634
-0.88030183	0.48277307	1.60431409
-0.87984055	0.48218286	1.60432351
-0.87909603	0.48185363	1.60432994
-0.87922627	0.48074692	1.60434520
-0.87899941	0.47761312	1.60438991
-0.87846285	0.47654635	1.60440624
-0.87868351	0.47405371	1.60444093
-0.87820292	0.47310764	1.60445535
-0.87765658	0.47293112	1.60445917
-0.87686378	0.47278050	1.60446310
-0.87703097	0.47143880	1.60448170
-0.87656975	0.47084859	1.60449111
-0.87599248	0.47055680	1.60449660
-0.87574995	0.47004279	1.60450435
-0.87536544	0.46949679	1.60451305
-0.87464637	0.46887600	1.60452342
-0.87466305	0.46796015	1.60453629
-0.87452245	0.46749586	1.60454321
-0.87397891	0.46645457	1.60455918
-0.87355453	0.46562922	1.60457182
-0.87284434	0.46379331	1.60459936
-0.87200546	0.46263164	1.60461771
-0.87138224	0.46241084	1.60462236
-0.87120861	0.46164176	1.60463357
-0.87011737	0.46085629	1.60464728
-0.86967313	0.45721394	1.60469961
-0.86933082	0.45683971	1.60470569
-0.86886817	0.45668194	1.60470903
-0.86846286	0.45621246	1.60471666
-0.86782104	0.45487863	1.60473692
-0.86725700	0.45391387	1.60475194
-0.86650944	0.45307025	1.60476553
-0.86547321	0.45208076	1.60478199
-0.86473256	0.45121160	1.60479593
-0.86406726	0.45081910	1.60480309
-0.86336797	0.44979689	1.60481918
-0.86291444	0.44950601	1.60482430
-0.86253679	0.44893453	1.60483325
-0.86213517	0.44822222	1.60484421
-0.86157733	0.44798923	1.60484886
-0.86139596	0.44692072	1.60486436
-0.86043835	0.44662511	1.60487080
-0.86009514	0.44592607	1.60488153
-0.85963839	0.44541788	1.60488975
-0.85900772	0.44460076	1.60490274
-0.85905737	0.44398975	1.60491121
-0.85809791	0.44304442	1.60492682
-0.85777634	0.44259372	1.60493398
-0.85718226	0.44183856	1.60494602
-0.85677469	0.44147664	1.60495210
-0.85649228	0.44068331	1.60496390
-0.85622907	0.44024584	1.60497069
-0.85614598	0.43946987	1.60498190
-0.85594004	0.43901780	1.60498869
-0.85543889	0.43814832	1.60500216
-0.85496235	0.43804151	1.60500479
-0.85510492	0.43731621	1.60501468
-0.85477102	0.43648416	1.60502720
-0.85454226	0.43591911	1.60503566
-0.85402346	0.43564048	1.60504091
-0.85378784	0.43510100	1.60504901
-0.85315698	0.43458095	1.60505784
-0.85310137	0.43370286	1.60507035
-0.85247141	0.43350765	1.60507464
-0.85191506	0.43284228	1.60508525
-0.85117745	0.43248749	1.60509205
-0.85124785	0.43179998	1.60510159
-0.85042536	0.43156186	1.60510683
-0.85022426	0.43089479	1.60511672
-0.84980285	0.43058389	1.60512209
-0.84928316	0.42998043	1.60513186
-0.84921533	0.42872104	1.60514975
-0.84874028	0.42818189	1.60515857
-0.84817791	0.42786685	1.60516429
-0.84705937	0.42672330	1.60518301
-0.84634089	0.42534521	1.60520422
-0.84546477	0.42487887	1.60521281
-0.84535176	0.42431250	1.60522115
-0.85424268	0.38903999	1.60569751
-0.85263115	0.38840839	1.60571015
-0.84981513	0.38504580	1.60576427
-0.84785295	0.38282174	1.60580027
-0.84773308	0.38228083	1.60580814
-0.84728372	0.38098985	1.60582745
-0.84666902	0.38031122	1.60583842
-0.84469557	0.37940979	1.60585582
-0.84476811	0.37891179	1.60586274
-0.84306765	0.37755755	1.60588586
-0.84379089	0.37244678	1.60595620
-0.84335566	0.37218690	1.60596085
-0.84309250	0.37174946	1.60596764
-0.84161818	0.37136483	1.60597658
-0.84166723	0.37013197	1.60599387
-0.84033966	0.36956415	1.60600495
-0.83997494	0.36861679	1.60601914
-0.83981603	0.36812150	1.60602653
-0.83841240	0.36675233	1.60604918
-0.83738858	0.36614418	1.60606015
-0.83712530	0.36570662	1.60606694
-0.83605087	0.36538455	1.60607409
-0.83528125	0.36504990	1.60608053
-0.83324432	0.36326814	1.60611057
-0.85583436	0.19176994	1.60847557
-0.85591489	0.19127426	1.60848236
-0.85639620	0.19116600	1.60848272
-0.85707915	0.19096765	1.60848391
-0.85768151	0.18988571	1.60849774
-0.85828751	0.18980631	1.60849738
-0.85873014	0.18928340	1.60850370
-0.85950387	0.18891504	1.60850716
-0.85986614	0.18859079	1.60851085
-0.86030859	0.18823114	1.60851490
-0.86103588	0.18701491	1.60853028
-0.86129975	0.18639807	1.60853839
-0.86154079	0.18596534	1.60854387
-0.86180001	0.18556358	1.60854900
-0.86209708	0.18508840	1.60855496
-0.86304021	0.18481307	1.60855663
-0.86351293	0.18378361	1.60856998
-0.86440694	0.18336199	1.60857379
-0.86514348	0.18201280	1.60859108
-0.86553383	0.18082914	1.60860693
-0.86613065	0.17934044	1.60862648
-0.86668146	0.17821983	1.60864103
-0.86685240	0.17771736	1.60864770
-0.86728281	0.17681313	1.60865939
-0.86744934	0.17622864	1.60866725
-0.86821502	0.17572407	1.60867250
-0.86866456	0.17517568	1.60867918
-0.86921370	0.17478447	1.60868347
-0.86980635	0.17429586	1.60868895
-0.86997175	0.17368349	1.60869718
-0.87055516	0.17332789	1.60870075
-0.87087423	0.17250699	1.60871160
-0.87132466	0.17228347	1.60871375
-0.87241137	0.17160779	1.60872066
-0.87526840	0.17205897	1.60870755
-0.87574935	0.17086865	1.60872316
-0.87982041	0.16704988	1.60876739
-0.88176155	0.16353685	1.60881233
-0.88261479	0.15761647	1.60889387
-0.88273346	0.15675032	1.60890579
-0.88323307	0.15667312	1.60890567
-0.88367200	0.15639305	1.60890865
-0.88430804	0.15623793	1.60890925
-0.88530719	0.15608332	1.60890913
-0.88548517	0.15555537	1.60891616
-0.88632303	0.15501300	1.60892177
-0.88645875	0.15431325	1.60893130
-0.88696021	0.15166724	1.60896742
-0.88749033	0.15062314	1.60898089
-0.88834244	0.14635101	1.60903919
-0.88867861	0.14569642	1.60904765
-0.88922119	0.14473671	1.60905981
-0.88995385	0.14392732	1.60906959
-0.89059055	0.14271788	1.60908508
-0.89293909	0.14308240	1.60907435
-0.89369714	0.13876289	1.60913348
-0.89449519	0.13794130	1.60914326
-0.89542061	0.13687778	1.60915601
-0.89630216	0.13607484	1.60916531
-0.89696592	0.13552061	1.60917151
-0.89829844	0.13235773	1.60921299
-0.89898431	0.13129461	1.60922635
-0.89928329	0.12979296	1.60924685
-0.90068060	0.12891747	1.60925591
-0.90101641	0.12855992	1.60926008
-0.90259200	0.12837231	1.60925901
-0.90348595	0.12795079	1.60926282
-0.90419185	0.12756827	1.60926664
-0.90477669	0.12707737	1.60927212
-0.90533972	0.12633809	1.60928118
-0.90596807	0.12558652	1.60929036
-0.90638006	0.12465134	1.60930252
-0.90697253	0.12445974	1.60930383
-0.90747350	0.12395008	1.60930991
-0.90813702	0.12231375	1.60933137
-0.90835267	0.12187555	1.60933709
-0.90891665	0.12146114	1.60934150
-0.90953672	0.12116754	1.60934424
-0.91040164	0.11806181	1.60938597
-0.91111314	0.11808631	1.60938394
-0.91277540	0.11843180	1.60937512
-0.91356927	0.11539178	1.60941613
-0.91537458	0.11257852	1.60945153
-0.91616082	0.11061828	1.60947728
-0.91694272	0.10995519	1.60948479
-0.91738087	0.10935035	1.60949230
-0.91825539	0.10719380	1.60952067
-0.91863596	0.10690050	1.60952389
-0.91885531	0.10621938	1.60953295
-0.91908932	0.10581216	1.60953820
-0.91957563	0.10502867	1.60954809
-0.92014652	0.10458875	1.60955298
-0.92048037	0.10404175	1.60955989
-0.92086780	0.10372292	1.60956347
-0.92115158	0.10270472	1.60957718
-0.92155117	0.10138813	1.60959470
-0.92227101	0.10095467	1.60959911
-0.92251188	0.10052194	1.60960472
-0.92334986	0.09997958	1.60961032
-0.92381006	0.09886573	1.60962498
-0.92420596	0.09808910	1.60963500
-0.92484665	0.09771895	1.60963869
-0.92503381	0.09705792	1.60964763
-0.92631924	0.09715680	1.60964310
-0.92675734	0.09655189	1.60965061
-0.92767477	0.09380986	1.60968709
-0.93260407	0.07433397	1.60995018
-0.93308055	0.07444072	1.60994756
-0.93351865	0.07383579	1.60995495
-0.93481100	0.06901453	1.61001992
-0.93531972	0.06896740	1.61001945
-0.93642867	0.06594338	1.61005938
-0.93804556	0.06560276	1.61006045
-0.93851268	0.06446343	1.61007535
-0.93945432	0.06462051	1.61007094
-0.93977630	0.06293482	1.61009395
-0.94031423	0.06219013	1.61010313
-0.94112593	0.06131742	1.61011350
-0.94130403	0.06078946	1.61012053
-0.94153404	0.05954295	1.61013758
-0.94263619	0.05486832	1.61020088
-0.94322622	0.05478425	1.61020076
-0.94334817	0.05413547	1.61020958
-0.94398487	0.05292603	1.61022508
-0.94427103	0.05180034	1.61024034
-0.94548982	0.04423063	1.61034417
-0.94573754	0.04377235	1.61035001
-0.94585264	0.04314912	1.61035860
-0.94626611	0.04178156	1.61037683
-0.94704634	0.04017169	1.61039770
-0.94767416	0.04017740	1.61039615
-0.94835883	0.03603106	1.61045301
-0.94879508	0.03477646	1.61046970
-0.94974488	0.03171733	1.61051059
-0.95032948	0.03122636	1.61051619
-0.95107692	0.02901468	1.61054552
-0.95124251	0.02810532	1.61055803
-0.95142055	0.02757737	1.61056507
-0.95169556	0.02593488	1.61058748
-0.95205468	0.02371718	1.61061800
-0.95223951	0.02316364	1.61062527
-0.95274085	0.02219373	1.61063778
-0.95324337	0.02125176	1.61064994
-0.95336759	0.02049548	1.61066031
-0.95382243	0.01897481	1.61068070
-0.95525330	0.01120978	1.61078680
-0.95540971	0.01043347	1.61079729
-0.95603663	0.01011430	1.61080039
-0.95768404	0.00250364	1.61090374
-0.95822144	-0.00070237	1.61094773
-0.95858425	-0.00178387	1.61096215
-0.95908982	-0.00388770	1.61099064
-0.95924383	-0.00455649	1.61099970
-0.96386218	-0.03004771	1.61134827
-0.96450216	-0.03385687	1.61140037
-0.96888584	-0.05637362	1.61170757
-0.96935868	-0.06062157	1.61176634
-0.97163016	-0.08720671	1.61213589
-0.97313660	-0.10750297	1.61241853
-0.97345710	-0.14672570	1.61297083
-0.97335660	-0.16273570	1.61319685
-0.97333091	-0.16520242	1.61323178
-0.97227305	-0.20310566	1.61376870
-0.94657522	-0.28129077	1.61493194
-0.91821671	-0.36250177	1.61614418
-0.86766553	-0.42589539	1.61715758
-0.84729922	-0.44612014	1.61749089
-0.81522250	-0.47597420	1.61798763
-0.80877972	-0.48012272	1.61806142
-0.72181273	-0.52983159	1.61896789
-0.71648240	-0.52913368	1.61897063
-0.66743171	-0.51124638	1.61883438
-0.66397297	-0.50986010	1.61882293
-0.52472293	-0.45235202	1.61834109
-0.51499093	-0.44412017	1.61824799
-0.51403946	-0.44338700	1.61823988
-0.49525893	-0.42915362	1.61808360
-0.49323556	-0.42747083	1.61806464
-0.49265629	-0.42657307	1.61805332
-0.49229494	-0.42592397	1.61804497
-0.49190059	-0.42557961	1.61804104
-0.49172112	-0.42461926	1.61802793
-0.49115026	-0.42417938	1.61802316
-0.49087489	-0.42361906	1.61801589
-0.48995665	-0.42287803	1.61800754
-0.48920089	-0.42188460	1.61799538
-0.48883656	-0.42037079	1.61797488
-0.48831579	-0.41945967	1.61796319
-0.48747897	-0.41888952	1.61795723
-0.48677924	-0.41777533	1.61794317
-0.48584163	-0.41709316	1.61793578
-0.48549494	-0.41617018	1.61792350
-0.48586571	-0.41557321	1.61791420
-0.48483512	-0.41477671	1.61790538
-0.48487356	-0.41406503	1.61789536
-0.48440793	-0.41335806	1.61788642
-0.48404416	-0.41260147	1.61787665
-0.48334593	-0.41191965	1.61786866
-0.47196227	-0.40416783	1.61778629
-0.47224921	-0.40329254	1.61777318
-0.47186717	-0.40256688	1.61776388
-0.46832618	-0.40005991	1.61773694
-0.46765500	-0.39872286	1.61771965
-0.46783546	-0.39797923	1.61770868
-0.46726912	-0.39745730	1.61770272
-0.46696925	-0.39628059	1.61768687
-0.46686345	-0.39579034	1.61768019
-0.46651679	-0.39486745	1.61766791
-0.46662745	-0.39419347	1.61765826
-0.46690530	-0.39348224	1.61764753
-0.46710539	-0.39284289	1.61763799
-0.46665365	-0.39248401	1.61763406
-0.46598944	-0.39117250	1.61761713
-0.46621364	-0.39068952	1.61760974
-0.46582466	-0.38993827	1.61760008
-0.46544406	-0.38964507	1.61759686
-0.46520168	-0.38877997	1.61758518
-0.46531355	-0.38824138	1.61757743
-0.46481037	-0.38792121	1.61757410
-0.46478584	-0.38730478	1.61756539
-0.46482906	-0.38680813	1.61755836
-0.46433946	-0.38624200	1.61755145
-0.46454418	-0.38581780	1.61754501
-0.46419907	-0.38532713	1.61753893
-0.46392369	-0.38476685	1.61753166
-0.46403101	-0.38431036	1.61752498
-0.46333054	-0.38381809	1.61751974
-0.46350306	-0.38307676	1.61750877
-0.46310744	-0.38259703	1.61750305
-0.46252728	-0.38202417	1.61749625
-0.46180156	-0.38124022	1.61748695
-0.46211481	-0.38033161	1.61747336
-0.46178222	-0.37992001	1.61746836
-0.46145082	-0.37948042	1.61746299
-0.46151227	-0.37895274	1.61745536
-0.46077505	-0.37822539	1.61744690
-0.46064863	-0.37765864	1.61743915
-0.46069184	-0.37716192	1.61743212
-0.46008861	-0.37640500	1.61742282
-0.45924348	-0.37537691	1.61741030
-0.45855212	-0.37472057	1.61740267
-0.45792371	-0.37396911	1.61739361
-0.45768967	-0.37356192	1.61738837
-0.45735830	-0.37312230	1.61738300
-0.45702690	-0.37268272	1.61737752
-0.45685580	-0.37218028	1.61737084
-0.45674074	-0.37155706	1.61736238
-0.45592749	-0.37025201	1.61734593
-0.45530456	-0.36909360	1.61733103
-0.45558012	-0.36827472	1.61731887
-0.45444754	-0.36752799	1.61731100
-0.45407778	-0.36642098	1.61729622
-0.45389152	-0.36543509	1.61728275
-0.45323321	-0.36447400	1.61727083
-0.45329466	-0.36394635	1.61726320
-0.45319343	-0.36337411	1.61725533
-0.45263180	-0.36306727	1.61725235
-0.45251536	-0.36201161	1.61723769
-0.45247015	-0.36131859	1.61722803
-0.45241123	-0.36057457	1.61721778
-0.29728863	-0.28590980	1.61653137
-0.29430127	-0.28525442	1.61652923
-0.29329753	-0.28518185	1.61653054
-0.29286093	-0.28500932	1.61652911
-0.29235911	-0.28498775	1.61653006
-0.29162565	-0.28480032	1.61652911
-0.29089028	-0.28496557	1.61653316
-0.28994325	-0.28566331	1.61654532
-0.28912529	-0.28568557	1.61654758
-0.28725523	-0.28529352	1.61654639
-0.28444672	-0.28484121	1.61654663
-0.28413200	-0.28531745	1.61655414
-0.28239068	-0.28559968	1.61656225
-0.28179663	-0.28635484	1.61657429
-0.28087109	-0.28667051	1.61658096
-0.27905020	-0.28613216	1.61657763
-0.27750623	-0.28520739	1.61656821
-0.27640015	-0.28459048	1.61656213
-0.27588376	-0.28497657	1.61656880
-0.27512407	-0.28482243	1.61656845
-0.27430144	-0.28476346	1.61656952
-0.27304646	-0.28428686	1.61656582
-0.27203318	-0.28362107	1.61655879
-0.27102017	-0.28328168	1.61655641
-0.27043587	-0.28338480	1.61655927
-0.26927745	-0.28313148	1.61655843
-0.26878220	-0.28280905	1.61655498
-0.26837802	-0.28311688	1.61656034
-0.26792306	-0.28297526	1.61655939
-0.26716787	-0.28273910	1.61655784
-0.26670951	-0.28265178	1.61655772
-0.26624542	-0.28254038	1.61655724
-0.26539016	-0.28338030	1.61657107
-0.26417330	-0.28327417	1.61657250
-0.26338041	-0.28312778	1.61657226
-0.26289329	-0.28283238	1.61656928
-0.26240063	-0.28291440	1.61657155
-0.26197237	-0.28319979	1.61657667
-0.26076221	-0.28282207	1.61657417
-0.25949255	-0.28248549	1.61657238
-0.25832015	-0.28201795	1.61656857
-0.25758541	-0.28169513	1.61656582
-0.25639379	-0.28144965	1.61656511
-0.25529027	-0.28123733	1.61656475
-0.25483990	-0.28101373	1.61656260
-0.25406635	-0.28080857	1.61656165
-0.25339487	-0.28068745	1.61656153
-0.25288838	-0.28058466	1.61656117
-0.25236124	-0.28040534	1.61655998
-0.25134680	-0.27976745	1.61655331
-0.24775477	-0.27778882	1.61653388
-0.24708802	-0.27774891	1.61653495
-0.24537374	-0.27727154	1.61653221
-0.24402013	-0.27649343	1.61652446
-0.24250850	-0.27588567	1.61651945
-0.24196298	-0.27573740	1.61651874
-0.24071062	-0.27553141	1.61651874
-0.21565552	-0.26035285	1.61636388
-0.20607843	-0.25541568	1.61631691
-0.20309649	-0.25435343	1.61630893
-0.19957437	-0.25243887	1.61629033
-0.19021875	-0.24682315	1.61623323
-0.18930845	-0.24762221	1.61624670
-0.17102584	-0.23733425	1.61614478
-0.16877368	-0.23621663	1.61613429
-0.16769779	-0.23610629	1.61613536
-0.16007684	-0.23178393	1.61609232
-0.15709798	-0.23020723	1.61607718
-0.15567231	-0.22955450	1.61607134
-0.15441738	-0.22907785	1.61606765
-0.15365075	-0.22889824	1.61606681
-0.15205151	-0.22914845	1.61607420
-0.15161489	-0.22897595	1.61607277
-0.14763921	-0.22735226	1.61605930
-0.13061184	-0.21645887	1.61594594
-0.10833399	-0.19971141	1.61576235
-0.10669807	-0.19834748	1.61574697
-0.10293210	-0.19513544	1.61571062
-0.10114811	-0.19345304	1.61569107
-0.09955989	-0.19151044	1.61566746
-0.09488693	-0.18566154	1.61559606
-0.08973677	-0.17892390	1.61551321
-0.07967123	-0.16249201	1.61530530
-0.07680121	-0.15767258	1.61524403
-0.07641914	-0.15694691	1.61523473
-0.07570095	-0.15556671	1.61521697
-0.00905116	-0.00917219	1.61331010
0.00196420	0.02162120	1.61290193
0.00276925	0.02598391	1.61284232
0.00307594	0.02856532	1.61280656
0.00321287	0.03107660	1.61277151
0.00316214	0.03216960	1.61275601
