//X	Y	Z
-0.05176687	0.93710041	2.42924428
-0.08349749	0.99089587	2.42918038
-0.10222317	1.01413918	2.42915082
-0.11185658	1.02300215	2.42913842
-0.13305381	1.03896546	2.42911482
-0.13497920	1.04032636	2.42911291
-0.14127208	1.04457057	2.42910624
-0.17194018	1.06191289	2.42907763
-0.17954943	1.06544304	2.42907119
-0.20262635	1.07506680	2.42905307
-0.20906915	1.07710624	2.42904854
-0.26526222	1.09171772	2.42901230
-0.29217625	1.09355807	2.42899990
-0.32008117	1.09320402	2.42898917
-0.33815074	1.09155226	2.42898369
-0.36920637	1.08801389	2.42897487
-0.39700574	1.08244538	2.42896914
-0.39785430	1.08178043	2.42896938
-0.40219855	1.08040571	2.42896914
-0.40375659	1.07939982	2.42896938
-0.40530157	1.07864261	2.42896962
-0.40796995	1.07767403	2.42896938
-0.40928629	1.07695985	2.42896962
-0.41045332	1.07653308	2.42896938
-0.41193572	1.07581353	2.42896962
-0.41300994	1.07539105	2.42896962
-0.41397011	1.07489955	2.42896962
-0.41554260	1.07446098	2.42896938
-0.41651344	1.07400620	2.42896938
-0.41818944	1.07359993	2.42896914
-0.41898346	1.07311368	2.42896938
-0.42020458	1.07250834	2.42896938
-0.42143679	1.07193947	2.42896962
-0.42241615	1.07162559	2.42896938
-0.42369986	1.07098234	2.42896962
-0.42447209	1.07060385	2.42896962
-0.42766303	1.06940722	2.42896938
-0.42989841	1.06813157	2.42896986
-0.43207735	1.06731987	2.42896962
-0.43376666	1.06666505	2.42896962
-0.43484902	1.06638360	2.42896962
-0.43782809	1.06551194	2.42896914
-0.43973750	1.06467319	2.42896914
-0.44222641	1.06395853	2.42896891
-0.44428867	1.06336308	2.42896867
-0.44677758	1.06264853	2.42896843
-0.44900510	1.06123173	2.42896891
-0.45157000	1.06023085	2.42896891
-0.45219743	1.05893373	2.42896986
-0.45527953	1.05809462	2.42896938
-0.45637572	1.05756450	2.42896938
-0.45873365	1.05649865	2.42896962
-0.46000922	1.05571449	2.42896986
-0.46176124	1.05502200	2.42896986
-0.46324319	1.05430245	2.42896986
-0.46569169	1.05351794	2.42896962
-0.46699476	1.05305243	2.42896962
-0.46856692	1.05261397	2.42896938
-0.47004929	1.05189443	2.42896938
-0.47110432	1.05129409	2.42896962
-0.47346273	1.05022848	2.42896962
-0.47879970	1.04829121	2.42896938
-0.48163319	1.04650116	2.42897010
-0.48581827	1.04364061	2.42897105
-0.48796940	1.04251015	2.42897129
-0.49101025	1.04078484	2.42897177
-0.49175406	1.03927159	2.42897296
-0.49601591	1.03694069	2.42897344
-0.49758512	1.03579044	2.42897391
-0.49975055	1.03522754	2.42897367
-0.50259817	1.03400493	2.42897367
-0.50401789	1.03332305	2.42897367
-0.50499737	1.03300929	2.42897367
-0.50592738	1.03248429	2.42897391
-0.50951278	1.03123939	2.42897367
-0.51299447	1.02996230	2.42897344
-0.51674563	1.02871203	2.42897320
-0.51910406	1.02764630	2.42897320
-0.51903498	1.02644157	2.42897439
-0.51996493	1.02591658	2.42897463
-0.52179241	1.02493799	2.42897487
-0.52392948	1.02324009	2.42897558
-0.52565306	1.02141273	2.42897654
-0.52594322	1.02051616	2.42897725
-0.52670157	1.01956999	2.42897797
-0.52888018	1.01875830	2.42897797
-0.53002489	1.01762319	2.42897844
-0.53004497	1.01588321	2.42898011
-0.53214800	1.01535785	2.42897987
-0.53339493	1.01343894	2.42898107
-0.53433013	1.01234329	2.42898178
-0.53667396	1.01071024	2.42898250
-0.53819716	1.01006067	2.42898250
-0.53896880	1.00886607	2.42898321
-0.54066038	1.00792599	2.42898345
-0.54134274	1.00726628	2.42898393
-0.54260498	1.00673068	2.42898393
-0.54484540	1.00506532	2.42898464
-0.54583549	1.00478804	2.42898440
-0.54672480	1.00419319	2.42898464
-0.54986954	1.00331640	2.42898440
-0.55144209	1.00287783	2.42898417
-0.55411077	1.00190926	2.42898393
-0.55627519	1.00053024	2.42898440
-0.55654049	0.99902922	2.42898583
-0.55870533	0.99765027	2.42898631
-0.55977356	0.99680126	2.42898655
-0.56040114	0.99550426	2.42898750
-0.56149721	0.99497396	2.42898774
-0.56248993	0.99441135	2.42898774
-0.56332386	0.99317920	2.42898870
-0.56467539	0.99210852	2.42898917
-0.56535774	0.99144894	2.42898941
-0.56639773	0.98946524	2.42899108
-0.56652218	0.98857373	2.42899179
-0.56743896	0.98829764	2.42899179
-0.56822479	0.98767030	2.42899203
-0.56880373	0.98697823	2.42899251
-0.56886512	0.98612469	2.42899323
-0.56967854	0.98581600	2.42899323
-0.57004970	0.98424327	2.42899442
-0.57110512	0.98364294	2.42899466
-0.57115579	0.98275268	2.42899561
-0.57191193	0.98209184	2.42899585
-0.57314634	0.98123771	2.42899609
-0.57496876	0.98064870	2.42899609
-0.57492632	0.97894657	2.42899776
-0.57562703	0.97764850	2.42899871
-0.57818377	0.97650641	2.42899871
-0.57879698	0.97464192	2.42900014
-0.57964450	0.97334182	2.42900109
-0.58121598	0.97190648	2.42900181
-0.58286357	0.97036552	2.42900276
-0.58488733	0.96941471	2.42900276
-0.58701009	0.96714950	2.42900419
-0.58789933	0.96655464	2.42900443
-0.58818138	0.96551681	2.42900515
-0.58985651	0.96429461	2.42900586
-0.59278011	0.96278572	2.42900610
-0.59429681	0.96089351	2.42900729
-0.59526169	0.96001244	2.42900777
-0.59592992	0.95878541	2.42900872
-0.59590167	0.95765066	2.42900968
-0.60010421	0.95606911	2.42900944
-0.60534954	0.95477134	2.42900872
-0.60889375	0.95345640	2.42900848
-0.61032039	0.95128334	2.42901015
-0.61264998	0.94908291	2.42901134
-0.61432517	0.94786072	2.42901182
-0.61483461	0.94596398	2.42901349
-0.61704111	0.94547093	2.42901301
-0.61771524	0.94193655	2.42901611
-0.61990631	0.94006008	2.42901707
-0.62084496	0.93967617	2.42901707
-0.62201709	0.93885958	2.42901731
-0.62418157	0.93748051	2.42901778
-0.62558711	0.93623137	2.42901850
-0.62726223	0.93500912	2.42901897
-0.62931764	0.93317115	2.42901993
-0.63226879	0.93198097	2.42901993
-0.63585335	0.92992008	2.42902040
-0.63784438	0.92922139	2.42902017
-0.64058900	0.92796630	2.42902040
-0.64254743	0.92733860	2.42902017
-0.64402992	0.92661905	2.42902040
-0.64508486	0.92601889	2.42902040
-0.65009826	0.92423320	2.42902017
-0.65119350	0.92288685	2.42902112
-0.65316564	0.92201042	2.42902112
-0.65410566	0.92052519	2.42902207
-0.65499234	0.92021561	2.42902207
-0.65905637	0.91877717	2.42902184
-0.66120750	0.91764671	2.42902207
-0.66212940	0.91698080	2.42902231
-0.66357923	0.91633236	2.42902231
-0.66395140	0.91557568	2.42902303
-0.66510153	0.91486675	2.42902327
-0.66608828	0.91387784	2.42902374
-0.66765261	0.91329837	2.42902374
-0.68238306	0.90866059	2.42902231
-0.68461019	0.90724367	2.42902279
-0.68867075	0.90527463	2.42902303
-0.68928486	0.90422624	2.42902374
-0.69107676	0.90278757	2.42902446
-0.69140768	0.90196103	2.42902517
-0.69326222	0.90048474	2.42902589
-0.69433647	0.89732856	2.42902851
-0.69460517	0.89653963	2.42902899
-0.69543946	0.89530718	2.42902994
-0.70063192	0.89326763	2.42902970
-0.70176148	0.89074874	2.42903185
-0.70429885	0.88942915	2.42903209
-0.70612508	0.88681805	2.42903376
-0.70835125	0.88458520	2.42903495
-0.70936018	0.88366956	2.42903543
-0.71007484	0.88275790	2.42903614
-0.71720803	0.88090992	2.42903495
-0.71804106	0.87886155	2.42903662
-0.72775757	0.87519312	2.42903638
-0.72799790	0.87326932	2.42903805
-0.72947991	0.87254989	2.42903829
-0.73053527	0.87194967	2.42903829
-0.73261082	0.87110549	2.42903829
-0.73372841	0.87046766	2.42903852
-0.73438346	0.86948931	2.42903924
-0.73524481	0.86857569	2.42903972
-0.73641694	0.86775911	2.42903996
-0.73794013	0.86710960	2.42903996
-0.74151105	0.86529744	2.42904043
-0.74484885	0.86391789	2.42904043
-0.74724513	0.86302656	2.42904019
-0.74941981	0.86086804	2.42904139
-0.74973184	0.85986364	2.42904234
-0.75042242	0.85934508	2.42904258
-0.75211179	0.85869026	2.42904258
-0.75408381	0.85781372	2.42904258
-0.75471681	0.85694301	2.42904305
-0.75623411	0.85586727	2.42904353
-0.75716698	0.85523784	2.42904377
-0.75906539	0.85436261	2.42904377
-0.75973678	0.85366631	2.42904425
-0.76081139	0.85324371	2.42904425
-0.76286244	0.85279280	2.42904377
-0.76362395	0.85237753	2.42904401
-0.76503038	0.85194445	2.42904377
-0.76591963	0.85134947	2.42904401
-0.76798189	0.85075414	2.42904377
-0.77045667	0.84947205	2.42904401
-0.77118844	0.84902346	2.42904425
-0.77403611	0.84780079	2.42904425
-0.77549112	0.84676260	2.42904472
-0.77697307	0.84604323	2.42904472
-0.77858639	0.84567475	2.42904449
-0.77932554	0.84455109	2.42904520
-0.78189647	0.84397662	2.42904472
-0.78288317	0.84298754	2.42904520
-0.78477931	0.84239745	2.42904520
-0.78539342	0.84134912	2.42904592
-0.78949571	0.84026611	2.42904520
-0.78935063	0.83934748	2.42904615
-0.79061252	0.83881211	2.42904615
-0.79079962	0.83788306	2.42904711
-0.79218417	0.83755761	2.42904687
-0.79367483	0.83697915	2.42904687
-0.79581863	0.83652377	2.42904639
-0.79675633	0.83532369	2.42904711
-0.79950064	0.83406878	2.42904735
-0.80206597	0.83306777	2.42904711
-0.80313420	0.83221877	2.42904758
-0.80520976	0.83137476	2.42904758
-0.80762446	0.82984507	2.42904806
-0.81085885	0.82843304	2.42904806
-0.81084943	0.82747602	2.42904902
-0.81259537	0.82635725	2.42904949
-0.81300730	0.82485443	2.42905068
-0.81536573	0.82378876	2.42905068
-0.81660008	0.82293439	2.42905116
-0.81691241	0.82211107	2.42905188
-0.81835115	0.82142586	2.42905188
-0.81966752	0.82071173	2.42905211
-0.82006109	0.81984752	2.42905259
-0.82237101	0.81938672	2.42905211
-0.82242417	0.81839204	2.42905307
-0.82334960	0.81825674	2.42905283
-0.82516384	0.81752670	2.42905283
-0.82596803	0.81626093	2.42905378
-0.82650584	0.81549901	2.42905426
-0.82975423	0.81483543	2.42905354
-0.83252633	0.81389916	2.42905354
-0.83329844	0.81352067	2.42905354
-0.83547747	0.81270885	2.42905331
-0.83550346	0.81121445	2.42905474
-0.83904183	0.80965418	2.42905498
-0.84074450	0.80875063	2.42905521
-0.84075671	0.80750495	2.42905641
-0.84114206	0.80649960	2.42905712
-0.84258378	0.80571008	2.42905736
-0.84316272	0.80501807	2.42905784
-0.84492755	0.80407691	2.42905784
-0.84586537	0.80287683	2.42905879
-0.84654772	0.80221736	2.42905903
-0.84878904	0.80136788	2.42905903
-0.85015476	0.80086476	2.42905903
-0.85072780	0.79974645	2.42905974
-0.85189217	0.79960495	2.42905951
-0.85196739	0.79868352	2.42906022
-0.85484332	0.79841483	2.42905951
-0.85700297	0.79742527	2.42905951
-0.85758197	0.79673326	2.42905998
-0.85883474	0.79524076	2.42906094
-0.85964257	0.79450572	2.42906117
-0.86107552	0.79357529	2.42906165
-0.86225581	0.79289973	2.42906165
-0.86309493	0.79127765	2.42906308
-0.86409581	0.79085612	2.42906308
-0.86694390	0.78963345	2.42906308
-0.86742413	0.78851938	2.42906380
-0.86814773	0.78792977	2.42906427
-0.86958158	0.78781533	2.42906380
-0.86974907	0.78670859	2.42906475
-0.87228513	0.78649032	2.42906380
-0.87320191	0.78621411	2.42906380
-0.87482262	0.78517067	2.42906427
-0.87640756	0.78366745	2.42906499
-0.87718010	0.78328884	2.42906499
-0.87898099	0.78280741	2.42906475
-0.88012528	0.78167218	2.42906547
-0.88382828	0.78102702	2.42906451
-0.88706136	0.77879906	2.42906547
-0.88759875	0.77722096	2.42906666
-0.88826698	0.77599388	2.42906761
-0.88961905	0.77573955	2.42906737
-0.88973486	0.77470708	2.42906833
-0.89247954	0.77345204	2.42906833
-1.00677311	0.77596295	2.42902088
-1.06865835	0.77939749	2.42899323
-1.07118988	0.78038514	2.42899108
-1.07216322	0.78237844	2.42898893
-1.10645401	0.77842516	2.42897916
-1.15703332	0.77138090	2.42896581
-1.15965915	0.77126265	2.42896485
-1.16005480	0.77221149	2.42896390
-1.16184807	0.77240527	2.42896295
-1.16490352	0.77206337	2.42896199
-1.16587865	0.77295536	2.42896080
-1.16690886	0.77448481	2.42895889
-1.16971660	0.77400815	2.42895842
-1.17027545	0.77505612	2.42895722
-1.17235923	0.77708673	2.42895436
-1.17438626	0.77684772	2.42895389
-1.17535198	0.77678263	2.42895341
-1.17609024	0.77757657	2.42895246
-1.17705715	0.77832747	2.42895126
-1.17800236	0.77918613	2.42895007
-1.18031359	0.78035760	2.42894816
-1.18249345	0.78036201	2.42894721
-1.18360460	0.78121531	2.42894602
-1.18588746	0.78125215	2.42894506
-1.18788803	0.78151047	2.42894411
-1.19013858	0.78179920	2.42894292
-1.19197869	0.78230834	2.42894173
-1.19284940	0.78253293	2.42894101
-1.19348419	0.78329438	2.42894006
-1.19429016	0.78366089	2.42893934
-1.19537246	0.78337938	2.42893934
-1.19629025	0.78391933	2.42893839
-1.19720793	0.78445917	2.42893744
-1.19911313	0.78482628	2.42893648
-1.20022929	0.78528976	2.42893553
-1.20150042	0.78571147	2.42893457
-1.20341659	0.78611529	2.42893338
-1.20405126	0.78687668	2.42893243
-1.20585787	0.78682190	2.42893171
-1.20734930	0.78705943	2.42893100
-1.20815706	0.78905797	2.42892885
-1.20998549	0.78889549	2.42892814
-1.21168029	0.78866708	2.42892766
-1.21239924	0.78928322	2.42892694
-1.21334386	0.78932571	2.42892647
-1.21387577	0.79087114	2.42892480
-1.21667707	0.79188573	2.42892265
-1.21719503	0.79286361	2.42892170
-1.21995366	0.79217601	2.42892122
-1.22041500	0.79361796	2.42891955
-1.22281551	0.79425448	2.42891812
-1.22465062	0.79533428	2.42891622
-1.22645760	0.79527920	2.42891574
-1.22829330	0.79717517	2.42891312
-1.23128748	0.79768705	2.42891145
-1.23541796	0.79773879	2.42890978
-1.23579168	0.79861426	2.42890882
-1.23664761	0.80000794	2.42890716
-1.23748922	0.80083430	2.42890596
-1.23880613	0.80093622	2.42890525
-1.24110353	0.80154049	2.42890382
-1.24200785	0.80232900	2.42890286
-1.24593902	0.80164099	2.42890191
-1.24678063	0.80246735	2.42890072
-1.24840248	0.80223978	2.42890024
-1.24947762	0.80263340	2.42889953
-1.25025105	0.80307090	2.42889881
-1.25152707	0.80310279	2.42889833
-1.25187898	0.80408603	2.42889714
-1.25403142	0.80377179	2.42889667
-1.25476956	0.80456561	2.42889547
-1.25733542	0.80438077	2.42889476
-1.25758386	0.80533147	2.42889380
-1.26155615	0.80471361	2.42889285
-1.26640427	0.80374932	2.42889166
-1.27519798	0.80266446	2.42888927
-1.27648818	0.80326378	2.42888832
-1.27784657	0.80343556	2.42888761
-1.28261960	0.80357397	2.42888546
-1.28481245	0.80332971	2.42888498
-1.28670955	0.80355561	2.42888403
-1.28909588	0.80362487	2.42888284
-1.29235816	0.80334777	2.42888188
-1.29483414	0.80288184	2.42888141
-1.29695129	0.80292386	2.42888045
-1.29799891	0.80299872	2.42887998
-1.30029511	0.80278677	2.42887926
-1.30263352	0.80346102	2.42887783
-1.30622029	0.80384827	2.42887592
-1.30804133	0.80436063	2.42887473
-1.31104827	0.80462396	2.42887330
-1.31480026	0.80418992	2.42887211
-1.31650376	0.80410254	2.42887163
-1.32145536	0.80317056	2.42887068
-1.32235885	0.80314314	2.42887020
-1.32814014	0.80218482	2.42886877
-1.34063685	0.80027395	2.42886567
-1.34173393	0.80055976	2.42886496
-1.34294748	0.80062938	2.42886448
-1.34505117	0.80092013	2.42886329
-1.34594107	0.80114132	2.42886281
-1.36545372	0.79759884	2.42885852
-1.37657070	0.79580456	2.42885590
-1.37904632	0.79533869	2.42885518
-1.38033700	0.79593796	2.42885423
-1.38144815	0.79679126	2.42885303
-1.38685429	0.79605877	2.42885160
-1.38824749	0.79587442	2.42885113
-1.38930333	0.79609036	2.42885041
-1.39199960	0.79580224	2.42884970
-1.39326823	0.79614735	2.42884898
-1.39671111	0.79724854	2.42884660
-1.39940834	0.79741460	2.42884517
-1.40115249	0.79739720	2.42884469
-1.40298092	0.79723459	2.42884398
-1.40477371	0.79697406	2.42884350
-1.40620923	0.79813004	2.42884183
-1.41007829	0.79784155	2.42884064
-1.41331291	0.79724574	2.42883992
-1.41516161	0.79807675	2.42883849
-1.41874838	0.79846424	2.42883658
-1.42033505	0.79859322	2.42883587
-1.42255616	0.79948378	2.42883420
-1.42436302	0.79942870	2.42883348
-1.42563915	0.79946071	2.42883301
-1.42981899	0.79972339	2.42883110
-1.43346798	0.79925692	2.42883015
-1.43535817	0.80097419	2.42882776
-1.43637884	0.80154651	2.42882681
-1.43796563	0.80167544	2.42882586
-1.44253182	0.80174905	2.42882419
-1.44616008	0.80302250	2.42882156
-1.44718122	0.80359471	2.42882061
-1.44891322	0.80464220	2.42881870
-1.45238221	0.80442983	2.42881775
-1.45350683	0.80503428	2.42881656
-1.45420420	0.80575830	2.42881560
-1.45737731	0.80601615	2.42881417
-1.45901895	0.80678260	2.42881274
-1.46208775	0.80619210	2.42881203
-1.46270919	0.80720234	2.42881083
-1.46392298	0.80727190	2.42881036
-1.46558523	0.80711466	2.42880988
-1.46660638	0.80768669	2.42880893
-1.46799946	0.80750233	2.42880845
-1.46919966	0.80782068	2.42880774
-1.47141433	0.80746865	2.42880726
-1.47204900	0.80823028	2.42880630
-1.47297990	0.80852145	2.42880559
-1.47439492	0.80822933	2.42880535
-1.47508383	0.80881214	2.42880440
-1.47578120	0.80953604	2.42880344
-1.47691309	0.80946571	2.42880321
-1.47772717	0.80997324	2.42880225
-1.47958827	0.80973941	2.42880177
-1.48112047	0.81004709	2.42880082
-1.48339605	0.81075895	2.42879939
-1.48438954	0.81101251	2.42879868
-1.48616958	0.81145489	2.42879748
-1.48826027	0.81199437	2.42879629
-1.48987436	0.81244206	2.42879510
-1.49083185	0.81223589	2.42879510
-1.49200439	0.81223547	2.42879462
-1.49306679	0.81287760	2.42879343
-1.49506664	0.81313610	2.42879248
-1.49657154	0.81312501	2.42879200
-1.49761915	0.81319988	2.42879152
-1.49870384	0.81455058	2.42878962
-1.50127554	0.81479198	2.42878842
-1.50431776	0.81469893	2.42878723
-1.50550449	0.81526601	2.42878628
-1.50741482	0.81524330	2.42878556
-1.50875950	0.81566393	2.42878461
-1.50998735	0.81630081	2.42878366
-1.51348400	0.81640720	2.42878199
-1.51495409	0.81675237	2.42878127
-1.51676059	0.81669748	2.42878056
-1.51758790	0.81695628	2.42877984
-1.52015412	0.81677139	2.42877913
-1.52116096	0.81677616	2.42877865
-1.52307189	0.81756985	2.42877722
-1.52376926	0.81829357	2.42877626
-1.52588654	0.81833571	2.42877531
-1.52905953	0.81859362	2.42877388
-1.53074932	0.81875503	2.42877293
-1.53347373	0.81923985	2.42877150
-1.53446746	0.81949347	2.42877078
-1.54077113	0.81830704	2.42876959
-1.54172945	0.81891698	2.42876863
-1.54771626	0.81912482	2.42876601
-1.55379963	0.81812251	2.42876458
-1.55428278	0.81945664	2.42876315
-1.55604863	0.81933177	2.42876244
-1.55797243	0.81906033	2.42876196
-1.56164849	0.81891257	2.42876077
-1.56242180	0.81935018	2.42876005
-1.56373847	0.81945211	2.42875934
-1.56977296	0.81823868	2.42875814
-1.57346261	0.81784248	2.42875695
-1.58235872	0.81597382	2.42875528
-1.58683491	0.81576622	2.42875361
-1.59169722	0.81536937	2.42875218
-1.59421468	0.81578946	2.42875075
-1.59599376	0.81541586	2.42875051
-1.59758055	0.81554490	2.42874980
-1.60473955	0.81493598	2.42874742
-1.60721517	0.81447011	2.42874694
-1.64545476	0.80545962	2.42874050
-1.65356421	0.80340219	2.42873907
-1.65454364	0.80308831	2.42873907
-1.69295263	0.78931689	2.42873716
-1.69777250	0.78721792	2.42873716
-1.71468198	0.77903467	2.42873836
-1.71956348	0.77608180	2.42873907
-1.74637341	0.75830013	2.42874551
-1.78529847	0.71608353	2.42877054
-1.80091667	0.69846475	2.42878103
-1.81643474	0.67605805	2.42879629
-1.82205153	0.66790104	2.42880201
-1.82715154	0.66039830	2.42880702
-1.84548092	0.63275957	2.42882633
-1.87673712	0.57072496	2.42887306
-1.88083172	0.52357149	2.42891645
-1.88077593	0.52211785	2.42891788
-1.87890601	0.50262082	2.42893720
-1.87312889	0.48341855	2.42895794
-1.85519540	0.42497954	2.42902064
-1.81340599	0.36680636	2.42909265
-1.81269526	0.36633119	2.42909360
-1.79528999	0.34645411	2.42911935
-1.79244733	0.34455335	2.42912221
-1.78997660	0.34189594	2.42912579
-1.78926587	0.34142074	2.42912650
-1.78596687	0.33768833	2.42913151
-1.77215910	0.32625535	2.42914772
-1.77079356	0.32675856	2.42914772
-1.76781142	0.32436568	2.42915130
-1.75983477	0.31765264	2.42916083
-1.75275373	0.31158724	2.42916942
-1.75060725	0.30959430	2.42917228
-1.74908316	0.30942771	2.42917299
-1.74706805	0.30778569	2.42917538
-1.73934126	0.30092213	2.42918491
-1.73863053	0.30044693	2.42918563
-1.73531151	0.29845440	2.42918897
-1.73396611	0.29721767	2.42919064
-1.73298609	0.29671538	2.42919135
-1.73233771	0.29620257	2.42919207
-1.73141265	0.29633772	2.42919230
-1.72948730	0.29497689	2.42919445
-1.72843885	0.29408595	2.42919564
-1.72727954	0.29383764	2.42919636
-1.72633445	0.29297900	2.42919755
-1.72497654	0.29280710	2.42919827
-1.72355509	0.29185674	2.42919970
-1.72258830	0.29110578	2.42920089
-1.72076631	0.28977731	2.42920280
-1.71953845	0.28914037	2.42920399
-1.71835172	0.28857329	2.42920494
-1.71669579	0.28723949	2.42920685
-1.71356988	0.28556046	2.42920971
-1.71198690	0.28596225	2.42920995
-1.70888495	0.28325486	2.42921376
-1.70799553	0.28384984	2.42921352
-1.70558083	0.28264588	2.42921567
-1.70318675	0.28051817	2.42921877
-1.70229661	0.28029701	2.42921925
-1.70100605	0.27969775	2.42922020
-1.69995844	0.27962282	2.42922068
-1.69605958	0.27750620	2.42922425
-1.69435716	0.27840969	2.42922425
-1.69194150	0.27638960	2.42922711
-1.69053411	0.27600664	2.42922807
-1.68934917	0.27707186	2.42922735
-1.68794096	0.27587280	2.42922902
-1.68601549	0.27451196	2.42923117
-1.68503737	0.27564183	2.42923045
-1.68281567	0.27457047	2.42923236
-1.68010426	0.27320170	2.42923474
-1.67585385	0.27091801	2.42923856
-1.67506850	0.27154523	2.42923832
-1.67404747	0.27097294	2.42923927
-1.67323315	0.27046537	2.42923999
-1.67142630	0.27052042	2.42924070
-1.66696858	0.26735589	2.42924547
-1.66596174	0.26735106	2.42924595
-1.66454065	0.26640064	2.42924738
-1.66292644	0.26595291	2.42924857
-1.66153240	0.26532131	2.42924953
-1.66053319	0.26464134	2.42925072
-1.65857315	0.26363680	2.42925239
-1.65757942	0.26338330	2.42925310
-1.65601385	0.26233056	2.42925477
-1.65349519	0.26109433	2.42925692
-1.65204060	0.26213250	2.42925644
-1.65092933	0.26127920	2.42925763
-1.64794993	0.26133463	2.42925882
-1.64610159	0.26050353	2.42926025
-1.64343059	0.25902385	2.42926288
-1.64063001	0.25882530	2.42926407
-1.63497317	0.25615853	2.42926884
-1.63229024	0.25655988	2.42926955
-1.63037968	0.25576633	2.42927098
-1.62742054	0.25489801	2.42927313
-1.62667561	0.25559536	2.42927265
-1.62499917	0.25518531	2.42927384
-1.62341332	0.25587243	2.42927361
-1.62253737	0.25621867	2.42927361
-1.62172401	0.25652722	2.42927384
-1.62089646	0.25626841	2.42927432
-1.61871624	0.25544786	2.42927599
-1.61628723	0.25367647	2.42927861
-1.61527824	0.25459221	2.42927814
-1.61068988	0.25107655	2.42928338
-1.60865712	0.25362277	2.42928171
-1.60729063	0.25330991	2.42928243
-1.60514605	0.25294915	2.42928362
-1.60399985	0.25245214	2.42928457
-1.59997106	0.25080049	2.42928791
-1.59788144	0.25107720	2.42928839
-1.59709728	0.25060302	2.42928910
-1.59628141	0.25119692	2.42928886
-1.59470308	0.25120896	2.42928958
-1.59322035	0.25111231	2.42929006
-1.59228981	0.25163728	2.42929006
-1.59140241	0.25113073	2.42929077
-1.59020233	0.25081244	2.42929173
-1.58861232	0.25015271	2.42929292
-1.58751535	0.24986681	2.42929363
-1.58652186	0.24961329	2.42929435
-1.58576334	0.25055924	2.42929363
-1.58302522	0.24950695	2.42929578
-1.58042336	0.24923211	2.42929697
-1.57942975	0.24897853	2.42929769
-1.57842290	0.24897370	2.42929816
-1.57754743	0.24931985	2.42929816
-1.57643688	0.24928269	2.42929864
-1.57541680	0.24952656	2.42929864
-1.57415700	0.24959576	2.42929912
-1.57113504	0.24794894	2.42930198
-1.56909370	0.24762055	2.42930293
-1.56753397	0.24699417	2.42930436
-1.56398201	0.24625048	2.42930627
-1.56310654	0.24659660	2.42930627
-1.55976045	0.24510154	2.42930913
-1.55682266	0.24604309	2.42930937
-1.55578828	0.24571952	2.42931008
-1.55440843	0.24565531	2.42931080
-1.55257845	0.24710041	2.42931008
-1.55149555	0.24738188	2.42931032
-1.54952216	0.24662606	2.42931175
-1.54858112	0.24693331	2.42931175
-1.54749835	0.24721487	2.42931199
-1.54569054	0.24645379	2.42931342
-1.54468727	0.24734165	2.42931294
-1.54259789	0.24761823	2.42931342
-1.54146934	0.24821946	2.42931342
-1.53988659	0.24688470	2.42931533
-1.53758633	0.24830244	2.42931485
-1.53638315	0.24826956	2.42931533
-1.53474474	0.24785301	2.42931628
-1.53370059	0.24867079	2.42931604
-1.53260350	0.24820399	2.42931700
-1.53197300	0.24878921	2.42931652
-1.53115058	0.24814062	2.42931747
-1.53031790	0.24845250	2.42931747
-1.52891088	0.24806951	2.42931843
-1.52741361	0.24740551	2.42931962
-1.52661920	0.24771081	2.42931962
-1.52561986	0.24721186	2.42932057
-1.52265787	0.24581274	2.42932320
-1.52180314	0.24505417	2.42932415
-1.51909935	0.24656020	2.42932367
-1.51805162	0.24630441	2.42932439
-1.51645207	0.24642403	2.42932487
-1.51570117	0.24687594	2.42932487
-1.51394773	0.24575520	2.42932653
-1.51188481	0.24553445	2.42932773
-1.51049161	0.24571891	2.42932796
-1.50860918	0.24606024	2.42932844
-1.50657809	0.24513336	2.42933011
-1.50479603	0.24561146	2.42933035
-1.50312281	0.24573222	2.42933083
-1.50151479	0.24589181	2.42933130
-1.49938250	0.24683799	2.42933130
-1.49864411	0.24622509	2.42933226
-1.49763751	0.24622019	2.42933249
-1.49674797	0.24663417	2.42933249
-1.49589062	0.24634197	2.42933321
-1.49509311	0.24611647	2.42933369
-1.49319553	0.24507430	2.42933536
-1.49235404	0.24424805	2.42933655
-1.49100494	0.24521427	2.42933607
-1.48967028	0.24383323	2.42933798
-1.48629022	0.24351054	2.42933965
-1.48547602	0.24300301	2.42934036
-1.48424864	0.24236596	2.42934155
-1.35290539	0.13464621	2.42949629
-1.35043430	0.13198879	2.42949986
-1.35030270	0.13082162	2.42950106
-1.34971547	0.12863889	2.42950320
-1.34876955	0.12696418	2.42950535
-1.34924507	0.12623981	2.42950583
-1.34801912	0.12468231	2.42950773
-1.34925020	0.12311641	2.42950869
-1.34889722	0.12131713	2.42951059
-1.34845531	0.12005287	2.42951202
-1.34841275	0.11835064	2.42951369
-1.34900498	0.11740994	2.42951417
-1.34964669	0.11668029	2.42951465
-1.35071409	0.11501534	2.42951584
-1.35242355	0.11262064	2.42951751
-1.35226333	0.11031865	2.42951965
-1.35172856	0.10905872	2.42952108
-1.35300314	0.10745843	2.42952228
-1.35302424	0.10653459	2.42952299
-1.35285723	0.10572386	2.42952394
-1.35250795	0.10445525	2.42952514
-1.35281980	0.10363188	2.42952585
-1.35285163	0.10256375	2.42952681
-1.35357726	0.10186976	2.42952728
-1.35399199	0.10008162	2.42952871
-1.35439384	0.09935834	2.42952943
-1.35486937	0.09863400	2.42952991
-1.35754442	0.09617417	2.42953110
-1.35813677	0.09523350	2.42953181
-1.36002648	0.09340087	2.42953277
-1.36121106	0.09151953	2.42953420
-1.36074042	0.08912046	2.42953658
-1.36214030	0.08744487	2.42953777
-1.36123586	0.08665629	2.42953873
-1.36119342	0.08495406	2.42954040
-1.36016405	0.08424073	2.42954159
-1.36066103	0.08340876	2.42954206
-1.36088920	0.08254965	2.42954278
-1.36018324	0.08168474	2.42954397
-1.36085987	0.08059876	2.42954469
-1.35972619	0.07903700	2.42954659
-1.35942316	0.07826490	2.42954755
-1.35956097	0.07712477	2.42954850
-1.35914636	0.07617927	2.42954969
-1.35837996	0.07425052	2.42955184
-1.35780764	0.07345130	2.42955279
-1.35660589	0.07150081	2.42955518
-1.35615003	0.07048531	2.42955613
-1.35565317	0.06858362	2.42955828
-1.35430682	0.06653080	2.42956066
-1.35399592	0.06561758	2.42956161
-1.35454702	0.06460693	2.42956257
-1.35289073	0.06245697	2.42956519
-1.35202074	0.06049589	2.42956734
-1.35209584	0.05939341	2.42956853
-1.35070777	0.05645447	2.42957187
-1.34836781	0.05414813	2.42957497
-1.34881592	0.05310504	2.42957568
-1.34847713	0.05187317	2.42957711
-1.34791744	0.05000915	2.42957902
-1.34685397	0.04773469	2.42958164
-1.34570026	0.04517917	2.42958450
-1.34516883	0.04444997	2.42958546
-1.34453368	0.04287226	2.42958713
-1.34263396	0.04019794	2.42959046
-1.34323490	0.03939825	2.42959094
-1.34331012	0.03829579	2.42959213
-1.34430909	0.03624208	2.42959356
-1.34444594	0.03428583	2.42959547
-1.34296787	0.03106587	2.42959905
-1.34338748	0.02888797	2.42960095
-1.34214461	0.02686751	2.42960334
-1.34241307	0.02607844	2.42960405
-1.34214973	0.02374408	2.42960644
-1.34173501	0.02279858	2.42960739
-1.34211314	0.01973455	2.42961025
-1.34040761	0.01737357	2.42961311
-1.34084094	0.01576318	2.42961454
-1.34090281	0.01490941	2.42961526
-1.34092307	0.01316950	2.42961693
-1.34034908	0.01073807	2.42961955
-1.33983111	0.00976022	2.42962074
-1.33962321	0.00887938	2.42962146
-1.33965755	0.00770690	2.42962265
-1.33889699	0.00620456	2.42962432
-1.33876526	0.00503736	2.42962551
-1.33865488	0.00376257	2.42962694
-1.33797085	0.00279002	2.42962813
-1.33781755	0.00173046	2.42962909
-1.33804548	0.00087139	2.42962980
-1.33765233	-0.00018179	2.42963099
-1.33729208	-0.00130603	2.42963219
-1.33694768	-0.00296430	2.42963386
-1.33608353	-0.00449901	2.42963576
-1.33606327	-0.00549276	2.42963672
-1.33466637	-0.00665522	2.42963839
-1.33530998	-0.00767013	2.42963910
-1.33471608	-0.00836166	2.42964005
-1.33464694	-0.00956652	2.42964125
-1.33409309	-0.01100416	2.42964268
-1.33357501	-0.01198205	2.42964387
-1.33336747	-0.01286288	2.42964482
-1.33311296	-0.01424007	2.42964625
-1.33177245	-0.01586651	2.42964816
-1.33255243	-0.01692016	2.42964888
-1.33114469	-0.01811927	2.42965078
-1.33052313	-0.01912951	2.42965198
-1.33124030	-0.02014546	2.42965269
-1.33054328	-0.02086946	2.42965364
-1.33003867	-0.02209601	2.42965484
-1.33016300	-0.02298746	2.42965579
-1.32857454	-0.02474857	2.42965794
-1.32878816	-0.02617511	2.42965937
-1.32825601	-0.02772037	2.42966104
-1.32714391	-0.02938973	2.42966294
-1.32768226	-0.03015179	2.42966342
-1.32713652	-0.03144839	2.42966509
-1.32523739	-0.03412275	2.42966819
-1.32583785	-0.03492241	2.42966890
-1.32570601	-0.03608954	2.42967010
-1.32539487	-0.03700273	2.42967105
-1.32498014	-0.03794823	2.42967200
-1.32500136	-0.03887205	2.42967296
-1.32385445	-0.04018513	2.42967463
-1.32453096	-0.04127112	2.42967534
-1.32442653	-0.04211953	2.42967629
-1.32392859	-0.04483733	2.42967892
-1.32309949	-0.04672842	2.42968106
-1.32326472	-0.04754981	2.42968178
-1.32252550	-0.04915980	2.42968369
-1.32296038	-0.04995417	2.42968440
-1.32254565	-0.05089971	2.42968535
-1.32260668	-0.05256958	2.42968702
-1.32219207	-0.05351511	2.42968798
-1.32259083	-0.05476919	2.42968893
-1.32240486	-0.05575769	2.42969012
-1.32172763	-0.05822147	2.42969275
-1.32107866	-0.05955040	2.42969418
-1.32097435	-0.06039891	2.42969513
-1.32002103	-0.06139854	2.42969632
-1.32051814	-0.06223052	2.42969704
-1.32037294	-0.06314901	2.42969799
-1.31968784	-0.06493765	2.42969990
-1.31947374	-0.06706100	2.42970204
-1.31864452	-0.06895205	2.42970419
-1.31798220	-0.07003228	2.42970538
-1.31803000	-0.07145347	2.42970681
-1.31789815	-0.07262067	2.42970800
-1.31727660	-0.07363088	2.42970920
-1.31681299	-0.07478752	2.42971039
-1.31699979	-0.07571654	2.42971134
-1.31643236	-0.07690546	2.42971253
-1.31683969	-0.07801855	2.42971349
-1.31652856	-0.07893173	2.42971444
-1.31453180	-0.08121211	2.42971754
-1.31589890	-0.08281666	2.42971849
-1.31484210	-0.08384869	2.42971992
-1.31506968	-0.08470771	2.42972064
-1.31538677	-0.08610187	2.42972183
-1.31439221	-0.08717149	2.42972326
-1.31503391	-0.08790115	2.42972374
-1.31363893	-0.08934885	2.42972565
-1.31407368	-0.09014326	2.42972612
-1.31319606	-0.09142923	2.42972779
-1.31383765	-0.09215888	2.42972827
-1.31369257	-0.09307736	2.42972922
-1.31308436	-0.09433629	2.42973065
-1.31295264	-0.09550348	2.42973185
-1.31276584	-0.09730808	2.42973351
-1.31178486	-0.09862638	2.42973518
-1.31207454	-0.10033923	2.42973661
-1.31137621	-0.10187922	2.42973852
-1.31080401	-0.10267846	2.42973948
-1.31063712	-0.10348921	2.42974019
-1.31023610	-0.10468352	2.42974162
-1.31041479	-0.10575360	2.42974257
-1.30997264	-0.10701786	2.42974401
-1.30919278	-0.10869789	2.42974591
-1.30861211	-0.10963809	2.42974687
-1.30915022	-0.11040011	2.42974734
-1.30802476	-0.11182082	2.42974925
-1.30737591	-0.11314979	2.42975068
-1.30592608	-0.11523494	2.42975330
-1.30529130	-0.11599652	2.42975426
-1.30449557	-0.11714245	2.42975569
-1.30502546	-0.11804554	2.42975640
-1.30386758	-0.11939520	2.42975807
-1.30416882	-0.12025531	2.42975879
-1.30341649	-0.12161662	2.42976046
-1.30213261	-0.12370716	2.42976284
-1.30204165	-0.12480426	2.42976403
-1.30137944	-0.12588455	2.42976522
-1.30154371	-0.12752201	2.42976689
-1.30059791	-0.12919673	2.42976880
-1.29943073	-0.13150357	2.42977142
-1.29759490	-0.13339952	2.42977405
-1.29712594	-0.13416633	2.42977500
-1.29669714	-0.13567924	2.42977643
-1.29610372	-0.13637084	2.42977738
-1.29599333	-0.13764568	2.42977858
-1.29479146	-0.13959616	2.42978096
-1.29432237	-0.14036295	2.42978191
-1.29382360	-0.14116320	2.42978287
-1.29398334	-0.14241101	2.42978406
-1.29334843	-0.14317256	2.42978501
-1.29294729	-0.14436676	2.42978621
-1.29259527	-0.14534995	2.42978740
-1.29162180	-0.14734340	2.42978954
-1.29089689	-0.14838597	2.42979097
-1.29111624	-0.14938606	2.42979169
-1.29064751	-0.15015294	2.42979264
-1.28972816	-0.15232502	2.42979503
-1.28948200	-0.15338023	2.42979622
-1.28890920	-0.15499553	2.42979813
-1.28805923	-0.15596285	2.42979932
-1.28825927	-0.15714057	2.42980027
-1.28727841	-0.15845899	2.42980194
-1.28750598	-0.15931800	2.42980266
-1.28588533	-0.16100819	2.42980504
-1.28645623	-0.16184124	2.42980552
-1.28616560	-0.16367811	2.42980742
-1.28558540	-0.16461842	2.42980862
-1.28539908	-0.16560684	2.42980957
-1.28443992	-0.16703287	2.42981124
-1.28505981	-0.16765490	2.42981172
-1.28501797	-0.16854097	2.42981243
-1.28376198	-0.17031279	2.42981458
-1.28330576	-0.17214446	2.42981648
-1.28215289	-0.17388389	2.42981863
-1.28216541	-0.17494868	2.42981982
-1.28137219	-0.17638002	2.42982149
-1.28126788	-0.17722847	2.42982221
-1.28048038	-0.17823339	2.42982364
-1.28066730	-0.17916252	2.42982435
-1.28053582	-0.18032967	2.42982554
-1.28000343	-0.18187496	2.42982721
-1.27872527	-0.18353900	2.42982936
-1.27880895	-0.18450050	2.42983007
-1.27847028	-0.18573236	2.42983150
-1.27814484	-0.18721299	2.42983294
-1.27629483	-0.18985726	2.42983627
-1.27534854	-0.19135097	2.42983818
-1.27439535	-0.19235064	2.42983937
-1.27447891	-0.19349305	2.42984056
-1.27378047	-0.19503300	2.42984223
-1.27364910	-0.19601926	2.42984319
-1.27286887	-0.19788021	2.42984533
-1.27293074	-0.19873400	2.42984605
-1.27211559	-0.20005760	2.42984772
-1.27207398	-0.20094377	2.42984843
-1.27177632	-0.20192465	2.42984962
-1.27121735	-0.20315349	2.42985106
-1.27033973	-0.20425855	2.42985249
-1.27064335	-0.20558494	2.42985344
-1.26935136	-0.20763548	2.42985606
-1.26877928	-0.20861571	2.42985725
-1.26875079	-0.20956951	2.42985797
-1.26821971	-0.21047972	2.42985916
-1.26792169	-0.21146053	2.42986012
-1.26883256	-0.21234411	2.42986059
-1.26888013	-0.21376531	2.42986202
-1.26711929	-0.21676362	2.42986560
-1.26709092	-0.21789849	2.42986655
-1.26694584	-0.21881697	2.42986751
-1.26599932	-0.22130783	2.42987037
-1.26624000	-0.22241554	2.42987132
-1.26552892	-0.22370692	2.42987275
-1.26504481	-0.22585720	2.42987514
-1.26469195	-0.22765647	2.42987704
-1.26285541	-0.23036852	2.42988014
-1.26317263	-0.23176269	2.42988133
-1.26252270	-0.23390774	2.42988372
-1.26206732	-0.23492332	2.42988491
-1.26154935	-0.23590118	2.42988610
-1.26113379	-0.23766281	2.42988777
-1.26036716	-0.23959152	2.42988992
-1.26018047	-0.24139619	2.42989182
-1.25915766	-0.24360052	2.42989445
-1.25791466	-0.24562100	2.42989683
-1.25808692	-0.24793372	2.42989898
-1.25684392	-0.24995415	2.42990136
-1.25579453	-0.25166124	2.42990327
-1.25575292	-0.25254735	2.42990422
-1.25359166	-0.25592387	2.42990828
-1.25343251	-0.25740978	2.42990971
-1.25234151	-0.26000294	2.42991281
-1.25158811	-0.26218036	2.42991495
-1.24933743	-0.26502177	2.42991877
-1.24987566	-0.26578385	2.42991924
-1.24892974	-0.26745850	2.42992115
-1.24697602	-0.26995414	2.42992425
-1.24544191	-0.27189398	2.42992687
-1.24598837	-0.27251500	2.42992711
-1.24373794	-0.27535647	2.42993069
-1.24346781	-0.27619958	2.42993164
-1.24248683	-0.27751800	2.42993331
-1.24238992	-0.27904144	2.42993474
-1.24193466	-0.28005704	2.42993593
-1.24118221	-0.28141838	2.42993760
-1.24097443	-0.28229913	2.42993855
-1.24005544	-0.28447130	2.42994094
-1.23952413	-0.28520054	2.42994189
-1.23847473	-0.28690755	2.42994380
-1.23650205	-0.28958100	2.42994714
-1.23225689	-0.29498804	2.42995405
-1.23102832	-0.29644120	2.42995596
-1.23035121	-0.29890496	2.42995858
-1.22909486	-0.30067676	2.42996073
-1.22836995	-0.30171931	2.42996192
-1.22709954	-0.30405849	2.42996478
-1.22597420	-0.30547920	2.42996645
-1.22492480	-0.30718625	2.42996860
-1.22387576	-0.30889341	2.42997050
-1.22303319	-0.31053579	2.42997241
-1.22083092	-0.31398228	2.42997670
-1.21720767	-0.31837916	2.42998219
-1.21552908	-0.32042137	2.42998481
-1.21421874	-0.32201451	2.42998695
-1.21271312	-0.32555321	2.42999101
-1.21059787	-0.32924944	2.42999530
-1.20451689	-0.33655256	2.43000460
-1.20286024	-0.33870241	2.43000746
-1.20234227	-0.33968031	2.43000841
-1.20157921	-0.34107828	2.43001008
-1.19672692	-0.34692824	2.43001771
-1.19557416	-0.34866768	2.43001986
-1.19412434	-0.35075283	2.43002224
-1.19286811	-0.35252455	2.43002439
-1.19212902	-0.35413459	2.43002629
-1.18914032	-0.35777003	2.43003106
-1.18639255	-0.36251307	2.43003654
-1.16874480	-0.38291454	2.43006301
-1.16297495	-0.38930446	2.43007135
-1.12551856	-0.42993414	2.43012500
-1.09785664	-0.45311552	2.43015814
-1.06075799	-0.47902930	2.43019748
-1.05485213	-0.48264688	2.43020320
-1.03337204	-0.49565479	2.43022418
-1.00400662	-0.51072884	2.43025017
-1.00015724	-0.51263446	2.43025351
-0.99099636	-0.51664996	2.43026090
-0.96258920	-0.52856123	2.43028355
-0.84853053	-0.57625633	2.43037415
-0.81337786	-0.59079838	2.43040180
-0.75861835	-0.60907412	2.43044090
-0.64990622	-0.63287300	2.43050647
-0.59288979	-0.63819551	2.43053412
-0.48522675	-0.64679986	2.43058491
-0.44936723	-0.64716387	2.43059945
-0.43819436	-0.64682317	2.43060350
-0.43094572	-0.64649540	2.43060613
-0.41753325	-0.64349222	2.43060851
-0.35916534	-0.62897038	2.43061757
-0.35088965	-0.62690765	2.43061900
-0.29452369	-0.60776150	2.43062305
-0.26773465	-0.59619009	2.43062258
-0.24771032	-0.58709639	2.43062162
-0.17078599	-0.54052699	2.43060756
-0.16701558	-0.53672081	2.43060541
-0.03000301	-0.43827668	2.43056560
-0.03050181	-0.43474287	2.43056202
-0.04263029	-0.26223326	2.43039274
-0.04180101	-0.26139066	2.43039227
-0.04102847	-0.26101211	2.43039203
-0.04124534	-0.25644040	2.43038774
-0.04111615	-0.25515926	2.43038654
-0.04054275	-0.25404090	2.43038559
-0.04057965	-0.25276506	2.43038440
-0.04018572	-0.25190070	2.43038368
-0.03994486	-0.25079298	2.43038273
-0.04003638	-0.24887958	2.43038082
-0.03962949	-0.24776658	2.43038011
-0.03914154	-0.24597746	2.43037844
-0.03861749	-0.24464804	2.43037748
-0.03860503	-0.24358326	2.43037653
-0.03854325	-0.24272940	2.43037558
-0.03790167	-0.24199978	2.43037510
-0.03736609	-0.23878950	2.43037224
-0.03724280	-0.23708200	2.43037081
-0.03688490	-0.23575795	2.43036962
-0.03670639	-0.23468781	2.43036866
-0.03633431	-0.23393115	2.43036819
-0.03616309	-0.23080242	2.43036532
-0.03604722	-0.22976995	2.43036437
-0.03592318	-0.22887853	2.43036342
-0.03549659	-0.22794312	2.43036270
-0.03487036	-0.22583005	2.43036103
-0.03480953	-0.22416019	2.43035936
-0.03437468	-0.22336581	2.43035889
-0.03427944	-0.22052354	2.43035603
-0.03406021	-0.21952331	2.43035531
-0.03368899	-0.21795055	2.43035388
-0.03325424	-0.21715617	2.43035340
-0.03295296	-0.21356243	2.43035007
-0.03285635	-0.21235228	2.43034887
-0.03263792	-0.21053615	2.43034720
-0.03238335	-0.20917964	2.43034601
-0.03186029	-0.20703420	2.43034410
-0.03179249	-0.20387313	2.43034124
-0.03091779	-0.20271078	2.43034053
-0.03013918	-0.20002496	2.43033814
-0.03009248	-0.19778764	2.43033600
-0.02996978	-0.19526398	2.43033361
-0.02950844	-0.19397235	2.43033266
-0.02938518	-0.19226477	2.43033099
-0.02872425	-0.19171274	2.43033075
-0.02832559	-0.18772507	2.43032718
-0.02786425	-0.18643326	2.43032622
-0.02750072	-0.18553558	2.43032551
-0.02730203	-0.18272567	2.43032289
-0.02707413	-0.18186650	2.43032217
-0.02655873	-0.18039611	2.43032098
-0.02643597	-0.17787236	2.43031859
-0.02635273	-0.17691103	2.43031764
-0.02623689	-0.17587858	2.43031669
-0.02603641	-0.17470071	2.43031573
-0.02571365	-0.17373306	2.43031478
-0.02551413	-0.17173922	2.43031311
-0.02524549	-0.17095006	2.43031240
-0.02488801	-0.16962606	2.43031120
-0.02415878	-0.16672918	2.43030882
-0.02386999	-0.16420019	2.43030643
-0.02340868	-0.16290841	2.43030548
-0.02300397	-0.15934700	2.43030214
-0.02246702	-0.15776902	2.43030095
-0.02204305	-0.15165162	2.43029523
-0.02168602	-0.14951137	2.43029332
-0.02160403	-0.14691770	2.43029094
-0.02123275	-0.14534491	2.43028951
-0.02113208	-0.14292896	2.43028736
-0.02072513	-0.14181593	2.43028641
-0.02055568	-0.13978869	2.43028450
-0.02032772	-0.13892958	2.43028378
-0.01987964	-0.13788658	2.43028283
-0.01979128	-0.13653541	2.43028164
-0.01916417	-0.13523835	2.43028069
-0.01898655	-0.13335222	2.43027902
-0.01886213	-0.13246071	2.43027806
-0.01832563	-0.13006645	2.43027616
-0.01814795	-0.12818030	2.43027449
-0.01766643	-0.12514865	2.43027163
-0.01736468	-0.12237105	2.43026924
-0.01711026	-0.12101460	2.43026805
-0.01682962	-0.11561090	2.43026280
-0.01645836	-0.11403814	2.43026161
-0.01611416	-0.11296272	2.43026066
-0.01550905	-0.10822356	2.43025637
-0.01491116	-0.10497564	2.43025351
-0.01440218	-0.10226268	2.43025112
-0.01425119	-0.10087377	2.43024993
-0.01412846	-0.09835017	2.43024755
-0.01380825	-0.09220052	2.43024182
-0.01364309	-0.09137911	2.43024111
-0.01326671	-0.08668286	2.43023658
-0.01320498	-0.08582914	2.43023586
-0.01302728	-0.08394292	2.43023419
-0.01248911	-0.08318084	2.43023372
-0.01184361	-0.07851183	2.43022943
-0.01121193	-0.07327521	2.43022466
-0.01078795	-0.06715786	2.43021894
-0.01017086	-0.06135398	2.43021369
-0.00962843	-0.05665243	2.43020940
-0.00928465	-0.05476087	2.43020773
-0.00905848	-0.05226958	2.43020558
-0.00814407	-0.03605771	2.43019032
-0.00721659	-0.03035086	2.43018532
-0.00491656	0.01279944	2.43014503
-0.00383596	0.05088595	2.43010902
-0.00387843	0.05258819	2.43010736
-0.00548556	0.08387348	2.43007708
-0.00595595	0.08627251	2.43007445
-0.00626868	0.09446624	2.43006659
-0.00647044	0.09765431	2.43006349
-0.00779763	0.13534048	2.43002701
-0.00812294	0.13682109	2.43002534
-0.00841151	0.14504585	2.43001747
-0.00863847	0.14610425	2.43001628
-0.00880684	0.14854735	2.43001390
-0.00900041	0.15159437	2.43001103
-0.00955500	0.15658185	2.43000603
-0.01017825	0.15922427	2.43000317
-0.01055162	0.16283345	2.42999959
-0.01080874	0.16392535	2.42999840
-0.01108648	0.16682705	2.42999554
-0.01141660	0.17867157	2.42998409
-0.02088311	0.23566011	2.42992592
-0.02174795	0.24074462	2.42992091
-0.02219006	0.24200886	2.42991948
-0.02261887	0.24352178	2.42991781
-0.02986634	0.29359376	2.42986703
-0.04914637	0.42862216	2.42973065
-0.04909872	0.43004334	2.42972922
-0.04871333	0.43104878	2.42972851
-0.04821894	0.43432897	2.42972565
-0.04882205	0.43871137	2.42972112
-0.04769064	0.43959793	2.42972064
-0.04782243	0.44076508	2.42971969
-0.04738851	0.44237566	2.42971826
-0.04704509	0.44426700	2.42971659
-0.04673625	0.44580227	2.42971516
-0.04590313	0.44785058	2.42971349
-0.04538003	0.44999614	2.42971182
-0.04454647	0.45204464	2.42971015
-0.04400922	0.45362276	2.42970872
-0.04356285	0.45629799	2.42970634
-0.04286070	0.45869744	2.42970443
-0.04233754	0.46084300	2.42970252
-0.04228994	0.46226415	2.42970133
-0.04203539	0.46362066	2.42970014
-0.04179511	0.46554452	2.42969823
-0.04142335	0.46630114	2.42969775
-0.04112221	0.46989489	2.42969441
-0.04108788	0.47106737	2.42969322
-0.04114443	0.47333702	2.42969108
-0.04051707	0.47463414	2.42969012
-0.04040794	0.47690898	2.42968798
-0.04035528	0.48145357	2.42968369
-0.04028837	0.48543078	2.42967987
-0.04012314	0.48625225	2.42967916
-0.04014678	0.49051031	2.42967510
-0.04036187	0.49344975	2.42967224
-0.04032837	0.49543837	2.42967033
-0.04039922	0.49827543	2.42966771
-0.04041936	0.49926916	2.42966676
-0.03984035	0.49996120	2.42966628
-0.04030573	0.50548363	2.42966080
-0.04035646	0.50732690	2.42965889
-0.04020541	0.50871575	2.42965770
-0.04035132	0.51045036	2.42965603
-0.03983504	0.51110464	2.42965555
-0.03994705	0.51401162	2.42965269
-0.03916208	0.51545507	2.42965174
-0.03927541	0.51999432	2.42964721
-0.03888415	0.52330697	2.42964435
-0.03879565	0.52465814	2.42964315
-0.03836909	0.52559358	2.42964244
-0.03843271	0.52910566	2.42963886
-0.03842016	0.53017050	2.42963791
-0.03837263	0.53159165	2.42963672
-0.03853360	0.53470969	2.42963362
-0.03847269	0.53637964	2.42963195
-0.03850343	0.53741008	2.42963099
-0.03856017	0.53967971	2.42962885
-0.03795778	0.54139978	2.42962742
-0.03752381	0.54301035	2.42962599
-0.03732114	0.54447347	2.42962480
-0.03736038	0.54546392	2.42962384
-0.03709536	0.54696459	2.42962241
-0.03696331	0.55108392	2.42961860
-0.03660631	0.55322403	2.42961669
-0.03673121	0.55588245	2.42961407
-0.03630587	0.56036758	2.42961001
-0.03627161	0.56154013	2.42960882
-0.03618312	0.56289124	2.42960763
-0.03587117	0.56389570	2.42960668
-0.03533467	0.56628984	2.42960477
-0.03521279	0.56962961	2.42960167
-0.03507546	0.57076967	2.42960048
-0.03474411	0.57159644	2.42959976
-0.03432444	0.57377428	2.42959785
-0.03398065	0.57566583	2.42959619
-0.03332615	0.57664412	2.42959571
-0.03274199	0.58045948	2.42959213
-0.03279872	0.58272910	2.42958999
-0.03267603	0.58525276	2.42958760
-0.03255327	0.58777648	2.42958522
-0.03210560	0.58881944	2.42958450
-0.03191426	0.59095442	2.42958260
-0.03140385	0.59203506	2.42958164
-0.03092847	0.59275937	2.42958117
-0.03091178	0.59776366	2.42957640
-0.03053965	0.59852040	2.42957592
-0.03058212	0.60022265	2.42957425
-0.03023752	0.60129809	2.42957330
-0.02958342	0.60309249	2.42957187
-0.02948683	0.60430264	2.42957067
-0.02954356	0.60657227	2.42956853
-0.02904144	0.60779387	2.42956758
-0.02853074	0.60887468	2.42956662
-0.02821615	0.61271709	2.42956328
-0.02757490	0.61344671	2.42956281
-0.02761875	0.61678123	2.42955947
-0.02708095	0.61754316	2.42955899
-0.02645352	0.61884022	2.42955804
-0.02649598	0.62054247	2.42955637
-0.02616647	0.62300146	2.42955422
-0.02580379	0.62744892	2.42955017
-0.02556348	0.62937266	2.42954826
-0.02479095	0.62975127	2.42954826
-0.02484756	0.63202095	2.42954612
-0.02454551	0.63479865	2.42954350
-0.02420177	0.63669008	2.42954183
-0.02296312	0.64148384	2.42953777
-0.02261426	0.64649880	2.42953324
-0.02249148	0.64902240	2.42953086
-0.02254823	0.65129197	2.42952871
-0.02236405	0.65466940	2.42952538
-0.02224134	0.65719301	2.42952299
-0.02222214	0.65974897	2.42952061
-0.02204446	0.66163516	2.42951894
-0.02197667	0.66479635	2.42951584
-0.02161956	0.66693658	2.42951393
-0.02144111	0.66800660	2.42951298
-0.02113847	0.66996807	2.42951131
-0.02095992	0.67103821	2.42951035
-0.02070550	0.67239463	2.42950916
-0.02059688	0.67548573	2.42950630
-0.02016302	0.67709625	2.42950487
-0.02005443	0.68018723	2.42950201
-0.01999359	0.68185711	2.42950034
-0.01984256	0.68324596	2.42949915
-0.01908449	0.68419188	2.42949867
-0.01898504	0.69097376	2.42949224
-0.01881986	0.69179517	2.42949152
-0.01849020	0.69425416	2.42948914
-0.01824993	0.69617802	2.42948747
-0.01811339	0.69813406	2.42948556
-0.01781222	0.70172793	2.42948222
-0.01787790	0.70768839	2.42947674
-0.01787193	0.70999563	2.42947435
-0.01770676	0.71081704	2.42947364
-0.01768744	0.71337301	2.42947125
-0.01757892	0.71646404	2.42946839
-0.01767250	0.72274315	2.42946243
-0.01772403	0.72813624	2.42945719
-0.01767651	0.72955739	2.42945576
-0.01865191	0.75824028	2.42942810
-0.01998133	0.77878475	2.42940784
-0.02269261	0.81532919	2.42937207
-0.02349142	0.82520711	2.42936230
-0.02403275	0.83044320	2.42935705
-0.02416456	0.83161026	2.42935586
-0.02564600	0.84082830	2.42934656
-0.03152540	0.87000066	2.42931628
-0.03839847	0.89942622	2.42928553
-0.03972539	0.90403509	2.42928052
