//X	Y	Z
0.09760650	-2.35956645	5.82201004
0.09822044	-2.35204291	5.82201004
0.09830515	-2.34871149	5.82201004
0.11470960	-2.32836652	5.82200909
0.12572002	-2.32322431	5.82200861
0.12906799	-2.30086803	5.82200861
0.12602484	-2.29077053	5.82200861
0.12075505	-2.26905203	5.82200861
0.12831138	-2.24660945	5.82200813
0.14254306	-2.18438768	5.82200670
0.15334363	-2.17157769	5.82200623
0.15795773	-2.16276526	5.82200623
0.16342771	-2.11883950	5.82200527
0.22377384	-2.09865093	5.82200336
0.46144962	-2.18587041	5.82199621
0.52411771	-1.99256074	5.82199240
0.57388413	-2.02123880	5.82199097
0.59685922	-2.03455758	5.82199001
0.62067151	-2.04142046	5.82198954
0.63430136	-2.04230475	5.82198906
0.64067549	-2.04444218	5.82198906
0.64605969	-2.04530239	5.82198858
0.64859068	-2.04519701	5.82198858
0.65592551	-2.04541135	5.82198858
0.66352558	-2.04676223	5.82198811
0.67037892	-2.04643965	5.82198811
0.68516266	-2.04673696	5.82198763
0.68881267	-2.04764342	5.82198715
0.69236839	-2.04721689	5.82198715
0.70540273	-2.04769516	5.82198668
0.70754635	-2.04838562	5.82198668
0.72271168	-2.05268574	5.82198620
0.74268740	-2.07970071	5.82198572
0.74675959	-2.07821226	5.82198572
0.74774933	-2.07948971	5.82198572
0.76014757	-2.08595920	5.82198524
0.76234841	-2.08658409	5.82198524
0.76346743	-2.08759594	5.82198524
0.82766277	-2.04412365	5.82198286
0.83394694	-2.03366351	5.82198238
0.84481728	-2.01765680	5.82198191
0.84627932	-2.01480651	5.82198191
0.85156798	-2.00786781	5.82198143
0.85100019	-2.00419617	5.82198143
0.85294127	-1.99888587	5.82198143
0.85393679	-1.99536467	5.82198143
0.85472417	-1.99064112	5.82198143
0.85724580	-1.98587120	5.82198095
0.85690850	-1.98493457	5.82198095
0.85599059	-1.98345757	5.82198095
0.86112809	-1.97525120	5.82198095
0.86168492	-1.96779287	5.82198095
0.86255151	-1.96453655	5.82198095
0.86206287	-1.96233237	5.82198095
0.86476356	-1.95556438	5.82198048
0.86471212	-1.95083165	5.82198048
0.93463492	-1.79772305	5.82197666
0.93859088	-1.79336894	5.82197666
0.93960857	-1.79138052	5.82197618
0.94350725	-1.78709197	5.82197618
0.94479018	-1.78623986	5.82197618
0.95324022	-1.77800333	5.82197571
0.95622844	-1.77390480	5.82197571
0.95732516	-1.77338362	5.82197571
0.96801871	-1.76237237	5.82197523
0.97383088	-1.75603938	5.82197475
0.97524285	-1.75492179	5.82197475
0.97678405	-1.75353920	5.82197475
0.97819608	-1.75242186	5.82197475
1.00093043	-1.73114824	5.82197380
1.01037598	-1.71939015	5.82197332
1.01216030	-1.71761119	5.82197332
1.01477599	-1.71417439	5.82197285
1.01964247	-1.70963013	5.82197285
1.02541995	-1.70489550	5.82197285
1.02751935	-1.70252013	5.82197237
1.02937555	-1.70054150	5.82197237
1.03355479	-1.69725490	5.82197237
1.03520989	-1.69574142	5.82197237
1.03991234	-1.69306087	5.82197189
1.04223502	-1.69175339	5.82197189
1.04696691	-1.69227290	5.82197189
1.05352569	-1.68761373	5.82197142
1.05832016	-1.68326902	5.82197142
1.07162392	-1.67361951	5.82197094
1.07839811	-1.67182922	5.82197046
1.08396709	-1.66589248	5.82197046
1.09429002	-1.66200864	5.82196999
1.10725796	-1.65788794	5.82196951
1.11164510	-1.65580368	5.82196951
1.11267006	-1.65548241	5.82196903
1.11750162	-1.65253663	5.82196903
1.13060975	-1.63855350	5.82196856
1.14206445	-1.63254976	5.82196808
1.14554119	-1.63065553	5.82196808
1.15414226	-1.62368667	5.82196760
1.16249824	-1.61411667	5.82196712
1.18006217	-1.58838654	5.82196617
1.19313192	-1.56653881	5.82196569
1.18821049	-1.45025277	5.82196474
1.13642156	-1.35377240	5.82196522
1.12823534	-1.35668004	5.82196569
1.06342065	-1.30584049	5.82196712
1.05815041	-1.30484915	5.82196712
1.05488765	-1.30314684	5.82196712
1.04899263	-1.29854953	5.82196760
1.03302217	-1.28617525	5.82196808
1.02417970	-1.27927923	5.82196808
1.00760102	-1.26963043	5.82196856
1.00321937	-1.26691604	5.82196856
1.00027180	-1.26461744	5.82196856
0.99807107	-1.26399255	5.82196856
0.98750132	-1.25881004	5.82196903
0.98489118	-1.25744808	5.82196903
0.97771323	-1.25370264	5.82196951
0.97411329	-1.25106323	5.82196951
0.97131693	-1.25003231	5.82196951
0.96923023	-1.24927628	5.82196951
0.96550119	-1.24690223	5.82196951
0.96447635	-1.24722362	5.82196951
0.95754164	-1.24308169	5.82196999
0.95440793	-1.24111390	5.82196999
0.95146054	-1.23881519	5.82196999
0.94041157	-1.23609281	5.82197046
0.93560779	-1.23577297	5.82197046
0.93270451	-1.23654020	5.82197046
0.91855121	-1.23505020	5.82197094
0.91718924	-1.23443460	5.82197094
0.91348219	-1.23359394	5.82197142
0.90977520	-1.23275280	5.82197142
0.90679294	-1.23205256	5.82197142
0.90541565	-1.23157144	5.82197142
0.89781553	-1.23022079	5.82197189
0.88846624	-1.22905016	5.82197189
0.87809199	-1.22820115	5.82197237
0.87457103	-1.22702944	5.82197237
0.86380953	-1.22697639	5.82197285
0.85991639	-1.22646654	5.82197285
0.85589421	-1.22622180	5.82197285
0.84686005	-1.22445512	5.82197332
0.84056497	-1.22378540	5.82197332
0.83372438	-1.22097671	5.82197380
0.82628107	-1.21609473	5.82197380
0.82103872	-1.21183789	5.82197380
0.81049681	-1.20338964	5.82197428
0.80900562	-1.20303953	5.82197428
0.80546266	-1.20033479	5.82197428
0.79925239	-1.19633377	5.82197475
0.67276204	-1.09182394	5.82197762
0.66551065	-1.08181250	5.82197762
0.65883982	-1.07234132	5.82197762
0.65269238	-1.06347597	5.82197809
0.63735211	-1.04990935	5.82197809
0.63542229	-1.04562235	5.82197809
0.63112551	-1.03957677	5.82197857
0.62890267	-1.03741884	5.82197857
0.62726015	-1.03580117	5.82197857
0.60733002	-1.01831830	5.82197905
0.58174121	-0.99417412	5.82197952
0.57145756	-0.98519516	5.82198000
0.56817263	-0.98195988	5.82198000
0.56389791	-0.97744727	5.82198000
0.55108893	-0.96377504	5.82198000
0.54827052	-0.96121109	5.82198048
0.53368986	-0.94618678	5.82198048
0.52764374	-0.94032168	5.82198095
0.52114612	-0.93365109	5.82198095
0.48913872	-0.90430403	5.82198143
0.48874432	-0.90343297	5.82198143
0.46414524	-0.88056600	5.82198238
0.45514446	-0.87073535	5.82198238
0.45042545	-0.86708426	5.82198238
0.43977654	-0.86043435	5.82198286
0.43106323	-0.85327274	5.82198286
0.42858219	-0.85164547	5.82198286
0.40032029	-0.83100379	5.82198381
0.39901528	-0.83032280	5.82198381
0.39481980	-0.82727760	5.82198381
0.38750559	-0.82213032	5.82198381
0.38476640	-0.82103372	5.82198429
0.38057083	-0.81798857	5.82198429
0.37448972	-0.81372219	5.82198429
0.37154227	-0.81142336	5.82198429
0.35685474	-0.79819709	5.82198477
0.34967688	-0.79445171	5.82198477
0.34427029	-0.79205889	5.82198524
0.33988872	-0.78934425	5.82198524
0.33524179	-0.78549355	5.82198524
0.33126950	-0.78351617	5.82198524
0.32774866	-0.78234434	5.82198572
0.32474411	-0.78011125	5.82198572
0.31443256	-0.77439803	5.82198572
0.30158997	-0.76879054	5.82198620
0.29754561	-0.76701295	5.82198620
0.29276973	-0.76342726	5.82198668
0.28536135	-0.75694680	5.82198668
0.27915114	-0.75294572	5.82198668
0.27357143	-0.74775201	5.82198715
0.26930603	-0.74790394	5.82198715
0.26503140	-0.74339116	5.82198715
0.25925982	-0.74332726	5.82198763
0.25231785	-0.73751831	5.82198763
0.24850397	-0.73847556	5.82198763
0.24141091	-0.73139882	5.82198763
0.23499244	-0.72619575	5.82198811
0.22804482	-0.72518545	5.82198811
0.22055170	-0.72203618	5.82198858
0.21848716	-0.72281289	5.82198858
0.21347511	-0.72129112	5.82198858
0.21211302	-0.72067565	5.82198858
0.20882820	-0.71744031	5.82198858
0.20558766	-0.71727073	5.82198906
0.19091646	-0.71037626	5.82198906
0.17867661	-0.70684177	5.82198954
0.17731446	-0.70622629	5.82198954
0.17588033	-0.70581061	5.82198954
0.17339922	-0.70418334	5.82199001
0.16830806	-0.70119399	5.82199001
0.16713202	-0.70024770	5.82199001
0.16125922	-0.69718331	5.82199001
0.15969592	-0.69703305	5.82199001
0.15755226	-0.69634235	5.82199001
0.15225981	-0.69381821	5.82199049
0.14359075	-0.68972278	5.82199049
0.13745259	-0.68552178	5.82199097
0.13416773	-0.68228656	5.82199097
0.12399808	-0.67317635	5.82199097
0.11947453	-0.67385894	5.82199144
0.09712423	-0.66414601	5.82199192
0.01713309	-0.51196933	5.82199287
0.02264126	-0.49663529	5.82199240
0.02050324	-0.49114609	5.82199240
0.01382716	-0.46574602	5.82199240
-0.07303731	-0.38400435	5.82199430
-0.15500776	-0.40108705	5.82199717
-0.17294063	-0.45766923	5.82199860
-0.26011518	-0.58499372	5.82200289
-0.26300192	-0.59209257	5.82200289
-0.25938544	-0.60106325	5.82200289
-0.33951092	-0.73239839	5.82200670
-0.36188585	-0.75614148	5.82200813
-0.38519865	-0.76261306	5.82200861
-0.38668290	-0.76393038	5.82200861
-0.39999896	-0.75598413	5.82200909
-0.40402675	-0.76053792	5.82200956
-0.41344455	-0.76903039	5.82200956
-0.42037565	-0.77435166	5.82201004
-0.42528632	-0.77582991	5.82201004
-0.43777514	-0.77749050	5.82201052
-0.44261938	-0.78356767	5.82201099
-0.45016813	-0.78694975	5.82201099
-0.46911067	-0.80573303	5.82201195
-0.47561949	-0.80865967	5.82201242
-0.48435158	-0.80942863	5.82201242
-0.49227238	-0.81347245	5.82201290
-0.49598500	-0.81743020	5.82201290
-0.59098375	-0.91514248	5.82201719
-0.60144144	-0.92409062	5.82201767
-0.64190364	-0.97295821	5.82201958
-0.64852524	-0.98248172	5.82201958
-0.70525759	-1.06735766	5.82202244
-0.70848191	-1.07351995	5.82202291
-0.73232633	-1.11917329	5.82202387
-0.74115276	-1.13933623	5.82202435
-0.77057940	-1.21478510	5.82202625
-0.78437561	-1.25075352	5.82202721
-0.80170131	-1.34606540	5.82202864
-0.81171906	-1.40340245	5.82202959
-0.81671184	-1.45913005	5.82203054
-0.82484442	-1.53841555	5.82203150
-0.83804870	-1.65123427	5.82203341
-0.84037918	-1.67160201	5.82203341
-0.84211183	-1.67811394	5.82203341
-0.84234792	-1.68017745	5.82203341
-0.84165698	-1.68838286	5.82203388
-0.83639801	-1.69897115	5.82203388
-0.77930683	-1.85056067	5.82203341
-0.77795744	-1.85430741	5.82203341
-0.77806437	-1.85610580	5.82203341
-0.77697313	-1.86038303	5.82203341
-0.77445370	-1.86987531	5.82203341
-0.76694971	-1.88415444	5.82203341
-0.75863636	-1.89524341	5.82203341
-0.75686479	-1.89659548	5.82203341
-0.66712224	-2.03175378	5.82203150
-0.65855479	-2.05357599	5.82203150
-0.65689027	-2.05672693	5.82203150
-0.65554661	-2.06527233	5.82203150
-0.65497869	-2.06894374	5.82203150
-0.65489978	-2.07041144	5.82203150
-0.65183431	-2.08204174	5.82203150
-0.65166116	-2.08484268	5.82203197
-0.65085024	-2.08811784	5.82203197
-0.65067691	-2.09091830	5.82203197
-0.64843744	-2.09940767	5.82203197
-0.63118088	-2.14112043	5.82203150
-0.62878448	-2.14607882	5.82203150
-0.62483084	-2.15598655	5.82203150
-0.61128628	-2.18092942	5.82203150
-0.59280735	-2.21239233	5.82203102
-0.54119670	-2.26941657	5.82203007
-0.53117800	-2.27725840	5.82203007
-0.42324382	-2.33457589	5.82202673
-0.33583081	-2.36274004	5.82202435
-0.33290562	-2.36350608	5.82202435
-0.27064857	-2.37626171	5.82202244
-0.12234813	-2.39763999	5.82201767
-0.10615236	-2.39682031	5.82201719
-0.09917143	-2.38976669	5.82201672
-0.09493521	-2.38641453	5.82201672
-0.09346071	-2.38043332	5.82201672
-0.08416617	-2.36740732	5.82201624
0.08528221	-2.33863592	5.82201052
0.08967651	-2.33821893	5.82201004
0.09022218	-2.34035754	5.82201004
