//X	Y	Z
0.01336175	-2.37885118	6.68198490
0.01994975	-2.37739205	6.68198442
0.16276173	-2.34399223	6.68197393
0.16692421	-2.33437443	6.68197346
0.18578753	-2.31412387	6.68197203
0.21827154	-2.29009295	6.68196964
0.37011528	-2.20754170	6.68195820
0.37803617	-2.20349789	6.68195772
0.38111255	-2.20553160	6.68195772
0.38317707	-2.20475483	6.68195724
0.38687852	-2.21039391	6.68195724
0.39613390	-2.21023130	6.68195629
0.39756802	-2.21064687	6.68195629
0.40833524	-2.20590115	6.68195534
0.42017141	-2.20389986	6.68195486
0.42495865	-2.19788861	6.68195438
0.43165919	-2.18983245	6.68195391
0.43302715	-2.18564892	6.68195391
0.43473801	-2.17760372	6.68195343
0.45267212	-2.16547370	6.68195248
0.55723161	-2.10032415	6.68194437
0.67443848	-2.03644872	6.68193579
0.67715555	-2.03601241	6.68193531
0.69391531	-2.02940178	6.68193436
0.69785821	-2.02817893	6.68193388
0.70781618	-2.02662349	6.68193340
0.71373868	-2.02795553	6.68193293
0.71586037	-2.02711272	6.68193245
0.75432205	-2.01861024	6.68192959
0.76931393	-2.02010965	6.68192863
0.78416038	-2.01554322	6.68192768
0.78727186	-2.01597810	6.68192720
0.79759461	-2.01209426	6.68192673
0.82342213	-1.99918544	6.68192482
0.83934325	-1.99256492	6.68192339
0.84059119	-1.99331152	6.68192339
0.85478497	-1.98840463	6.68192244
0.86982328	-1.97870827	6.68192101
0.89537078	-1.94407022	6.68191910
0.91708285	-1.88812876	6.68191767
0.93037808	-1.83236003	6.68191671
0.97243327	-1.68020868	6.68191338
0.97447568	-1.67789900	6.68191338
0.98423940	-1.60982823	6.68191242
0.98737580	-1.55607963	6.68191242
0.98701644	-1.55360985	6.68191242
0.97199744	-1.42801428	6.68191338
0.97506279	-1.33301067	6.68191290
0.84100187	-1.23035026	6.68192291
0.83111244	-1.22224236	6.68192387
0.81532812	-1.20953727	6.68192482
0.70965058	-1.12558615	6.68193293
0.70158988	-1.11876512	6.68193340
0.69632536	-1.11297524	6.68193388
0.69081748	-1.10758197	6.68193388
0.68398261	-1.09997463	6.68193483
0.67825162	-1.09351361	6.68193483
0.67386270	-1.08913219	6.68193531
0.67194021	-1.08651185	6.68193531
0.67148870	-1.08570647	6.68193531
0.67030340	-1.08009565	6.68193579
0.66748494	-1.07753181	6.68193579
0.66732657	-1.07459700	6.68193579
0.65989608	-1.06658363	6.68193626
0.60301870	-1.01803172	6.68194056
0.59986305	-1.01453090	6.68194103
0.59872198	-1.01198626	6.68194103
0.59535795	-1.00728333	6.68194103
0.58703172	-0.99932605	6.68194199
0.57534873	-0.98833293	6.68194246
0.57265943	-0.98550373	6.68194294
0.56126970	-0.97238141	6.68194389
0.53865027	-0.95206916	6.68194532
0.53314251	-0.94667578	6.68194580
0.52310193	-0.93730038	6.68194628
0.51089549	-0.92570162	6.68194723
0.50807703	-0.92313772	6.68194771
0.50703013	-0.92192596	6.68194771
0.50439787	-0.91903114	6.68194771
0.47327334	-0.89275944	6.68195009
0.45414713	-0.87688452	6.68195152
0.43429640	-0.86086887	6.68195295
0.37977460	-0.82367283	6.68195724
0.35127681	-0.80509442	6.68195915
0.33794579	-0.79728252	6.68196011
0.26088911	-0.75717008	6.68196583
0.25848725	-0.75701004	6.68196583
0.25634354	-0.75631946	6.68196630
0.24754532	-0.75248927	6.68196678
0.22843558	-0.74294585	6.68196821
0.21645379	-0.73888081	6.68196917
0.20715426	-0.73597765	6.68196964
0.19151548	-0.72933871	6.68197107
0.18760026	-0.72729576	6.68197107
0.18433754	-0.72559339	6.68197155
0.15555385	-0.71081161	6.68197346
0.14917953	-0.70867455	6.68197393
-0.00260381	-0.62880939	6.68198538
-0.01066460	-0.62198830	6.68198586
-0.01904071	-0.61576378	6.68198633
-0.02431812	-0.61310542	6.68198681
-0.04023714	-0.60546428	6.68198824
-0.04433850	-0.60375226	6.68198824
-0.11264890	-0.58346444	6.68199348
-0.15118410	-0.58570123	6.68199635
-0.26806784	-0.62992013	6.68200493
-0.37238872	-0.74392390	6.68201303
-0.40696448	-0.75126976	6.68201542
-0.42989430	-0.76820987	6.68201733
-0.43483996	-0.77128679	6.68201733
-0.43820959	-0.77138251	6.68201780
-0.44105586	-0.77208441	6.68201780
-0.44330657	-0.77319199	6.68201828
-0.45369217	-0.78194034	6.68201876
-0.59773296	-0.87184280	6.68202972
-0.68076688	-0.98801631	6.68203592
-0.68985295	-1.00224411	6.68203640
-0.70999408	-1.03927541	6.68203783
-0.72448146	-1.06703889	6.68203926
-0.77820063	-1.17953992	6.68204308
-0.79267347	-1.22789657	6.68204403
-0.81844366	-1.32664680	6.68204594
-0.83261251	-1.38400424	6.68204737
-0.83663517	-1.40448701	6.68204737
-0.83729345	-1.40894520	6.68204737
-0.83784467	-1.41160512	6.68204784
-0.83911115	-1.41878843	6.68204784
-0.83966243	-1.42144859	6.68204784
-0.85038775	-1.46424901	6.68204880
-0.88448656	-1.59003055	6.68205118
-0.88418251	-1.59903145	6.68205118
-0.87345111	-1.72324610	6.68205023
-0.87042487	-1.74773955	6.68205023
-0.86928928	-1.75508261	6.68205023
-0.86309618	-1.77348006	6.68204975
-0.81190425	-1.86308813	6.68204594
-0.78393602	-1.90658665	6.68204403
-0.71347809	-2.02293515	6.68203878
-0.69309866	-2.05548525	6.68203735
-0.65976816	-2.09831071	6.68203497
-0.63108075	-2.12602139	6.68203259
-0.58750641	-2.16349506	6.68202925
-0.52598929	-2.21423030	6.68202496
-0.48532936	-2.24134159	6.68202209
-0.45733640	-2.25138378	6.68201971
-0.45284796	-2.25230002	6.68201923
-0.44908401	-2.25307536	6.68201923
-0.44485343	-2.25452209	6.68201876
-0.42495656	-2.25934219	6.68201733
-0.42425403	-2.25794983	6.68201733
-0.41539875	-2.26171422	6.68201685
-0.41192222	-2.25982046	6.68201637
-0.39774671	-2.26284313	6.68201542
-0.39027587	-2.26445985	6.68201494
-0.38534284	-2.26451397	6.68201447
-0.38235474	-2.26041532	6.68201447
-0.22226118	-2.32117867	6.68200254
-0.22086051	-2.32965922	6.68200207
-0.21968450	-2.33060527	6.68200207
-0.21893077	-2.33394623	6.68200207
-0.21808834	-2.34341860	6.68200207
-0.21849413	-2.35214496	6.68200207
-0.21695875	-2.35556102	6.68200207
-0.16625026	-2.37298679	6.68199825
-0.16420788	-2.37067747	6.68199825
-0.16300407	-2.36835766	6.68199778
-0.15957189	-2.36339831	6.68199778
-0.15836239	-2.35627985	6.68199778
