//X	Y	Z
-1.14907265	-0.15635148	3.76854467
-1.14573324	-0.17120820	3.76854229
-1.14201403	-0.18553376	3.76854014
-1.14047825	-0.18916935	3.76853967
-1.13712513	-0.19642423	3.76853848
-1.11847115	-0.22604737	3.76853371
-1.11607325	-0.22915483	3.76853323
-1.10081112	-0.24763927	3.76853037
-1.09504998	-0.25386024	3.76852918
-1.09008491	-0.25552905	3.76852894
-1.08775771	-0.25642753	3.76852870
-1.08575463	-0.25691828	3.76852870
-1.08187652	-0.25835997	3.76852846
-1.07617259	-0.26100978	3.76852798
-1.07421851	-0.26175812	3.76852775
-1.07043171	-0.26303381	3.76852751
-1.05060947	-0.27223259	3.76852584
-1.04631627	-0.27424753	3.76852536
-1.04580331	-0.27430579	3.76852536
-1.04000819	-0.27712163	3.76852489
-1.03711057	-0.27540970	3.76852512
-1.03173208	-0.27314228	3.76852536
-1.02925813	-0.27326816	3.76852536
-1.02301073	-0.27603149	3.76852465
-1.02114105	-0.27593312	3.76852465
-1.01872778	-0.27594826	3.76852465
-1.01767635	-0.27507100	3.76852489
-1.01246691	-0.27734959	3.76852441
-1.01006556	-0.27699667	3.76852441
-1.00946629	-0.27617189	3.76852441
-1.00908673	-0.27564073	3.76852465
-1.00751710	-0.27587110	3.76852441
-1.00468194	-0.27577853	3.76852441
-1.00232291	-0.27500218	3.76852441
-0.99832654	-0.27388549	3.76852465
-0.99687856	-0.27389461	3.76852465
-0.98966932	-0.27388477	3.76852441
-0.98776913	-0.27384168	3.76852441
-0.98583847	-0.27385378	3.76852441
-0.98486638	-0.27317882	3.76852441
-0.98198414	-0.27455899	3.76852417
-0.97905272	-0.27568153	3.76852393
-0.97762346	-0.27600348	3.76852393
-0.97475278	-0.27701575	3.76852369
-0.97270745	-0.27792990	3.76852345
-0.96943867	-0.27809820	3.76852345
-0.96747768	-0.27816558	3.76852345
-0.96641445	-0.27765644	3.76852345
-0.96400797	-0.27835283	3.76852345
-0.96158797	-0.27768674	3.76852345
-0.96061093	-0.27806121	3.76852322
-0.95973682	-0.27790123	3.76852322
-0.95772177	-0.27876037	3.76852322
-0.95293915	-0.28009737	3.76852298
-0.95054460	-0.28042534	3.76852274
-0.94669020	-0.28113055	3.76852274
-0.94515103	-0.28130543	3.76852250
-0.94428366	-0.28182670	3.76852250
-0.94177413	-0.28305700	3.76852226
-0.94090015	-0.28289703	3.76852226
-0.93851054	-0.28217593	3.76852226
-0.93650556	-0.28093663	3.76852250
-0.93556398	-0.28020644	3.76852250
-0.93407387	-0.28063887	3.76852250
-0.93312031	-0.28027683	3.76852250
-0.93113399	-0.27935040	3.76852250
-0.93073070	-0.27955574	3.76852250
-0.92871565	-0.28041464	3.76852250
-0.92486632	-0.28007075	3.76852250
-0.92345381	-0.27897549	3.76852250
-0.92253751	-0.27923912	3.76852250
-0.91961122	-0.27931255	3.76852250
-0.91422105	-0.27741352	3.76852250
-0.91182637	-0.27774149	3.76852250
-0.90986544	-0.27780890	3.76852250
-0.90505755	-0.27815208	3.76852226
-0.90117776	-0.27786344	3.76852226
-0.89882708	-0.27949816	3.76852202
-0.89590585	-0.27852249	3.76852202
-0.89253908	-0.27817559	3.76852202
-0.89097464	-0.27735662	3.76852226
-0.88901860	-0.27637488	3.76852226
-0.88854784	-0.27600980	3.76852226
-0.88665277	-0.27491730	3.76852250
-0.88474745	-0.27592325	3.76852226
-0.88417363	-0.27609235	3.76852226
-0.88230389	-0.27599365	3.76852226
-0.88037330	-0.27600580	3.76852226
-0.87839538	-0.27749065	3.76852202
-0.87552994	-0.27745357	3.76852179
-0.87408704	-0.27641359	3.76852202
-0.87160796	-0.27758831	3.76852179
-0.87028170	-0.27737641	3.76852179
-0.86921161	-0.27618626	3.76852202
-0.86726916	-0.27656651	3.76852179
-0.86680514	-0.27688241	3.76852179
-0.86535722	-0.27689147	3.76852179
-0.86489314	-0.27720740	3.76852179
-0.86448985	-0.27741274	3.76852179
-0.86301833	-0.27815807	3.76852155
-0.86103368	-0.27896166	3.76852131
-0.85912168	-0.27928668	3.76852131
-0.85621905	-0.27862388	3.76852131
-0.85380578	-0.27863902	3.76852131
-0.85229701	-0.27875865	3.76852131
-0.85183299	-0.27907455	3.76852131
-0.84999532	-0.28065094	3.76852107
-0.84852374	-0.28139654	3.76852083
-0.84654588	-0.28288114	3.76852059
-0.84418833	-0.28383487	3.76852036
-0.84227639	-0.28415984	3.76852036
-0.84031540	-0.28422749	3.76852036
-0.83597833	-0.28493571	3.76852012
-0.83159059	-0.28365630	3.76852012
-0.83009869	-0.28235847	3.76852036
-0.82959747	-0.28204864	3.76852036
-0.82811743	-0.28038287	3.76852059
-0.82666779	-0.27866191	3.76852083
-0.82421565	-0.27632099	3.76852107
-0.82232058	-0.27522874	3.76852131
-0.81993771	-0.27518865	3.76852131
-0.81792778	-0.27499846	3.76852131
-0.81562436	-0.27516043	3.76852107
-0.81368190	-0.27554092	3.76852107
-0.81125009	-0.27524316	3.76852107
-0.80934489	-0.27624914	3.76852083
-0.80691302	-0.27595145	3.76852083
-0.80492669	-0.27502498	3.76852107
-0.67013478	-0.38270348	3.76850271
-0.66876292	-0.38569406	3.76850224
-0.66784829	-0.38768813	3.76850200
-0.66824657	-0.38853180	3.76850176
-0.66780102	-0.38916057	3.76850176
-0.66829205	-0.39156890	3.76850128
-0.66788048	-0.39560279	3.76850080
-0.66691017	-0.39665794	3.76850057
-0.66688818	-0.39912456	3.76850033
-0.66736579	-0.40017056	3.76850009
-0.66783828	-0.40226600	3.76849985
-0.67028534	-0.40565604	3.76849937
-0.66882896	-0.40949365	3.76849866
-0.66751122	-0.41169274	3.76849842
-0.66604304	-0.41589847	3.76849771
-0.66459680	-0.41763768	3.76849747
-0.66410905	-0.41869009	3.76849723
-0.66316915	-0.41968995	3.76849723
-0.66260874	-0.42122099	3.76849699
-0.65935194	-0.42726076	3.76849604
-0.65790743	-0.43073022	3.76849532
-0.65691346	-0.43252164	3.76849508
-0.65605968	-0.43440491	3.76849484
-0.65647644	-0.43556178	3.76849461
-0.65548241	-0.43735343	3.76849437
-0.65359747	-0.44040227	3.76849389
-0.65413594	-0.44133782	3.76849389
-0.64982086	-0.44581932	3.76849294
-0.65018862	-0.44671863	3.76849294
-0.65082496	-0.44816932	3.76849270
-0.65072876	-0.44938448	3.76849246
-0.64218825	-0.46893108	3.76848960
-0.64167017	-0.47003853	3.76848936
-0.64128041	-0.47160587	3.76848912
-0.63838798	-0.47508439	3.76848841
-0.63780224	-0.47562167	3.76848841
-0.63743627	-0.47645244	3.76848841
-0.63638645	-0.47730556	3.76848817
-0.63543469	-0.47867355	3.76848793
-0.63404930	-0.48030221	3.76848769
-0.63064378	-0.48383906	3.76848698
-0.62733448	-0.48616114	3.76848674
-0.62433726	-0.48844349	3.76848626
-0.62446570	-0.48890319	3.76848626
-0.62059444	-0.49102592	3.76848578
-0.60124809	-0.49954069	3.76848435
-0.59933609	-0.49986565	3.76848412
-0.58434367	-0.50001484	3.76848388
-0.58236408	-0.49976936	3.76848388
-0.58044529	-0.49941340	3.76848388
-0.42480725	-0.42436931	3.76849222
-0.42130533	-0.42288151	3.76849246
-0.38252115	-0.40263802	3.76849461
-0.37472439	-0.39519519	3.76849556
-0.37231782	-0.38965169	3.76849651
-0.37180984	-0.38866091	3.76849651
-0.37133226	-0.38761455	3.76849675
-0.37130517	-0.38489065	3.76849699
-0.36981663	-0.38081360	3.76849771
-0.36938807	-0.38002488	3.76849771
-0.36841431	-0.37761989	3.76849818
-0.29976630	-0.24307239	3.76851678
-0.28370690	-0.21429290	3.76852083
-0.28223366	-0.21330817	3.76852083
-0.27926844	-0.21102580	3.76852107
-0.27829134	-0.21139996	3.76852107
-0.27734295	-0.20998883	3.76852131
-0.27542925	-0.20858346	3.76852155
-0.27395090	-0.20864782	3.76852131
-0.27145654	-0.20673054	3.76852155
-0.27101612	-0.20631021	3.76852179
-0.27000859	-0.20673962	3.76852155
-0.26912779	-0.20589896	3.76852179
-0.26669425	-0.20387089	3.76852202
-0.26622343	-0.20350581	3.76852202
-0.26471972	-0.20257631	3.76852226
-0.26274520	-0.20128173	3.76852226
-0.26226255	-0.20128477	3.76852226
-0.26075882	-0.20035529	3.76852250
-0.25888741	-0.19852655	3.76852274
-0.25832534	-0.19832724	3.76852274
-0.25694332	-0.19717669	3.76852274
-0.25553080	-0.19608116	3.76852298
-0.25395277	-0.19390024	3.76852322
-0.25353095	-0.19379276	3.76852322
-0.25302970	-0.19348291	3.76852322
-0.25208130	-0.19207153	3.76852345
-0.25154963	-0.19181721	3.76852345
-0.25013718	-0.19072168	3.76852369
-0.24814406	-0.18911427	3.76852393
-0.24626072	-0.18765365	3.76852393
-0.24433520	-0.18661663	3.76852417
-0.24326017	-0.18647560	3.76852417
-0.23993397	-0.18397498	3.76852441
-0.23889428	-0.18272960	3.76852465
-0.23841168	-0.18273266	3.76852465
-0.23601532	-0.18133059	3.76852489
-0.23465183	-0.18049267	3.76852489
-0.23354630	-0.18040717	3.76852489
-0.23309408	-0.18035492	3.76852489
-0.23170018	-0.17957224	3.76852489
-0.23118715	-0.17963053	3.76852489
-0.22976284	-0.17890340	3.76852512
-0.22931059	-0.17885117	3.76852512
-0.22725669	-0.17735425	3.76852512
-0.22679260	-0.17767012	3.76852512
-0.22445709	-0.17615730	3.76852536
-0.22292300	-0.17528333	3.76852536
-0.22245213	-0.17491795	3.76852560
-0.22099067	-0.17356510	3.76852560
-0.22051987	-0.17320001	3.76852560
-0.22006762	-0.17314778	3.76852560
-0.21906513	-0.17252812	3.76852584
-0.21801367	-0.17165087	3.76852584
-0.21712101	-0.17117803	3.76852584
-0.21608816	-0.17061390	3.76852608
-0.21567819	-0.17013802	3.76852608
-0.21518874	-0.16946007	3.76852608
-0.21180679	-0.16602087	3.76852655
-0.21030816	-0.16404229	3.76852679
-0.20882809	-0.16237630	3.76852703
-0.20742747	-0.16091292	3.76852727
-0.20540395	-0.15936074	3.76852751
-0.20447412	-0.15826218	3.76852751
-0.20013703	-0.15273082	3.76852846
-0.19908552	-0.15185358	3.76852846
-0.18632869	-0.12631121	3.76853204
-0.18538865	-0.11483137	3.76853371
-0.18524836	-0.10849995	3.76853466
-0.18530747	-0.10665910	3.76853490
-0.20318764	-0.02279592	3.76854753
-0.20405500	-0.02227463	3.76854777
-0.20502359	-0.01948939	3.76854825
-0.20550452	-0.01775604	3.76854849
-0.20644449	-0.01675615	3.76854849
-0.20741989	-0.01465159	3.76854897
-0.20793805	-0.01354421	3.76854897
-0.21033600	-0.01043679	3.76854968
-0.21127596	-0.00943690	3.76854968
-0.22786556	0.05078373	3.76855898
-0.27125210	0.21110387	3.76858330
-0.27076098	0.21351215	3.76858377
-0.27034760	0.21744813	3.76858425
-0.27075592	0.21870263	3.76858449
-0.27270499	0.22464177	3.76858544
-0.27409548	0.22731976	3.76858592
-0.27655429	0.23053776	3.76858640
-0.28135026	0.23675236	3.76858735
-0.32884455	0.28783500	3.76859570
-0.33120710	0.28983811	3.76859617
-0.33560836	0.29343632	3.76859665
-0.34190974	0.29699147	3.76859736
-0.34377271	0.29757395	3.76859736
-0.49905744	0.37215677	3.76861119
-0.50049859	0.37284678	3.76861143
-0.51928455	0.37983060	3.76861262
-0.59899360	0.40576836	3.76861787
-0.64671808	0.42121676	3.76862097
-0.65058422	0.42229009	3.76862121
-0.65449947	0.42310607	3.76862144
-0.65888548	0.42355675	3.76862168
-0.68202716	0.42469603	3.76862216
-0.68839955	0.42422050	3.76862216
-0.70377338	0.42210844	3.76862216
-0.70569205	0.42175251	3.76862216
-0.70673680	0.42155617	3.76862216
-0.70817286	0.42119712	3.76862216
-0.72904837	0.41530889	3.76862168
-0.78382081	0.39527583	3.76861954
-0.78625935	0.39429724	3.76861954
-0.78771412	0.39362532	3.76861954
-0.79058117	0.39185795	3.76861930
-0.82646626	0.36881670	3.76861644
-0.82647473	0.36640570	3.76861620
-0.82950753	0.36355287	3.76861572
-0.83049303	0.36151573	3.76861548
-0.83437622	0.35776669	3.76861501
-0.83486569	0.35708874	3.76861501
-0.83730763	0.35264963	3.76861429
-0.83678448	0.35049289	3.76861405
-0.83723843	0.34871033	3.76861382
-0.84509420	0.34310845	3.76861310
-0.84996307	0.33732241	3.76861238
-0.85291642	0.33467197	3.76861191
-0.85874194	0.33130318	3.76861143
-0.86270809	0.31141198	3.76860857
-0.86131591	0.30422446	3.76860762
-0.86569864	0.30189574	3.76860738
-0.92330784	0.27380043	3.76860428
-1.02705073	0.23783964	3.76860070
-1.03052890	0.23561564	3.76860046
-1.03092039	0.23545283	3.76860046
-1.03478992	0.23306583	3.76860023
-1.04597032	0.22669353	3.76859951
-1.04795671	0.22576708	3.76859927
-1.05093372	0.22385257	3.76859903
-1.05188715	0.22349057	3.76859903
-1.06014454	0.21982403	3.76859856
-1.07921147	0.17046653	3.76859164
-1.08172941	0.16304559	3.76859069
-1.13263977	-0.00086131	3.76856732
-1.13748658	-0.01535367	3.76856518
-1.15128171	-0.05913065	3.76855898
-1.15285158	-0.08385942	3.76855540
-1.14946568	-0.15200473	3.76854539
