//X	Y	Z
-0.68445510	-0.57111818	4.35667801
-0.67763942	-0.57311440	4.35667753
-0.67618603	-0.57339734	4.35667753
-0.61257434	-0.58533925	4.35667419
-0.59641147	-0.58822036	4.35667324
-0.58401978	-0.59007066	4.35667276
-0.57411909	-0.59105843	4.35667229
-0.56671035	-0.59168172	4.35667181
-0.54482919	-0.59312755	4.35667038
-0.52716976	-0.59362549	4.35666990
-0.52097160	-0.59370607	4.35666943
-0.51522255	-0.59352332	4.35666895
-0.49870130	-0.59241134	4.35666847
-0.47781062	-0.58941990	4.35666752
-0.47029155	-0.58784693	4.35666704
-0.46394956	-0.58629143	4.35666656
-0.43549570	-0.57856238	4.35666513
-0.41483495	-0.57126141	4.35666466
-0.40831631	-0.56847793	4.35666418
-0.40557623	-0.56704539	4.35666418
-0.39451152	-0.56115431	4.35666370
-0.38431117	-0.55479872	4.35666323
-0.38032013	-0.55193508	4.35666323
-0.37990284	-0.55129200	4.35666323
-0.37757769	-0.54965800	4.35666275
-0.37667406	-0.54864740	4.35666275
-0.37483391	-0.54703450	4.35666275
-0.37441659	-0.54639137	4.35666275
-0.37226444	-0.54479456	4.35666275
-0.37111786	-0.54352427	4.35666275
-0.36636090	-0.53925079	4.35666227
-0.36254284	-0.53642440	4.35666227
-0.35633242	-0.53243399	4.35666227
-0.35226768	-0.52815676	4.35666180
-0.34681574	-0.52319431	4.35666180
-0.34650275	-0.52271199	4.35666180
-0.34556484	-0.52176344	4.35666180
-0.34306532	-0.51974589	4.35666180
-0.34049356	-0.51666135	4.35666180
-0.33730048	-0.51430112	4.35666132
-0.33466101	-0.51183861	4.35666132
-0.32959336	-0.50792724	4.35666132
-0.32931471	-0.50738311	4.35666132
-0.32747450	-0.50577015	4.35666132
-0.32237363	-0.50241923	4.35666084
-0.31963125	-0.50014222	4.35666084
-0.31886759	-0.49957672	4.35666084
-0.31796542	-0.49891263	4.35666084
-0.31723595	-0.49828532	4.35666084
-0.31501287	-0.49596751	4.35666084
-0.31348568	-0.49483687	4.35666037
-0.30876535	-0.49134630	4.35666037
-0.30779082	-0.48961490	4.35666037
-0.15910318	-0.40158641	4.35665417
-0.15449095	-0.39944738	4.35665417
-0.15202951	-0.39855903	4.35665417
-0.15071237	-0.39809635	4.35665417
-0.14592585	-0.39557397	4.35665369
-0.14391512	-0.39476869	4.35665369
-0.13822621	-0.39158189	4.35665321
-0.13472256	-0.38958418	4.35665321
-0.13285038	-0.38887763	4.35665321
-0.11956879	-0.38270462	4.35665274
-0.09794053	-0.36477542	4.35665178
-0.09071466	-0.35723183	4.35665178
-0.08140418	-0.34746918	4.35665131
-0.07876241	-0.34416205	4.35665131
-0.07594621	-0.34047133	4.35665131
-0.07281706	-0.33629832	4.35665083
-0.06272948	-0.32155299	4.35665083
-0.05535507	-0.31068385	4.35665035
-0.04925990	-0.29914862	4.35665035
-0.04664767	-0.29409015	4.35665035
-0.02263382	-0.24339145	4.35664988
-0.00727856	-0.20443258	4.35664988
-0.00255835	-0.18951152	4.35664988
0.00087285	-0.17715056	4.35664988
0.00104859	-0.17642081	4.35664988
0.00084230	-0.17589772	4.35664988
0.00315139	-0.16809526	4.35664988
0.00378260	-0.16559322	4.35664988
0.00518185	-0.16083698	4.35664988
0.00661710	-0.15579592	4.35664988
0.00882319	-0.14780802	4.35664988
0.00875553	-0.14718600	4.35664988
0.00963098	-0.14407802	4.35664988
0.00977334	-0.14278825	4.35664988
0.00975877	-0.13627343	4.35664988
0.00904170	-0.13282940	4.35665035
0.00947770	-0.12623170	4.35665035
0.01098144	-0.12131444	4.35665035
0.01098511	-0.12012361	4.35665035
0.01092258	-0.11796442	4.35665035
0.01095927	-0.11718160	4.35665035
0.01159033	-0.11467977	4.35665035
0.01093858	-0.11270241	4.35665035
0.01069805	-0.11211734	4.35665035
0.01091269	-0.10976039	4.35665035
0.01034081	-0.10433379	4.35665035
0.01093614	-0.10211653	4.35665035
0.01027921	-0.10167633	4.35665035
0.00979564	-0.10135125	4.35665083
0.01042679	-0.09884918	4.35665083
0.01067340	-0.09739865	4.35665083
0.01081583	-0.09610868	4.35665083
0.01955047	-0.07068017	4.35665083
0.01889494	-0.06989381	4.35665083
0.01994327	-0.06674884	4.35665083
0.02064303	-0.06437059	4.35665083
0.04823419	0.01260054	4.35665035
0.08932820	0.12284641	4.35665035
0.09236884	0.13212042	4.35665035
0.09327123	0.13278484	4.35665035
0.09480211	0.13510625	4.35664988
0.10291919	0.17388077	4.35665035
0.10320777	0.17765152	4.35665035
0.10296854	0.19001323	4.35665035
0.10051078	0.20174631	4.35665083
0.09931150	0.20586166	4.35665083
0.08999383	0.22785674	4.35665178
0.06989536	0.25747281	4.35665321
0.05295053	0.27654302	4.35665464
0.00058392	0.29679471	4.35665751
-0.01003486	0.30072808	4.35665798
-0.01269877	0.30155373	4.35665798
-0.01404795	0.30199745	4.35665798
-0.01553714	0.30199587	4.35665846
-0.01761565	0.30181241	4.35665846
-0.01965836	0.30191350	4.35665846
-0.02156240	0.30211365	4.35665846
-0.02253091	0.30241764	4.35665846
-0.02436498	0.30284032	4.35665894
-0.02699471	0.30360398	4.35665894
-0.02931601	0.30316097	4.35665894
-0.03153071	0.30372337	4.35665894
-0.03509700	0.30388469	4.35665941
-0.03668910	0.30406862	4.35665941
-0.03945875	0.30438718	4.35665941
-0.04108655	0.30428678	4.35665941
-0.04399341	0.30485275	4.35665989
-0.04617617	0.30450872	4.35665989
-0.05254632	0.30505052	4.35666037
-0.05320424	0.30499232	4.35666037
-0.05988739	0.30505183	4.35666037
-0.06418289	0.30458608	4.35666084
-0.06698926	0.30412176	4.35666084
-0.06913772	0.30371574	4.35666084
-0.06986561	0.30343497	4.35666084
-0.07125041	0.30359429	4.35666084
-0.07717377	0.30302805	4.35666132
-0.07970139	0.30310804	4.35666132
-0.08098294	0.30292979	4.35666132
-0.08652322	0.30306858	4.35666180
-0.08867168	0.30266249	4.35666180
-0.09210151	0.30207840	4.35666227
-0.09483793	0.30183673	4.35666227
-0.09715922	0.30139369	4.35666227
-0.10273768	0.30040330	4.35666275
-0.10367317	0.30029938	4.35666275
-0.10543960	0.30009997	4.35666275
-0.10658392	0.29967424	4.35666275
-0.10814172	0.29979652	4.35666275
-0.11025436	0.29967505	4.35666275
-0.11122297	0.29997903	4.35666323
-0.11247148	0.29939261	4.35666323
-0.11666267	0.29908764	4.35666323
-0.11822045	0.29920986	4.35666323
-0.12026314	0.29931101	4.35666323
-0.12352012	0.29876381	4.35666370
-0.12618643	0.29874489	4.35666370
-0.12719072	0.29876432	4.35666370
-0.12992845	0.29817644	4.35666370
-0.13051629	0.29834098	4.35666418
-0.13197115	0.29827753	4.35666418
-0.13408384	0.29815611	4.35666418
-0.13522670	0.29807684	4.35666418
-0.13612664	0.29825699	4.35666418
-0.13782442	0.29793409	4.35666418
-0.14194563	0.29785171	4.35666466
-0.14256920	0.29773164	4.35666466
-0.14464758	0.29754838	4.35666466
-0.14762455	0.29789156	4.35666466
-0.14862874	0.29791117	4.35666466
-0.14925231	0.29779118	4.35666466
-0.14980723	0.29754749	4.35666513
-0.15174577	0.29780921	4.35666513
-0.15801013	0.29885823	4.35666513
-0.16587180	0.29855400	4.35666561
-0.16805461	0.29820979	4.35666561
-0.16857386	0.29825050	4.35666609
-0.17124160	0.29788518	4.35666609
-0.17650929	0.29653275	4.35666609
-0.17709719	0.29669705	4.35666609
-0.17855208	0.29663363	4.35666656
-0.17921130	0.29622930	4.35666656
-0.18028417	0.29637250	4.35666656
-0.18302047	0.29613101	4.35666656
-0.18572253	0.29582748	4.35666656
-0.18617313	0.29574457	4.35666656
-0.18762656	0.29602757	4.35666656
-0.19157346	0.29632860	4.35666704
-0.19299263	0.29654971	4.35666704
-0.19458610	0.29638731	4.35666704
-0.19652446	0.29664925	4.35666704
-0.20064424	0.29691327	4.35666752
-0.20123348	0.29673141	4.35666752
-0.20175275	0.29677218	4.35666752
-0.20486975	0.29667017	4.35666752
-0.20805672	0.29634559	4.35666800
-0.20919958	0.29626626	4.35666800
-0.21096732	0.29572070	4.35666800
-0.21141657	0.29598403	4.35666800
-0.21550342	0.29583988	4.35666800
-0.21941835	0.29523444	4.35666847
-0.22142678	0.29527357	4.35666847
-0.22409442	0.29490849	4.35666847
-0.22634587	0.29468781	4.35666847
-0.22779933	0.29497078	4.35666895
-0.23126495	0.29410213	4.35666895
-0.23434615	0.29428470	4.35666895
-0.23649465	0.29387861	4.35666895
-0.23985451	0.29351708	4.35666943
-0.24092880	0.29331389	4.35666943
-0.24137798	0.29357743	4.35666943
-0.24626280	0.29292971	4.35666943
-0.24685206	0.29274786	4.35666990
-0.24757993	0.29246709	4.35666990
-0.24910340	0.29252744	4.35666990
-0.25017768	0.29232433	4.35666990
-0.25173682	0.29210031	4.35666990
-0.25246471	0.29181948	4.35666990
-0.25357324	0.29167840	4.35666990
-0.25402391	0.29159528	4.35666990
-0.25772876	0.29165781	4.35667038
-0.25973719	0.29169691	4.35667038
-0.26060274	0.29181561	4.35667038
-0.26223052	0.29171520	4.35667038
-0.26323470	0.29173487	4.35667038
-0.26385832	0.29161483	4.35667038
-0.26565811	0.29197550	4.35667038
-0.26628169	0.29185542	4.35667086
-0.26860073	0.29225701	4.35667086
-0.26915428	0.29235953	4.35667086
-0.27164766	0.29237762	4.35667086
-0.27445397	0.29191357	4.35667086
-0.27694592	0.29227793	4.35667133
-0.27750093	0.29203409	4.35667133
-0.28054789	0.29215485	4.35667133
-0.28238192	0.29257753	4.35667133
-0.28387117	0.29257590	4.35667133
-0.28525698	0.29223680	4.35667181
-0.28605253	0.29257804	4.35667181
-0.28816521	0.29245660	4.35667181
-0.28951812	0.29170936	4.35667181
-0.29010737	0.29152748	4.35667181
-0.29118025	0.29167074	4.35667181
-0.29232448	0.29124504	4.35667181
-0.29284376	0.29128581	4.35667181
-0.29481646	0.29160950	4.35667229
-0.29554573	0.29098243	4.35667229
-0.29703489	0.29098088	4.35667229
-0.29980317	0.29164577	4.35667229
-0.30112037	0.29118311	4.35667229
-0.42607841	0.41084442	4.35668039
-0.42447886	0.41304216	4.35668039
-0.42727530	0.41580451	4.35668087
-0.42664427	0.41830635	4.35668087
-0.42898774	0.42199624	4.35668087
-0.43188995	0.42425138	4.35668087
-0.43139750	0.42665443	4.35668087
-0.43208876	0.42715624	4.35668087
-0.43284622	0.42862663	4.35668135
-0.43770760	0.43562272	4.35668135
-0.43929362	0.43784228	4.35668182
-0.44057029	0.43935347	4.35668182
-0.44499230	0.44285983	4.35668182
-0.44609100	0.44594508	4.35668230
-0.44949883	0.45265836	4.35668230
-0.45008439	0.45366731	4.35668230
-0.45066988	0.45467651	4.35668230
-0.45378071	0.45661011	4.35668278
-0.45412570	0.45703417	4.35668278
-0.45471257	0.45769694	4.35668278
-0.45595604	0.45864761	4.35668278
-0.46096349	0.46316311	4.35668325
-0.46210396	0.46392843	4.35668325
-0.46735805	0.46699342	4.35668325
-0.47430772	0.47057980	4.35668373
-0.48185271	0.47194877	4.35668421
-0.48808292	0.47293574	4.35668468
-0.50241905	0.47301263	4.35668516
-0.55656469	0.46628457	4.35668802
-0.58165121	0.46129912	4.35668898
-0.59076750	0.45837283	4.35668945
-0.59614193	0.45601496	4.35668993
-0.60526204	0.45189795	4.35668993
-0.61955172	0.44455338	4.35669088
-0.62819529	0.43757710	4.35669088
-0.66486460	0.40437889	4.35669231
-0.69091237	0.37937042	4.35669327
-0.71703625	0.35210377	4.35669422
-0.82240349	0.24112011	4.35669756
-0.83762115	0.22462291	4.35669804
-0.91219115	0.12910883	4.35670042
-0.91653693	0.12344296	4.35670042
-0.91803217	0.12140591	4.35670042
-0.93256843	0.10118029	4.35670090
-0.94325519	0.08302655	4.35670137
-0.95049554	0.07056735	4.35670137
-0.95094872	0.06963968	4.35670137
-0.95411968	0.06314667	4.35670137
-0.96288002	0.04066017	4.35670137
-0.96634555	0.02836096	4.35670137
-0.97000515	0.00922540	4.35670137
-0.97155464	0.00079718	4.35670137
-0.97219300	-0.00408646	4.35670137
-0.97222978	-0.00486928	4.35670137
-0.97261643	-0.00676520	4.35670137
-0.97311127	-0.01001272	4.35670137
-0.97308683	-0.01330112	4.35670137
-0.97316295	-0.01555932	4.35670137
-1.00508428	-0.18407406	4.35669994
-1.00778008	-0.19377236	4.35669994
-1.00840974	-0.19592802	4.35669994
-1.00868845	-0.19647214	4.35669994
-1.00977015	-0.19905707	4.35669994
-1.01039386	-0.19917715	4.35669994
-1.01378942	-0.21125373	4.35669994
-1.01519394	-0.21754743	4.35669994
-1.01631224	-0.22091492	4.35669994
-1.01725864	-0.22474389	4.35669994
-1.02003193	-0.23704667	4.35669994
-1.02131486	-0.23757130	4.35669994
-1.02178621	-0.24460548	4.35669994
-1.02340436	-0.27561879	4.35669947
-1.02236962	-0.28832170	4.35669947
-1.02176571	-0.29465473	4.35669899
-1.01799309	-0.30676961	4.35669899
-1.00523329	-0.33553970	4.35669756
-0.99679351	-0.35005671	4.35669708
-0.99500120	-0.35279945	4.35669708
-0.96508276	-0.38735059	4.35669470
-0.94117624	-0.40593621	4.35669327
-0.92707962	-0.41636026	4.35669231
-0.79066026	-0.51357770	4.35668421
-0.77770287	-0.52289033	4.35668325
-0.77082694	-0.52789009	4.35668278
-0.76882231	-0.52912045	4.35668278
-0.76090646	-0.53385544	4.35668230
-0.75281781	-0.53855330	4.35668182
-0.72872323	-0.55233818	4.35668039
-0.72554231	-0.55404919	4.35668039
-0.72426319	-0.55471557	4.35668039
-0.71157223	-0.56050122	4.35667944
