//X	Y	Z
-0.89780629	0.12222388	2.02709031
-0.89923602	0.12243803	2.02708507
-0.89997458	0.12281224	2.02708149
-0.90079743	0.12338716	2.02707696
-0.90169197	0.12440896	2.02707100
-0.90299302	0.12481952	2.02706528
-0.90422153	0.12527278	2.02705979
-0.90529311	0.12604156	2.02705407
-0.90602458	0.12677792	2.02704930
-0.90741193	0.12785226	2.02704144
-0.90914363	0.12986863	2.02702975
-0.91005409	0.12975580	2.02702689
-0.91128755	0.12948512	2.02702355
-0.91209829	0.13010368	2.02701902
-0.91293490	0.13024136	2.02701592
-0.91389769	0.13002339	2.02701330
-0.91455585	0.13062185	2.02700925
-0.91565776	0.13057417	2.02700567
-0.91654003	0.13068172	2.02700257
-0.91749084	0.13040614	2.02700019
-0.92231083	0.13643070	2.02696609
-0.92529982	0.13829133	2.02695036
-0.92784059	0.13749951	2.02694440
-0.92863894	0.13720381	2.02694249
-0.92938924	0.13667770	2.02694154
-0.93137312	0.13588087	2.02693748
-0.93279994	0.13507912	2.02693510
-0.93483162	0.13451275	2.02693009
-0.93607032	0.13437474	2.02692628
-0.93691218	0.13464504	2.02692270
-0.93769360	0.13501574	2.02691889
-0.93866217	0.13578710	2.02691340
-0.93965429	0.13581723	2.02691007
-0.94107032	0.13752784	2.02690005
-0.94331652	0.13667345	2.02689528
-0.94408208	0.13693374	2.02689195
-0.94464105	0.13758782	2.02688813
-0.94570017	0.13744210	2.02688503
-0.94627392	0.13802592	2.02688122
-0.94764203	0.13950612	2.02687216
-0.94905728	0.13950339	2.02686763
-0.94995379	0.13992915	2.02686334
-0.95081246	0.14077812	2.02685785
-0.95233274	0.14017670	2.02685452
-0.95366883	0.14029180	2.02684975
-0.95446754	0.14085276	2.02684546
-0.95579404	0.13992573	2.02684379
-0.95703948	0.13971263	2.02684021
-0.95776629	0.13992798	2.02683711
-0.95859098	0.14000800	2.02683425
-0.95947552	0.14037617	2.02683020
-0.96204674	0.14354610	2.02681208
-0.96387357	0.14430980	2.02680373
-0.96464825	0.14475551	2.02679968
-0.96565270	0.14569974	2.02679348
-0.96852815	0.14490880	2.02678633
-0.96997887	0.14422230	2.02678347
-0.97294474	0.14768127	2.02676320
-0.97535324	0.15027842	2.02674747
-0.97813642	0.15175587	2.02673364
-0.97962320	0.15124217	2.02673030
-0.98126769	0.15088123	2.02672601
-0.98229861	0.15220137	2.02671862
-0.98405302	0.15176278	2.02671385
-0.98620665	0.15117636	2.02670860
-0.98775530	0.15035452	2.02670574
-0.98863983	0.14976476	2.02670455
-0.98959827	0.14988241	2.02670121
-0.99104649	0.14903654	2.02669883
-0.99267173	0.14812359	2.02669621
-0.99518418	0.14850998	2.02668667
-0.99751997	0.14904822	2.02667713
-0.99852401	0.14913571	2.02667356
-1.00244474	0.14988163	2.02665830
-1.00491166	0.14934021	2.02665162
-1.00600219	0.15009174	2.02664566
-1.00722361	0.14976346	2.02664256
-1.00971675	0.14959776	2.02663469
-1.01120114	0.14882353	2.02663207
-1.01173449	0.14956990	2.02662826
-1.01237774	0.15023859	2.02662396
-1.01303017	0.14984776	2.02662301
-1.01425445	0.15063664	2.02661657
-1.01583946	0.15084431	2.02661061
-1.01686513	0.15078655	2.02660728
-1.01904321	0.15117200	2.02659893
-1.02058303	0.15226659	2.02659059
-1.02250469	0.15177764	2.02658558
-1.02422416	0.15287979	2.02657652
-1.02559173	0.15350333	2.02657008
-1.02625620	0.15317005	2.02656889
-1.02790070	0.15280911	2.02656436
-1.02896440	0.15232801	2.02656245
-1.02992094	0.15304181	2.02655697
-1.03131223	0.15292385	2.02655268
-1.03217316	0.15403339	2.02654648
-1.03351665	0.15454167	2.02654052
-1.03465462	0.15466677	2.02653646
-1.03522158	0.15532541	2.02653241
-1.03700054	0.15585893	2.02652502
-1.03859758	0.15612420	2.02651882
-1.04021859	0.15650474	2.02651238
-1.04109311	0.15621909	2.02651024
-1.04227912	0.15657464	2.02650523
-1.04306328	0.15681747	2.02650189
-1.04429948	0.15766391	2.02649522
-1.04607821	0.15819718	2.02648759
-1.04781592	0.15717995	2.02648497
-1.04894471	0.15836462	2.02647758
-1.04964793	0.15932159	2.02647233
-1.05130458	0.15901828	2.02646780
-1.05211484	0.15878022	2.02646565
-1.05298507	0.15883017	2.02646279
-1.05416155	0.16024520	2.02645445
-1.05595231	0.16083612	2.02644682
-1.05811834	0.16116397	2.02643847
-1.05956912	0.16047740	2.02643585
-1.06031513	0.16028687	2.02643394
-1.06116366	0.16048212	2.02643037
-1.06184530	0.16158424	2.02642488
-1.06271553	0.16163422	2.02642179
-1.06460190	0.16182931	2.02641487
-1.06553447	0.16242807	2.02641010
-1.06747115	0.16311415	2.02640152
-1.06845117	0.16308641	2.02639818
-1.06897259	0.16377519	2.02639461
-1.07010806	0.16363972	2.02639103
-1.07124162	0.16410042	2.02638602
-1.07216418	0.16404524	2.02638292
-1.07310390	0.16418031	2.02637959
-1.07436371	0.16428538	2.02637506
-1.07539690	0.16586581	2.02636671
-1.07723522	0.16583049	2.02636075
-1.07834685	0.16557984	2.02635789
-1.07989860	0.16673204	2.02634907
-1.08190680	0.16690715	2.02634192
-1.08278894	0.16701470	2.02633858
-1.08383143	0.16753557	2.02633357
-1.08540452	0.16768563	2.02632785
-1.08655930	0.16714433	2.02632570
-1.08720481	0.16807364	2.02632070
-1.08798909	0.16831638	2.02631736
-1.08888578	0.16874219	2.02631307
-1.09059501	0.16919029	2.02630615
-1.09219933	0.16899213	2.02630138
-1.09294069	0.16942436	2.02629757
-1.09376323	0.17010051	2.02629280
-1.09493744	0.17125507	2.02628541
-1.09625483	0.17138767	2.02628064
-1.09728289	0.17159039	2.02627659
-1.09802210	0.17272016	2.02627063
-1.09929156	0.17262225	2.02626681
-1.10060894	0.17275487	2.02626204
-1.10130250	0.17391460	2.02625608
-1.10204351	0.17444800	2.02625203
-1.10569692	0.18085498	2.02622080
-1.10800910	0.18213463	2.02620912
-1.10876977	0.18311892	2.02620363
-1.11115432	0.18560104	2.02618837
-1.11234009	0.18595663	2.02618313
-1.11410689	0.18643224	2.02617598
-1.11520660	0.18612401	2.02617311
-1.11761582	0.18555509	2.02616692
-1.11840296	0.18691510	2.02616024
-1.11953855	0.18677965	2.02615666
-1.12078619	0.18682709	2.02615237
-1.12192261	0.18840493	2.02614379
-1.12294054	0.18795395	2.02614188
-1.12417400	0.18768328	2.02613854
-1.12527716	0.18781660	2.02613449
-1.12625754	0.18864560	2.02612877
-1.12900209	0.19371243	2.02610445
-1.13142288	0.19722407	2.02608585
-1.13217354	0.19755457	2.02608228
-1.13320208	0.19861399	2.02607560
-1.13538909	0.19918488	2.02606654
-1.13801432	0.19965316	2.02605653
-1.13900673	0.20053969	2.02605057
-1.14137840	0.20125075	2.02604055
-1.14342487	0.20185915	2.02603173
-1.14820278	0.20002747	2.02602124
-1.14884591	0.20069617	2.02601719
-1.15005136	0.20150252	2.02601075
-1.15171278	0.20172019	2.02600455
-1.15280282	0.20161508	2.02600121
-1.15367532	0.20192562	2.02599740
-1.15425158	0.20276973	2.02599287
-1.15511274	0.20263425	2.02599049
-1.15561914	0.20339322	2.02598643
-1.15672195	0.20505904	2.02597785
-1.15805316	0.20465305	2.02597451
-1.15881109	0.20451993	2.02597237
-1.15940452	0.20555456	2.02596736
-1.16004539	0.20596273	2.02596402
-1.16113532	0.20585741	2.02596068
-1.16208994	0.20716730	2.02595353
-1.16361725	0.20734739	2.02594805
-1.16430867	0.20700154	2.02594662
-1.16539657	0.20749231	2.02594161
-1.16586947	0.20833904	2.02593756
-1.16695952	0.20823370	2.02593422
-1.16786599	0.20931321	2.02592778
-1.16883862	0.20889249	2.02592587
-1.16964483	0.20984660	2.02592039
-1.17047000	0.21078336	2.02591467
-1.17187560	0.21098360	2.02590942
-1.17320740	0.21143433	2.02590370
-1.17379820	0.21220815	2.02589941
-1.17460847	0.21197006	2.02589750
-1.17535961	0.21315727	2.02589130
-1.17637563	0.21330240	2.02588749
-1.17728424	0.21378565	2.02588296
-1.17856812	0.21400622	2.02587819
-1.17941427	0.21394096	2.02587533
-1.18164957	0.21349724	2.02586937
-1.18267989	0.21396050	2.02586460
-1.18343091	0.21514772	2.02585840
-1.18447101	0.21540803	2.02585411
-1.18571913	0.21631214	2.02584720
-1.18695259	0.21604146	2.02584410
-1.18753386	0.21701820	2.02583909
-1.18839216	0.21701060	2.02583623
-1.19012284	0.21731338	2.02582955
-1.19181538	0.21718289	2.02582431
-1.19321871	0.21712264	2.02581978
-1.19445491	0.21796933	2.02581310
-1.19591808	0.21819703	2.02580762
-1.19756269	0.21783611	2.02580309
-1.19824195	0.21867764	2.02579832
-1.19973135	0.21928114	2.02579165
-1.20193338	0.21978174	2.02578282
-1.20305681	0.21958870	2.02577949
-1.20367622	0.22014222	2.02577591
-1.20496702	0.21989898	2.02577233
-1.20688224	0.22073060	2.02576351
-1.20844078	0.22056234	2.02575874
-1.21119046	0.22212769	2.02574492
-1.21281147	0.22250818	2.02573824
-1.21497750	0.22283603	2.02573013
-1.21670842	0.22313893	2.02572346
-1.21949077	0.22290304	2.02571487
-1.22186208	0.22275746	2.02570724
-1.22358108	0.22300287	2.02570081
-1.22811842	0.22318512	2.02568507
-1.22932792	0.22279924	2.02568221
-1.23105872	0.22310203	2.02567554
-1.23265529	0.22251064	2.02567196
-1.23461556	0.22245526	2.02566576
-1.23560762	0.22248524	2.02566218
-1.23681700	0.22209927	2.02565932
-1.23755574	0.22237217	2.02565598
-1.23877716	0.22204390	2.02565289
-1.23928666	0.22267506	2.02564931
-1.24089527	0.22214136	2.02564573
-1.24358225	0.22230127	2.02563620
-1.24548030	0.22169733	2.02563167
-1.24715126	0.22171238	2.02562594
-1.24815536	0.22179988	2.02562237
-1.24911141	0.22165698	2.02561975
-1.25270414	0.22118306	2.02560902
-1.25422978	0.22195935	2.02560163
-1.25558519	0.22252527	2.02559543
-1.25850153	0.22232696	2.02558637
-1.25995243	0.22164047	2.02558351
-1.26192427	0.22078604	2.02557945
-1.26439428	0.22221845	2.02556705
-1.26576138	0.22198525	2.02556300
-1.26929474	0.22208020	2.02555108
-1.27066207	0.22184709	2.02554727
-1.27553821	0.22073677	2.02553415
-1.27713490	0.22014540	2.02553058
-1.27926481	0.22030041	2.02552319
-1.28278565	0.21948084	2.02551389
-1.28712845	0.21762413	2.02550483
-1.28881192	0.21855327	2.02549648
-1.29212689	0.21735042	2.02548909
-1.29717255	0.21559387	2.02547741
-1.30824351	0.21119660	2.02545357
-1.31222415	0.21223059	2.02543736
-1.32100701	0.19690967	2.02545381
-1.32161164	0.19140887	2.02546835
-1.32172012	0.18790460	2.02547860
-1.32023013	0.18644446	2.02548790
-1.31979465	0.18556282	2.02549195
-1.31958866	0.18432301	2.02549624
-1.31813705	0.18329620	2.02550435
-1.31818604	0.18121701	2.02551031
-1.31707144	0.17949384	2.02551913
-1.31582570	0.17885026	2.02552533
-1.31572938	0.17753279	2.02552962
-1.31531763	0.17590970	2.02553582
-1.31368303	0.17204478	2.02555275
-1.31281209	0.17028156	2.02556109
-1.31230342	0.16648436	2.02557421
-1.31103301	0.16401204	2.02558589
-1.30999207	0.16203842	2.02559519
-1.30948353	0.15824109	2.02560830
-1.30661535	0.15379024	2.02563119
-1.30288815	0.15336993	2.02564478
-1.30224705	0.15210515	2.02565074
-1.30073285	0.14967313	2.02566314
-1.29909992	0.14923507	2.02566981
-1.29875970	0.14795741	2.02567482
-1.29679954	0.14801279	2.02568126
-1.29615879	0.14760458	2.02568460
-1.29484057	0.14575881	2.02569461
-1.29327691	0.14454910	2.02570343
-1.29228687	0.14392301	2.02570868
-1.29205668	0.14256796	2.02571344
-1.29064095	0.14171380	2.02572060
-1.28962469	0.14071202	2.02572703
-1.28895974	0.14018863	2.02573085
-1.28841448	0.13938466	2.02573514
-1.28675508	0.13857079	2.02574301
-1.28621209	0.13802740	2.02574658
-1.28461480	0.13690543	2.02575517
-1.28283596	0.13637212	2.02576280
-1.28071797	0.13627476	2.02577019
-1.27965343	0.13504231	2.02577734
-1.27936387	0.13425583	2.02578068
-1.27780235	0.13330674	2.02578878
-1.27610755	0.13317674	2.02579474
-1.27568245	0.13256022	2.02579808
-1.27460599	0.13251567	2.02580190
-1.27413464	0.13146117	2.02580643
-1.27327585	0.13061219	2.02581191
-1.27238178	0.13044700	2.02581549
-1.27145684	0.13024148	2.02581906
-1.27083230	0.12955528	2.02582335
-1.27024662	0.12891403	2.02582717
-1.26966763	0.12819776	2.02583122
-1.26901245	0.12747151	2.02583551
-1.26812947	0.12565055	2.02584410
-1.26673782	0.12491190	2.02585077
-1.26590323	0.12417805	2.02585578
-1.26482725	0.12374493	2.02586079
-1.26383257	0.12345427	2.02586484
-1.26239312	0.12248513	2.02587271
-1.26138663	0.12213704	2.02587700
-1.26066196	0.12132558	2.02588201
-1.25964570	0.12118044	2.02588582
-1.25823498	0.12084758	2.02589154
-1.25743628	0.12028664	2.02589583
-1.25722587	0.11938235	2.02589917
-1.25616407	0.11926731	2.02590299
-1.25518179	0.11903444	2.02590704
-1.25431192	0.11859593	2.02591133
-1.25324464	0.11749154	2.02591825
-1.25125134	0.11724624	2.02592564
-1.25053132	0.11695585	2.02592874
-1.24960649	0.11675054	2.02593255
-1.24855447	0.11643252	2.02593708
-1.24786305	0.11553317	2.02594209
-1.24597883	0.11474201	2.02595067
-1.24499631	0.11450914	2.02595472
-1.24414015	0.11392066	2.02595925
-1.24339163	0.11385065	2.02596188
-1.24289429	0.11327711	2.02596545
-1.24171805	0.11271864	2.02597094
-1.24103165	0.11234054	2.02597427
-1.24026597	0.11208028	2.02597761
-1.23976624	0.11124623	2.02598190
-1.23782969	0.11056018	2.02599049
-1.23602009	0.10998675	2.02599812
-1.23573720	0.10912520	2.02600169
-1.23506045	0.10854414	2.02600574
-1.23454094	0.10725930	2.02601123
-1.23284566	0.10627249	2.02601981
-1.23144197	0.10547605	2.02602696
-1.23013437	0.10514057	2.02603221
-1.22679687	0.10477540	2.02604461
-1.22678220	0.10360059	2.02604818
-1.22144866	0.10311794	2.02606750
-1.22018874	0.10301292	2.02607179
-1.21939254	0.10271248	2.02607536
-1.21905863	0.10203579	2.02607870
-1.21778953	0.10174498	2.02608371
-1.21601081	0.10121173	2.02609134
-1.21495974	0.10107467	2.02609515
-1.21437407	0.10043347	2.02609897
-1.21303558	0.10005757	2.02610469
-1.21228337	0.09993479	2.02610755
-1.21083128	0.09929639	2.02611423
-1.20989788	0.09822962	2.02612066
-1.20884883	0.09778383	2.02612543
-1.20846927	0.09713721	2.02612853
-1.20767450	0.09662926	2.02613282
-1.20690799	0.09618813	2.02613664
-1.20538235	0.09541181	2.02614403
-1.20509279	0.09462532	2.02614737
-1.20291483	0.09423992	2.02615595
-1.19971001	0.09373114	2.02616811
-1.19919932	0.09302035	2.02617192
-1.19836807	0.09177008	2.02617836
-1.19843936	0.09040242	2.02618241
-1.19516122	0.08946863	2.02619600
-1.19053566	0.08921847	2.02621222
-1.18982482	0.08786857	2.02621865
-1.18908370	0.08733505	2.02622271
-1.18430173	0.08672470	2.02624059
-1.18375885	0.08618119	2.02624393
-1.18250108	0.08548006	2.02625036
-1.18186069	0.08468348	2.02625489
-1.18014657	0.08495933	2.02625966
-1.17714822	0.08540332	2.02626824
-1.17626560	0.08443904	2.02627420
-1.17554140	0.08323923	2.02628016
-1.17429638	0.08306366	2.02628493
-1.17409492	0.08234489	2.02628779
-1.17291391	0.08251044	2.02629113
-1.17176795	0.08238077	2.02629542
-1.16989374	0.08224332	2.02630210
-1.16889882	0.08109617	2.02630877
-1.16756511	0.08124143	2.02631283
-1.16711998	0.08056286	2.02631640
-1.16629577	0.08009425	2.02632046
-1.16540301	0.07972136	2.02632451
-1.16464269	0.07959372	2.02632761
-1.16224730	0.07962409	2.02633548
-1.16134834	0.07893786	2.02634048
-1.16048980	0.07808891	2.02634597
-1.15960288	0.07746023	2.02635074
-1.15877295	0.07724747	2.02635407
-1.15785801	0.07645065	2.02635956
-1.15755641	0.07560652	2.02636313
-1.15711141	0.07492784	2.02636671
-1.15575564	0.07436192	2.02637291
-1.15501261	0.07442462	2.02637506
-1.15446711	0.07362041	2.02637935
-1.15024257	0.07387182	2.02639270
-1.14866233	0.07293993	2.02640080
-1.14771557	0.07202330	2.02640676
-1.14636850	0.06954089	2.02641869
-1.14526606	0.06787542	2.02642727
-1.14299250	0.06788576	2.02643490
-1.13763499	0.06728783	2.02645445
-1.13603747	0.06616589	2.02646327
-1.13407731	0.06622130	2.02646971
-1.13074911	0.06479633	2.02648497
-1.12858295	0.06446847	2.02649331
-1.12810934	0.06315348	2.02649879
-1.12621343	0.06316131	2.02650499
-1.12478065	0.06087205	2.02651668
-1.12095058	0.06045437	2.02653074
-1.11975265	0.06004125	2.02653599
-1.11832559	0.05998632	2.02654099
-1.11729753	0.05978358	2.02654505
-1.11587012	0.05972844	2.02654982
-1.11496925	0.05963829	2.02655315
-1.11449063	0.05904737	2.02655649
-1.11377335	0.05862916	2.02656007
-1.11313677	0.05788532	2.02656460
-1.11235738	0.05691850	2.02657008
-1.11128139	0.05648527	2.02657485
-1.11059022	0.05558619	2.02657986
-1.10984182	0.05551615	2.02658272
-1.10840237	0.05454701	2.02659035
-1.10732639	0.05411386	2.02659512
-1.10640335	0.05331221	2.02660060
-1.10572648	0.05273116	2.02660465
-1.10491574	0.05211258	2.02660918
-1.10482073	0.04370758	2.02663469
-1.10327137	0.04281604	2.02664256
-1.08373499	0.03000847	2.02674627
-1.08273053	0.02906424	2.02675247
-1.05859399	0.02442813	2.02684689
-1.05053532	0.02210692	2.02688074
-1.05229974	-0.00168657	2.02694631
-1.00419760	-0.00568816	2.02711868
-1.00280583	-0.00738475	2.02712846
-1.00094271	-0.00917795	2.02714014
-0.99561393	-0.01401916	2.02717233
-0.98073506	-0.01908700	2.02723718
-0.98140377	-0.09024954	2.02744842
-0.97941452	-0.09656671	2.02747393
-1.05784070	-0.24858199	2.02766800
-1.06236529	-0.25017068	2.02765751
-1.09549081	-0.25234693	2.02755356
-1.09662783	-0.25393534	2.02755451
-1.10494888	-0.27051356	2.02757645
-1.12243366	-0.26696074	2.02750731
-1.12464750	-0.26640242	2.02749825
-1.12457240	-0.28058285	2.02754116
-1.12694311	-0.28244171	2.02753878
-1.12928700	-0.28343135	2.02753377
-1.13181829	-0.28402025	2.02752709
-1.13525248	-0.28511497	2.02751899
-1.13841021	-0.28561389	2.02750993
-1.13943505	-0.28738496	2.02751184
-1.14138532	-0.28809404	2.02750754
-1.14607096	-0.28880119	2.02749395
-1.14840508	-0.28919926	2.02748728
-1.15067804	-0.29006630	2.02748227
-1.15195143	-0.29135641	2.02748203
-1.15287292	-0.29159245	2.02747965
-1.15477848	-0.29180324	2.02747393
-1.15546167	-0.29215389	2.02747273
-1.15675020	-0.29265767	2.02746987
-1.15938699	-0.29298866	2.02746201
-1.16098940	-0.29412335	2.02746010
-1.16246378	-0.29430604	2.02745581
-1.16482317	-0.29450932	2.02744842
-1.16729534	-0.29491806	2.02744150
-1.16965449	-0.29512125	2.02743411
-1.17053890	-0.29560977	2.02743268
-1.17315149	-0.29605597	2.02742529
-1.17654228	-0.29657289	2.02741551
-1.17847002	-0.29760480	2.02741218
-1.18059969	-0.29830638	2.02740717
-1.18198419	-0.29834926	2.02740264
-1.18653488	-0.29831719	2.02738738
-1.18838882	-0.29909849	2.02738357
-1.19085169	-0.29969299	2.02737713
-1.19391787	-0.29974300	2.02736712
-1.19654453	-0.30072778	2.02736115
-1.19789267	-0.30180010	2.02735996
-1.20017576	-0.30201343	2.02735305
-1.20164323	-0.30212125	2.02734828
-1.20344567	-0.30232942	2.02734303
-1.20464313	-0.30277294	2.02734041
-1.20579731	-0.30292583	2.02733684
-1.20698583	-0.30355483	2.02733493
-1.20770502	-0.30373272	2.02733302
-1.20898831	-0.30436912	2.02733064
-1.21052301	-0.30465242	2.02732635
-1.21615779	-0.30418235	2.02730608
-1.21672940	-0.30510426	2.02730703
-1.21834195	-0.30558503	2.02730298
-1.22246814	-0.30531254	2.02728844
-1.22466040	-0.30585426	2.02728271
-1.22600627	-0.30594194	2.02727842
-1.22664142	-0.30652303	2.02727818
-1.22842228	-0.30658582	2.02727246
-1.22947383	-0.30712444	2.02727056
-1.23032010	-0.30718976	2.02726793
-1.23343015	-0.30706242	2.02725720
-1.23356128	-0.30814210	2.02725983
-1.23434484	-0.30836725	2.02725792
-1.23552597	-0.30853301	2.02725458
-1.23736715	-0.30869621	2.02724886
-1.23840117	-0.30903655	2.02724648
-1.24177217	-0.30875909	2.02723432
-1.24252248	-0.30928516	2.02723336
-1.24357665	-0.30956334	2.02723074
-1.24541497	-0.30959868	2.02722478
-1.24562228	-0.31066826	2.02722716
-1.24763036	-0.31049323	2.02722001
-1.25097990	-0.31007040	2.02720761
-1.25352538	-0.31034118	2.02719975
-1.25544524	-0.31023383	2.02719307
-1.25645375	-0.31048182	2.02719045
-1.25740504	-0.31114578	2.02718925
-1.26014960	-0.31095833	2.02717948
-1.26128232	-0.31096572	2.02717590
-1.26227450	-0.31093583	2.02717233
-1.26421058	-0.31110641	2.02716637
-1.26578331	-0.31181294	2.02716327
-1.26621771	-0.31350133	2.02716684
-1.26705194	-0.31362411	2.02716446
-1.26847696	-0.31382975	2.02716041
-1.27007139	-0.31382507	2.02715516
-1.27125478	-0.31373024	2.02715087
-1.27365255	-0.31349990	2.02714205
-1.27438533	-0.31507292	2.02714443
-1.27780199	-0.31482551	2.02713227
-1.27841854	-0.31538925	2.02713180
-1.27915168	-0.31610566	2.02713156
-1.27960360	-0.31674710	2.02713203
-1.28102565	-0.31682470	2.02712750
-1.28154862	-0.31758878	2.02712798
-1.28269613	-0.31766665	2.02712440
-1.28348446	-0.31861600	2.02712464
-1.28474188	-0.31877151	2.02712083
-1.28601325	-0.31946549	2.02711868
-1.28791118	-0.32006949	2.02711415
-1.29101086	-0.32145247	2.02710795
-1.29252160	-0.32185090	2.02710414
-1.29330945	-0.32365704	2.02710700
-1.29525733	-0.32462665	2.02710342
-1.29619873	-0.32594427	2.02710414
-1.29737461	-0.32624260	2.02710104
-1.29797935	-0.32686388	2.02710104
-1.29989100	-0.32800633	2.02709794
-1.30031395	-0.32889551	2.02709937
-1.30123413	-0.32921135	2.02709723
-1.30316985	-0.33023855	2.02709389
-1.30543303	-0.33175930	2.02709079
-1.30549216	-0.33318454	2.02709484
-1.30661726	-0.33483034	2.02709603
-1.30775476	-0.33556193	2.02709436
-1.30866313	-0.33593529	2.02709246
-1.31056261	-0.33799198	2.02709246
-1.31152999	-0.33979052	2.02709460
-1.31244981	-0.34096313	2.02709508
-1.31279790	-0.34331524	2.02710080
-1.31415546	-0.34334552	2.02709651
-1.31463766	-0.34480339	2.02709913
-1.31502461	-0.34586546	2.02710104
-1.31702268	-0.34634411	2.02709579
-1.31705785	-0.34788465	2.02710032
-1.31868017	-0.34981349	2.02710080
-1.31873930	-0.35123885	2.02710485
-1.31981659	-0.35311508	2.02710676
-1.32013154	-0.35452285	2.02710986
-1.32050586	-0.35649937	2.02711463
-1.32109594	-0.35743880	2.02711558
-1.32183421	-0.35887918	2.02711725
-1.32220602	-0.36111602	2.02712274
-1.32361579	-0.36210808	2.02712107
-1.32432938	-0.36452028	2.02712584
-1.32494593	-0.36508387	2.02712560
-1.32507944	-0.36590311	2.02712750
-1.32527244	-0.36729068	2.02713108
-1.32601011	-0.36958778	2.02713561
-1.32660186	-0.37198013	2.02714062
-1.32676840	-0.37374359	2.02714539
-1.32760715	-0.37420204	2.02714396
-1.32846272	-0.37532684	2.02714443
-1.32994187	-0.37623385	2.02714229
-1.33027816	-0.37778687	2.02714586
-1.33136821	-0.37789214	2.02714252
-1.33214426	-0.37975588	2.02714562
-1.33329296	-0.38214311	2.02714896
-1.33535683	-0.42697287	2.02727628
-1.33574343	-0.42889172	2.02728081
-1.33662724	-0.43023676	2.02728200
-1.33737719	-0.43161952	2.02728343
-1.33799291	-0.43389678	2.02728844
-1.33820736	-0.43542981	2.02729225
-1.33982086	-0.43544248	2.02728677
-1.34199834	-0.43591368	2.02728105
-1.34328127	-0.43740678	2.02728128
-1.34395754	-0.44341841	2.02729702
-1.34461069	-0.45271155	2.02732253
-1.34515476	-0.45447749	2.02732611
-1.34586859	-0.45688981	2.02733088
-1.34640002	-0.46042681	2.02733970
-1.34705150	-0.47314662	2.02737570
-1.34714723	-0.48330131	2.02740598
-1.34705079	-0.48547542	2.02741265
-1.34606981	-0.48716101	2.02742100
-1.34174955	-0.49349537	2.02745438
-1.34024954	-0.49560922	2.02746582
-1.33785331	-0.49814880	2.02748132
-1.33258927	-0.50342596	2.02751470
-1.32633328	-0.50873297	2.02755165
-1.28787220	-0.52567381	2.02773070
-1.25678563	-0.53514302	2.02786303
-1.25377357	-0.52966940	2.02785659
-1.25094271	-0.52564108	2.02785397
-1.09443164	-0.47019616	2.02821016
-1.07172775	-0.46278408	2.02826381
-1.06951427	-0.46248567	2.02827024
-1.06918573	-0.46331680	2.02827382
-1.06777143	-0.46284610	2.02827716
-1.06652594	-0.46263301	2.02828074
-1.06368136	-0.46294576	2.02829099
-1.06164944	-0.46237940	2.02829623
-1.05976081	-0.46283501	2.02830386
-1.05843163	-0.46302515	2.02830887
-1.05704033	-0.46290725	2.02831316
-1.05630147	-0.46318015	2.02831650
-1.05369842	-0.46293685	2.02832437
-1.05182207	-0.46247846	2.02832913
-1.04798543	-0.46196449	2.02834058
-1.04690480	-0.46167344	2.02834320
-1.04608250	-0.46149296	2.02834535
-1.04563737	-0.46217161	2.02834892
-1.04406428	-0.46232164	2.02835464
-1.04270911	-0.46203095	2.02835822
-1.04072475	-0.46209100	2.02836514
-1.03991902	-0.46218830	2.02836800
-1.03927815	-0.46259651	2.02837157
-1.03573596	-0.46202022	2.02838159
-1.03372264	-0.46232796	2.02838922
-1.03308165	-0.46273616	2.02839255
-1.03212571	-0.46259326	2.02839541
-1.03147280	-0.46305901	2.02839899
-1.02950060	-0.46306133	2.02840543
-1.02754116	-0.46253788	2.02841043
-1.02672577	-0.46243221	2.02841282
-1.02591944	-0.46338642	2.02841854
-1.02417648	-0.46374682	2.02842522
-1.02260363	-0.46389690	2.02843094
-1.02157557	-0.46409968	2.02843499
-1.02052140	-0.46382171	2.02843785
-1.01893640	-0.46402937	2.02844357
-1.01758111	-0.46373868	2.02844739
-1.01663661	-0.46439478	2.02845240
-1.01413369	-0.46402627	2.02845979
-1.01334512	-0.46393344	2.02846193
-1.01240098	-0.46373296	2.02846456
-1.01142287	-0.46430141	2.02846956
-1.00943875	-0.46436122	2.02847648
-1.00879776	-0.46476936	2.02847981
-1.00548196	-0.46527991	2.02849221
-1.00427210	-0.46575066	2.02849770
-1.00092018	-0.46643424	2.02851105
-0.99443507	-0.46564686	2.02853036
-0.99170053	-0.46518052	2.02853799
-0.99039280	-0.46551597	2.02854347
-0.98831081	-0.46544063	2.02855015
-0.98689550	-0.46543786	2.02855492
-0.98660588	-0.46622434	2.02855825
-0.98562336	-0.46645719	2.02856207
-0.98383504	-0.46678758	2.02856898
-0.98223597	-0.46645692	2.02857351
-0.98001039	-0.46621612	2.02858019
-0.97816008	-0.46623844	2.02858639
-0.97617590	-0.46629828	2.02859330
-0.97292030	-0.46566406	2.02860212
-0.97236997	-0.46670201	2.02860713
-0.96577990	-0.46560296	2.02862573
-0.96386778	-0.46531719	2.02863145
-0.96302104	-0.46610883	2.02863646
-0.95703083	-0.46500835	2.02865314
-0.95476717	-0.46520096	2.02866125
-0.95296472	-0.46499282	2.02866673
-0.95246220	-0.46580026	2.02867079
-0.95084012	-0.46875072	2.02868509
-0.94479364	-0.46998742	2.02870893
-0.94324458	-0.47002226	2.02871418
-0.93836081	-0.46930516	2.02872849
-0.93734366	-0.47202030	2.02873993
-0.93673801	-0.47396892	2.02874780
-0.93512905	-0.47429180	2.02875423
-0.92001927	-0.47295639	2.02880073
-0.91788924	-0.47311139	2.02880812
-0.91669142	-0.47352460	2.02881336
-0.91107637	-0.47268742	2.02882957
-0.90917373	-0.47260445	2.02883577
-0.90843499	-0.47287741	2.02883911
-0.90641212	-0.47422728	2.02884984
-0.90483916	-0.47437736	2.02885556
-0.90290296	-0.47420675	2.02886152
-0.89631981	-0.47328427	2.02888060
-0.89580524	-0.47404793	2.02888465
-0.89438313	-0.47397032	2.02888918
-0.89353424	-0.47502226	2.02889514
-0.89226425	-0.48276237	2.02892256
-0.89009827	-0.48309016	2.02893090
-0.87962312	-0.48227736	2.02896333
-0.87647945	-0.48231694	2.02897406
-0.87551337	-0.48282775	2.02897882
-0.87469995	-0.48456353	2.02898669
-0.87326026	-0.48553264	2.02899432
-0.87087631	-0.48715794	2.02900720
-0.85521567	-0.48647207	2.02905750
-0.85341328	-0.48626393	2.02906275
-0.85193777	-0.48740593	2.02907109
-0.85007513	-0.48834243	2.02908015
-0.84665173	-0.48851478	2.02909207
-0.76119202	-0.47968039	2.02935100
-0.75988364	-0.48172915	2.02936149
-0.75881964	-0.48210472	2.02936602
-0.75707680	-0.48246521	2.02937293
-0.75498283	-0.48244739	2.02937984
-0.75393069	-0.48276532	2.02938437
-0.75321794	-0.48351917	2.02938914
-0.75187421	-0.48402768	2.02939510
-0.74919921	-0.48413002	2.02940440
-0.74840051	-0.48469099	2.02940869
-0.74526179	-0.48545462	2.02942133
-0.74431682	-0.48696736	2.02942920
-0.74246597	-0.48784649	2.02943802
-0.74187034	-0.48914146	2.02944374
-0.74027306	-0.49026340	2.02945256
-0.73869967	-0.49127010	2.02946067
-0.73630428	-0.49123973	2.02946877
-0.73454899	-0.49251464	2.02947831
-0.73266268	-0.49270976	2.02948523
-0.73214138	-0.49339849	2.02948904
-0.73077363	-0.49402201	2.02949548
-0.72816068	-0.49443245	2.02950549
-0.72449791	-0.49490026	2.02951908
-0.72364658	-0.49621272	2.02952576
-0.72269481	-0.49640539	2.02952957
-0.72133917	-0.49697131	2.02953577
-0.71963471	-0.49689838	2.02954125
-0.71853220	-0.49770752	2.02954745
-0.71773350	-0.49826851	2.02955174
-0.71587855	-0.49881187	2.02955961
-0.71417356	-0.49959561	2.02956748
-0.71333897	-0.50032943	2.02957249
-0.71181345	-0.50110567	2.02957988
-0.70840216	-0.50122046	2.02959180
-0.70810050	-0.50206453	2.02959514
-0.70661479	-0.50261515	2.02960181
-0.70582139	-0.50304347	2.02960587
-0.70535076	-0.50362986	2.02960920
-0.70421207	-0.50422299	2.02961469
-0.70321989	-0.50425315	2.02961802
-0.70265049	-0.50517237	2.02962279
-0.70150030	-0.50621164	2.02962971
-0.70050818	-0.50624162	2.02963305
-0.70024514	-0.50693941	2.02963614
-0.69864309	-0.50743866	2.02964282
-0.69799292	-0.50793105	2.02964664
-0.69742090	-0.50882363	2.02965117
-0.69598138	-0.50979280	2.02965879
-0.69494122	-0.51005340	2.02966309
-0.69363880	-0.51025611	2.02966809
-0.69337988	-0.51100254	2.02967119
-0.69226587	-0.51101232	2.02967501
-0.69114721	-0.51154327	2.02968025
-0.69074535	-0.51251262	2.02968454
-0.68945163	-0.51338661	2.02969146
-0.68745500	-0.51436090	2.02970099
-0.68591756	-0.51519477	2.02970862
-0.68352139	-0.51563245	2.02971792
-0.68267256	-0.51572645	2.02972102
-0.68231362	-0.51669937	2.02972531
-0.68177319	-0.51726961	2.02972865
-0.68092191	-0.51743823	2.02973199
-0.68028092	-0.51784647	2.02973533
-0.67967373	-0.51834238	2.02973890
-0.67891771	-0.51994938	2.02974629
-0.67774373	-0.52024722	2.02975106
-0.67696911	-0.52069294	2.02975512
-0.67609906	-0.52084422	2.02975845
-0.67601693	-0.52174234	2.02976131
-0.67477882	-0.52199274	2.02976632
-0.67382962	-0.52202612	2.02976942
-0.67294240	-0.52255344	2.02977395
-0.67148644	-0.52324492	2.02978086
-0.67037249	-0.52325475	2.02978468
-0.66997731	-0.52429914	2.02978921
-0.66904277	-0.52430153	2.02979231
-0.66846585	-0.52561396	2.02979827
-0.66695243	-0.52633262	2.02980542
-0.66631150	-0.52674079	2.02980876
-0.66508269	-0.52690697	2.02981329
-0.66472614	-0.52780515	2.02981710
-0.66361678	-0.52825189	2.02982235
-0.66264373	-0.52858639	2.02982640
-0.66256428	-0.52942669	2.02982926
-0.66137838	-0.52978218	2.02983427
-0.66022956	-0.52978402	2.02983809
-0.65998685	-0.53052092	2.02984118
-0.65946287	-0.53136897	2.02984548
-0.65752620	-0.53205508	2.02985406
-0.65658671	-0.53229135	2.02985787
-0.65506440	-0.53233910	2.02986312
-0.65490079	-0.53337973	2.02986670
-0.65433151	-0.53429890	2.02987146
-0.65214157	-0.53474200	2.02988005
-0.65167117	-0.53542960	2.02988362
-0.65062797	-0.53546083	2.02988720
-0.64983630	-0.53619814	2.02989197
-0.64909256	-0.53689086	2.02989674
-0.64834732	-0.53719002	2.02990007
-0.64753121	-0.53784001	2.02990460
-0.64680904	-0.53849220	2.02990913
-0.64585090	-0.53899837	2.02991366
-0.64483911	-0.53937763	2.02991819
-0.64394242	-0.53980356	2.02992249
-0.64339936	-0.54034698	2.02992606
-0.64302820	-0.54127622	2.02993011
-0.64171094	-0.54140878	2.02993488
-0.64146680	-0.54222530	2.02993798
-0.64012313	-0.54273361	2.02994418
-0.63892293	-0.54340726	2.02995014
-0.63777506	-0.54418600	2.02995634
-0.63709819	-0.54476714	2.02996039
-0.63626164	-0.54490471	2.02996349
-0.63512570	-0.54562598	2.02996945
-0.63468057	-0.54630470	2.02997303
-0.63380790	-0.54661512	2.02997684
-0.63316703	-0.54702336	2.02998018
-0.63152963	-0.54712611	2.02998590
-0.63082886	-0.54782230	2.02999043
-0.63016593	-0.54894185	2.02999592
-0.62971854	-0.54988104	2.03000021
-0.62653619	-0.55121064	2.03001475
-0.62495112	-0.55141830	2.03002071
-0.62264216	-0.55196947	2.03003001
-0.62166876	-0.55201685	2.03003359
-0.62163770	-0.55291367	2.03003621
-0.62067157	-0.55342448	2.03004098
-0.62038863	-0.55428600	2.03004456
-0.61943215	-0.55499971	2.03005004
-0.61855960	-0.55531019	2.03005385
-0.61778677	-0.55635208	2.03005958
-0.61697626	-0.55697066	2.03006411
-0.61611396	-0.55701602	2.03006697
-0.61464041	-0.55750883	2.03007340
-0.61303145	-0.55783182	2.03007984
-0.61109477	-0.55851805	2.03008819
-0.60926801	-0.55928171	2.03009677
-0.60723591	-0.55957198	2.03010440
-0.60586393	-0.55985993	2.03010988
-0.60475433	-0.56020546	2.03011441
-0.60351610	-0.56045574	2.03011942
-0.60282975	-0.56083381	2.03012276
-0.60166985	-0.56167030	2.03012919
-0.60093105	-0.56194329	2.03013253
-0.60009181	-0.56234169	2.03013659
-0.59926724	-0.56242168	2.03013945
-0.59832948	-0.56315291	2.03014469
-0.59746647	-0.56366634	2.03014922
-0.59628499	-0.56435746	2.03015518
-0.59445393	-0.56478560	2.03016257
-0.59297645	-0.56533140	2.03016925
-0.59191674	-0.56604254	2.03017497
-0.59074295	-0.56634045	2.03017974
-0.58949280	-0.56664848	2.03018475
-0.58795762	-0.56722200	2.03019166
-0.58701313	-0.56787813	2.03019667
-0.58649170	-0.56856692	2.03020048
-0.58426583	-0.56918275	2.03020978
-0.58353901	-0.56939811	2.03021288
-0.58276439	-0.56984389	2.03021693
-0.58148253	-0.57066017	2.03022361
-0.58052415	-0.57077783	2.03022718
-0.57971585	-0.57113588	2.03023076
-0.57811630	-0.57166189	2.03023767
-0.57702601	-0.57241321	2.03024364
-0.57683188	-0.57359552	2.03024793
-0.57135028	-0.57453519	2.03026891
-0.56996775	-0.57508832	2.03027534
-0.56977177	-0.57596183	2.03027844
-0.56734520	-0.57654107	2.03028846
-0.56695759	-0.57719231	2.03029156
-0.56545150	-0.57741654	2.03029728
-0.56537217	-0.57825673	2.03030014
-0.56342363	-0.57900035	2.03030872
-0.56258899	-0.57973421	2.03031373
-0.56067622	-0.58030522	2.03032184
-0.55884755	-0.58047271	2.03032851
-0.55795300	-0.58149457	2.03033447
-0.55702132	-0.58525920	2.03034902
-0.54493207	-0.58614695	2.03039193
-0.54391074	-0.58642471	2.03039622
-0.54303133	-0.58666021	2.03039980
-0.54149938	-0.58764887	2.03040791
-0.54070961	-0.58773696	2.03041077
-0.53994167	-0.58825767	2.03041506
-0.53885895	-0.58861578	2.03041959
-0.53813523	-0.58924633	2.03042388
-0.53718007	-0.58988047	2.03042912
-0.53482783	-0.59014094	2.03043771
-0.53462642	-0.59085971	2.03044057
-0.53338820	-0.59111011	2.03044534
-0.53289080	-0.59168363	2.03044868
-0.53180289	-0.59217441	2.03045392
-0.53112841	-0.59249485	2.03045702
-0.53065258	-0.59321380	2.03046083
-0.52984190	-0.59383231	2.03046536
-0.52880192	-0.59409267	2.03046966
-0.52825654	-0.59489697	2.03047395
-0.52690077	-0.59546274	2.03048015
-0.52186084	-0.59635127	2.03049970
-0.51935756	-0.59683937	2.03050947
-0.51798999	-0.59746289	2.03051591
-0.51621127	-0.59799606	2.03052330
-0.51468146	-0.59843683	2.03052974
-0.51337355	-0.59877247	2.03053522
-0.51235676	-0.59938562	2.03054047
-0.51125002	-0.59985900	2.03054547
-0.50958109	-0.60047007	2.03055286
-0.50828290	-0.60100847	2.03055882
-0.50725114	-0.60155147	2.03056383
-0.50599712	-0.60191250	2.03056931
-0.50484920	-0.60269123	2.03057528
-0.50350559	-0.60319954	2.03058147
-0.50282872	-0.60378051	2.03058529
-0.50213552	-0.60408354	2.03058863
-0.50086576	-0.60484242	2.03059506
-0.49953645	-0.60503244	2.03060007
-0.49851555	-0.60569894	2.03060555
-0.49771923	-0.60599935	2.03060913
-0.49625373	-0.60648763	2.03061557
-0.49509385	-0.60732412	2.03062177
-0.49373385	-0.60755438	2.03062701
-0.49212682	-0.60847342	2.03063512
-0.49026415	-0.60940987	2.03064418
-0.48958719	-0.60999125	2.03064823
-0.48819560	-0.61072987	2.03065515
-0.48696181	-0.61131579	2.03066087
-0.48339224	-0.61243999	2.03067613
-0.48167539	-0.61328125	2.03068447
-0.47939196	-0.61392474	2.03069401
-0.47833991	-0.61424273	2.03069854
-0.47742611	-0.61485869	2.03070331
-0.47699594	-0.61560774	2.03070712
-0.47265872	-0.61639595	2.03072381
-0.47146091	-0.61680913	2.03072906
-0.47013196	-0.61738777	2.03073525
-0.46870241	-0.61770332	2.03074098
-0.46749496	-0.61791348	2.03074574
-0.46694279	-0.61864269	2.03074980
-0.46561542	-0.61942887	2.03075647
-0.46398482	-0.61960649	2.03076243
-0.46398214	-0.62072361	2.03076577
-0.46098915	-0.62139213	2.03077793
-0.45994914	-0.62165248	2.03078198
-0.45892546	-0.62219071	2.03078723
-0.45838010	-0.62299478	2.03079128
-0.45755312	-0.62333536	2.03079510
-0.45619729	-0.62390143	2.03080130
-0.45467418	-0.62441725	2.03080797
-0.45251024	-0.62534118	2.03081799
-0.45126450	-0.62598467	2.03082418
-0.44800618	-0.62646776	2.03083634
-0.44581336	-0.62678289	2.03084469
-0.44464913	-0.62728369	2.03085017
-0.44329584	-0.62758911	2.03085542
-0.44257870	-0.62800735	2.03085923
-0.44110349	-0.62829268	2.03086495
-0.43880808	-0.62899363	2.03087473
-0.43809083	-0.62941211	2.03087831
-0.43643394	-0.62996548	2.03088546
-0.43409818	-0.63050365	2.03089499
-0.43335941	-0.63077658	2.03089809
-0.42326549	-0.63201499	2.03093553
-0.42222542	-0.63227534	2.03093982
-0.42137286	-0.63252354	2.03094339
-0.41975191	-0.63290405	2.03095007
-0.41840789	-0.63426906	2.03095865
-0.41720966	-0.63553888	2.03096628
-0.41453582	-0.63795090	2.03098249
-0.41428176	-0.63942122	2.03098774
-0.41212776	-0.63969135	2.03099585
-0.39993897	-0.64138007	2.03104162
-0.39833000	-0.64170301	2.03104782
-0.39642969	-0.64135957	2.03105330
-0.39240146	-0.64176738	2.03106785
-0.39048555	-0.64182162	2.03107452
-0.22637376	-0.65951967	2.03167534
-0.21714327	-0.66063333	2.03170943
-0.21490538	-0.66130674	2.03171897
-0.21392497	-0.66213560	2.03172469
-0.19307601	-0.66479564	2.03180218
-0.18661407	-0.66560626	2.03182626
-0.18524632	-0.66623008	2.03183270
-0.18172702	-0.66686320	2.03184628
-0.18039536	-0.66731393	2.03185225
-0.17852029	-0.66916478	2.03186393
-0.16752064	-0.67101443	2.03190613
-0.16660976	-0.67175829	2.03191137
-0.16663337	-0.67249972	2.03191352
-0.16595644	-0.67308074	2.03191757
-0.08826476	-0.68192047	2.03220344
-0.06201822	-0.68415892	2.03229785
-0.05253321	-0.68271983	2.03232503
-0.04510421	-0.68087554	2.03234434
-0.03635627	-0.67771071	2.03236413
-0.01596963	-0.66276151	2.03238726
-0.01445723	-0.66091019	2.03238678
-0.00371456	-0.64467728	2.03237414
0.00342327	-0.63374025	2.03236508
0.05275065	-0.53473723	2.03223300
0.07707047	-0.36849862	2.03181577
0.07776162	-0.35026851	2.03176332
0.07457483	-0.31799698	2.03165603
0.07351014	-0.31590813	2.03164625
0.07267717	-0.31372160	2.03163671
0.07229120	-0.31161758	2.03162932
0.07054529	-0.30440372	2.03160167
0.06992799	-0.30325407	2.03159618
0.06837901	-0.30321926	2.03159094
0.06624943	-0.29904133	2.03157139
0.06485742	-0.29744595	2.03156185
0.06460571	-0.29623619	2.03155756
0.06410837	-0.29566264	2.03155398
0.06336948	-0.29538965	2.03155088
0.06286454	-0.29442298	2.03154612
0.06251982	-0.29262447	2.03153968
0.05970451	-0.27304155	2.03147149
0.05820394	-0.26921439	2.03145504
0.05750227	-0.26804993	2.03144932
0.05705437	-0.26625398	2.03144240
0.05602416	-0.25966609	2.03141928
0.05418402	-0.25053859	2.03138566
0.05234534	-0.24608298	2.03136611
0.05157828	-0.24603041	2.03136349
0.05119467	-0.24418698	2.03135657
0.05058050	-0.24376589	2.03135324
0.05027339	-0.24193276	2.03134680
0.04986191	-0.24116632	2.03134322
0.04969409	-0.24035984	2.03134012
0.04955974	-0.23946542	2.03133702
0.04884624	-0.23699827	2.03132725
0.04865205	-0.23581600	2.03132296
0.04837441	-0.23508714	2.03131986
0.04791462	-0.23323369	2.03131294
0.04665643	-0.23167585	2.03130388
0.04642388	-0.23006003	2.03129840
0.04573435	-0.22770813	2.03128910
0.04540804	-0.22503561	2.03127980
0.04471803	-0.22182693	2.03126788
0.04309511	-0.21716298	2.03124857
0.04200515	-0.21726833	2.03124523
0.04117009	-0.21567790	2.03123760
0.04054371	-0.21070828	2.03122067
0.04028720	-0.20897746	2.03121471
0.03970754	-0.20654786	2.03120542
0.03910193	-0.20459922	2.03119755
0.03855658	-0.20379522	2.03119326
0.03794163	-0.20290615	2.03118873
0.03764912	-0.20100227	2.03118205
0.03710616	-0.20045885	2.03117847
0.03675216	-0.19971995	2.03117514
0.03645256	-0.19827974	2.03116989
0.03578660	-0.19518636	2.03115821
0.03509620	-0.19112094	2.03114390
0.03459877	-0.19054744	2.03114033
0.03411499	-0.18857868	2.03113294
0.03341386	-0.18702586	2.03112602
0.03274661	-0.18624189	2.03112125
0.03245693	-0.18545540	2.03111792
0.03098106	-0.18345682	2.03110719
0.02990136	-0.17321165	2.03107285
0.02958533	-0.17204946	2.03106833
0.02914500	-0.17064655	2.03106260
0.02893177	-0.16987035	2.03105950
0.02863151	-0.16881855	2.03105545
0.02813616	-0.16764888	2.03105021
0.02713135	-0.16584806	2.03104138
0.02628273	-0.16565278	2.03103805
0.02549598	-0.16514945	2.03103399
0.02530426	-0.16422771	2.03103042
0.02455103	-0.16363642	2.03102612
0.02377626	-0.16319065	2.03102231
0.02350065	-0.16186571	2.03101730
0.02288336	-0.16071607	2.03101182
0.02197644	-0.15877996	2.03100300
0.02036431	-0.15648325	2.03099084
0.01948327	-0.15406606	2.03098059
0.01807773	-0.15386586	2.03097534
0.01796949	-0.15249072	2.03097081
0.01778725	-0.15136610	2.03096676
0.01688835	-0.15067987	2.03096175
0.01644328	-0.15000112	2.03095818
0.01626348	-0.14913702	2.03095508
0.01598307	-0.14729103	2.03094864
0.01540163	-0.14631397	2.03094387
0.01482230	-0.14474109	2.03093719
0.01411915	-0.14378430	2.03093195
0.01392737	-0.14286259	2.03092837
0.01362497	-0.14030522	2.03091979
0.01320150	-0.13948117	2.03091598
0.01265654	-0.13465425	2.03089952
0.01257151	-0.13168105	2.03089046
0.01225641	-0.12735282	2.03087640
0.00925374	-0.12688705	2.03086495
0.00907156	-0.12576245	2.03086090
0.00883186	-0.12461028	2.03085685
0.00795928	-0.12429981	2.03085279
0.00770283	-0.12256898	2.03084683
0.00665718	-0.12007403	2.03083587
0.00604227	-0.11918496	2.03083110
0.00584820	-0.11800270	2.03082705
0.00541502	-0.11738162	2.03082371
0.00457773	-0.11553065	2.03081536
0.00364515	-0.11493213	2.03081036
0.00238538	-0.11482708	2.03080583
0.00241101	-0.11348954	2.03080201
0.00114325	-0.11213462	2.03079367
0.00786607	0.06022872	2.03029943
0.00456125	0.11739393	2.03011703
0.00470634	0.11901206	2.03011250
-0.00235774	0.11894093	2.03008914
-0.17083593	0.15661857	2.02941394
-0.17179005	0.15707177	2.02940941
-0.17179802	0.15832162	2.02940559
-0.17288077	0.15867975	2.02940083
-0.17393312	0.15985437	2.02939391
-0.17501152	0.16054803	2.02938819
-0.17596564	0.16100127	2.02938366
-0.17620972	0.16181782	2.02938032
-0.17724535	0.16241378	2.02937508
-0.17769721	0.16301739	2.02937174
-0.17805637	0.16388899	2.02936792
-0.17826700	0.16479351	2.02936459
-0.17854467	0.16552234	2.02936149
-0.17893220	0.16617358	2.02935815
-0.17950156	0.16709268	2.02935362
-0.18034820	0.16788410	2.02934837
-0.18111126	0.16912889	2.02934217
-0.18187958	0.17050636	2.02933550
-0.18217653	0.17207466	2.02932978
-0.18318295	0.17242268	2.02932525
-0.18287763	0.17362753	2.02932262
-0.18293071	0.17523566	2.02931762
-0.18333787	0.17633767	2.02931309
-0.18357995	0.17775035	2.02930808
-0.18425836	0.17812389	2.02930474
-0.18441932	0.17900521	2.02930140
-0.18512973	0.17949848	2.02929759
-0.18486731	0.18080127	2.02929449
-0.18568757	0.18121693	2.02929068
-0.18567593	0.18201599	2.02928829
-0.18608749	0.18278244	2.02928448
-0.18629357	0.18402226	2.02928019
-0.18614814	0.18478376	2.02927828
-0.18613651	0.18558276	2.02927589
-0.18641141	0.18643974	2.02927256
-0.18734428	0.18789490	2.02926493
-0.18716325	0.18934020	2.02926135
-0.18847188	0.19014391	2.02925444
-0.18811576	0.19124618	2.02925253
-0.18818840	0.19330510	2.02924609
-0.18815519	0.19424951	2.02924323
-0.18854602	0.19562949	2.02923775
-0.18838686	0.19903140	2.02922821
-0.18792762	0.20377053	2.02921557
-0.18933126	0.20456688	2.02920842
-0.19191629	0.20605434	2.02919531
-0.19129139	0.20939112	2.02918744
-0.19196971	0.21339869	2.02917314
-0.19304605	0.21468852	2.02916574
-0.19341013	0.21608138	2.02916026
-0.19321707	0.21746905	2.02915668
-0.19400178	0.21856855	2.02915096
-0.19292691	0.22070532	2.02914810
-0.19359210	0.22208540	2.02914166
-0.19321766	0.22406176	2.02913690
-0.19427007	0.22523633	2.02912998
-0.19427091	0.22694989	2.02912474
-0.19394442	0.22915663	2.02911925
-0.19621859	0.23085959	2.02910662
-0.19562642	0.23239513	2.02910399
-0.19602591	0.23310392	2.02910042
-0.19643745	0.23387036	2.02909684
-0.19710262	0.23525038	2.02909040
-0.19730888	0.23649050	2.02908611
-0.19716384	0.23810861	2.02908182
-0.19786496	0.23966151	2.02907467
-0.19905159	0.24173029	2.02906466
-0.20036963	0.24357617	2.02905464
-0.20012864	0.24473345	2.02905202
-0.20073441	0.24668232	2.02904415
-0.20006830	0.24846829	2.02904105
-0.20242879	0.25083506	2.02902603
-0.20297210	0.25223514	2.02902007
-0.20350583	0.25383818	2.02901340
-0.20333692	0.25534126	2.02900934
-0.20466661	0.25638810	2.02900195
-0.20554960	0.25820896	2.02899337
-0.20509122	0.25978208	2.02899027
-0.20597377	0.26074630	2.02898455
-0.20610601	0.26223665	2.02897954
-0.20747453	0.26457366	2.02896786
-0.20760673	0.26606399	2.02896309
-0.20800625	0.26677281	2.02895951
-0.20790872	0.26776472	2.02895689
-0.20830864	0.26933017	2.02895093
-0.20819914	0.27026448	2.02894855
-0.20856504	0.27106097	2.02894497
-0.20800647	0.27250880	2.02894235
-0.20835844	0.27384385	2.02893734
-0.20901176	0.27516651	2.02893114
-0.20880872	0.27590048	2.02892947
-0.20905083	0.27731314	2.02892447
-0.20869762	0.27828753	2.02892280
-0.20860285	0.28039661	2.02891684
-0.20896679	0.28178930	2.02891135
-0.20864026	0.28399608	2.02890587
-0.20894189	0.28484014	2.02890229
-0.21182147	0.28763533	2.02888441
-0.21156618	0.28847444	2.02888274
-0.21115774	0.28968185	2.02888036
-0.21096233	0.29080904	2.02887774
-0.20972972	0.29279301	2.02887583
-0.21095186	0.29417801	2.02886772
-0.20989907	0.29702634	2.02886248
-0.21107331	0.29818088	2.02885509
-0.21123913	0.29958352	2.02885056
-0.21075204	0.30052036	2.02884936
-0.21092500	0.30145928	2.02884579
-0.20867854	0.30480400	2.02884340
-0.20852152	0.30636445	2.02883911
-0.20901494	0.30813023	2.02883220
-0.20964630	0.30874160	2.02882838
-0.20916873	0.30947530	2.02882767
-0.20854269	0.31024212	2.02882743
-0.20831889	0.31158939	2.02882409
-0.20899288	0.31229851	2.02881980
-0.20944038	0.31323776	2.02881551
-0.20874996	0.31405187	2.02881527
-0.20763001	0.31583038	2.02881384
-0.20687711	0.31734100	2.02881169
-0.20679453	0.31826264	2.02880931
-0.20676655	0.31933966	2.02880621
-0.20650597	0.32004610	2.02880478
-0.20619982	0.32078296	2.02880359
-0.20642759	0.32187754	2.02879977
-0.20631814	0.32281172	2.02879715
-0.20618309	0.32383835	2.02879453
-0.20518130	0.32525668	2.02879357
-0.20438139	0.32700506	2.02879119
-0.20473859	0.32847276	2.02878547
-0.20452882	0.32928181	2.02878380
-0.20356341	0.33048430	2.02878332
-0.20242393	0.33181193	2.02878332
-0.20226681	0.33337250	2.02877903
-0.20277622	0.33400363	2.02877545
-0.20192510	0.33479288	2.02877593
-0.20057058	0.33679691	2.02877450
-0.20054021	0.33761340	2.02877212
-0.19888888	0.33929467	2.02877259
-0.19814327	0.34034184	2.02877188
-0.19776878	0.34231818	2.02876735
-0.19889596	0.34371057	2.02875924
-0.19780345	0.34480047	2.02875972
-0.19696081	0.34645113	2.02875757
-0.19691041	0.34720519	2.02875543
-0.19685167	0.34824210	2.02875257
-0.19634223	0.34885618	2.02875233
-0.19466761	0.35089004	2.02875185
-0.19378392	0.35223544	2.02875090
-0.19403835	0.35456237	2.02874303
-0.19250672	0.35681951	2.02874136
-0.19317919	0.35773611	2.02873635
-0.19181465	0.35908645	2.02873683
-0.19147341	0.36011845	2.02873492
-0.19124879	0.36099768	2.02873302
-0.19066587	0.36147368	2.02873349
-0.19030881	0.36239526	2.02873206
-0.19010963	0.36318204	2.02873039
-0.19029993	0.36431146	2.02872634
-0.18880555	0.36567724	2.02872705
-0.18764964	0.36728293	2.02872610
-0.18428770	0.37082520	2.02872682
-0.18356203	0.37317982	2.02872229
-0.18410808	0.37569711	2.02871275
-0.18384318	0.37673920	2.02871060
-0.18376964	0.37784627	2.02870750
-0.18200606	0.37934464	2.02870893
-0.18157643	0.38030881	2.02870750
-0.18097191	0.38093010	2.02870750
-0.17950198	0.38202265	2.02870917
-0.17983076	0.38371050	2.02870297
-0.17940520	0.38472784	2.02870154
-0.17814617	0.38633612	2.02870083
-0.17911786	0.38783628	2.02869296
-0.17904875	0.38860777	2.02869105
-0.17692624	0.39009097	2.02869368
-0.17755640	0.39176649	2.02868652
-0.17694221	0.39259070	2.02868605
-0.17619176	0.39311686	2.02868700
-0.17524838	0.39503065	2.02868438
-0.17533833	0.39727986	2.02867746
-0.17541745	0.39840731	2.02867365
-0.17476968	0.39931920	2.02867317
-0.17172265	0.40145376	2.02867699
-0.17151520	0.40252334	2.02867436
-0.17194198	0.40407616	2.02866840
-0.17133746	0.40469739	2.02866840
-0.17125428	0.40600747	2.02866483
-0.17108198	0.40678158	2.02866316
-0.17144248	0.40773281	2.02865911
-0.17016265	0.40881082	2.02866006
-0.16981182	0.41004574	2.02865767
-0.16819437	0.41125044	2.02865934
-0.16723856	0.41225001	2.02865958
-0.16676591	0.41350496	2.02865744
-0.16616136	0.41412622	2.02865744
-0.16510329	0.41684192	2.02865291
-0.16539294	0.41762838	2.02864957
-0.16399048	0.41940200	2.02864885
-0.16343424	0.42111033	2.02864575
-0.16283730	0.42212486	2.02864456
-0.16341151	0.42356536	2.02863836
-0.16379738	0.42442402	2.02863455
-0.16331476	0.42502525	2.02863431
-0.16241126	0.42591968	2.02863479
-0.16254798	0.42707464	2.02863073
-0.16192178	0.42784125	2.02863050
-0.16137725	0.42875051	2.02862954
-0.16080628	0.42928413	2.02863002
-0.15994610	0.42988783	2.02863097
-0.15905060	0.43203214	2.02862763
-0.15889354	0.43359262	2.02862334
-0.15890822	0.43476743	2.02861977
-0.15851381	0.43543628	2.02861905
-0.15746212	0.43597499	2.02862096
-0.15776469	0.43728730	2.02861619
-0.15689243	0.43783349	2.02861738
-0.15614213	0.43835956	2.02861834
-0.15568298	0.43946466	2.02861643
-0.15542996	0.44056436	2.02861404
-0.15488382	0.44168115	2.02861261
-0.15384409	0.44227752	2.02861428
-0.15283805	0.44278610	2.02861595
-0.15218794	0.44343743	2.02861619
-0.15253749	0.44451201	2.02861190
-0.15119186	0.44584501	2.02861238
-0.15162063	0.44680172	2.02860808
-0.15094888	0.44759846	2.02860785
-0.14990920	0.44819471	2.02860951
-0.14917082	0.44877839	2.02861023
-0.14961153	0.44979277	2.02860594
