//X	Y	Z
-0.11836927	0.17156786	3.67176461
-0.12360276	0.18874249	3.67173862
-0.13009709	0.20654283	3.67171144
-0.19074151	0.35943949	3.67147684
-0.19243813	0.36202765	3.67147279
-0.20255357	0.37669849	3.67144895
-0.24819697	0.44095322	3.67134452
-0.25727740	0.44953349	3.67132974
-0.27707994	0.45913553	3.67131019
-0.28046584	0.46011972	3.67130780
-0.28345054	0.46028218	3.67130685
-0.28669524	0.46034649	3.67130566
-0.28825659	0.45840994	3.67130804
-0.29245341	0.45677766	3.67130923
-0.29691008	0.45504731	3.67131019
-0.30338863	0.45243984	3.67131209
-0.30621010	0.45043653	3.67131400
-0.30792543	0.44931483	3.67131519
-0.31255209	0.44683799	3.67131734
-0.31261468	0.44561926	3.67131901
-0.31331307	0.44533500	3.67131925
-0.31406212	0.44462979	3.67131996
-0.31470442	0.44414479	3.67132044
-0.31670094	0.44347814	3.67132092
-0.31729192	0.44272152	3.67132187
-0.31863266	0.44195229	3.67132258
-0.31859332	0.44088283	3.67132401
-0.32053542	0.43990797	3.67132497
-0.32060656	0.43934742	3.67132568
-0.33658627	0.43397909	3.67132854
-0.34249833	0.43122482	3.67133069
-0.34483957	0.42899445	3.67133331
-0.34495342	0.42804736	3.67133451
-0.34633994	0.42692778	3.67133570
-0.34824723	0.42630535	3.67133594
-0.34981483	0.42568329	3.67133641
-0.35113740	0.42439741	3.67133784
-0.35197085	0.42371890	3.67133856
-0.35251611	0.42331257	3.67133904
-0.35266861	0.42274204	3.67133975
-0.35330310	0.42229149	3.67134023
-0.35413668	0.42161328	3.67134094
-0.35512817	0.42098615	3.67134166
-0.35555810	0.42014158	3.67134261
-0.35700864	0.41918871	3.67134356
-0.35738319	0.41883624	3.67134404
-0.35777032	0.41837817	3.67134452
-0.35759109	0.41777393	3.67134547
-0.35903379	0.41685545	3.67134619
-0.35925508	0.41638058	3.67134690
-0.35925430	0.41568780	3.67134786
-0.36067173	0.41497988	3.67134857
-0.36128882	0.41470551	3.67134857
-0.36248901	0.41370893	3.67134976
-0.36242428	0.41284972	3.67135096
-0.36331397	0.41237223	3.67135143
-0.36379993	0.41172832	3.67135215
-0.36878574	0.41020989	3.67135286
-0.37001055	0.40831023	3.67135525
-0.37172589	0.40718850	3.67135620
-0.37258166	0.40626320	3.67135739
-0.37413967	0.40578255	3.67135763
-0.37504193	0.40519977	3.67135811
-0.37600812	0.40478298	3.67135835
-0.37647194	0.40438625	3.67135882
-0.37716556	0.40417290	3.67135906
-0.37761670	0.40388149	3.67135930
-0.37816197	0.40347517	3.67135978
-0.38001782	0.40258080	3.67136049
-0.38092011	0.40199798	3.67136097
-0.38243943	0.40114042	3.67136168
-0.38297993	0.40080509	3.67136216
-0.38342619	0.40058428	3.67136216
-0.38437200	0.40030748	3.67136240
-0.38585335	0.39976585	3.67136264
-0.38676834	0.39907768	3.67136335
-0.38870078	0.39824441	3.67136407
-0.38920259	0.39753211	3.67136478
-0.39162490	0.39678425	3.67136526
-0.39262906	0.39605182	3.67136598
-0.39411041	0.39551026	3.67136621
-0.39543787	0.39415380	3.67136788
-0.39690658	0.39371747	3.67136812
-0.39735696	0.39273325	3.67136931
-0.39869782	0.39196429	3.67137003
-0.40006381	0.39098442	3.67137098
-0.40052691	0.38989517	3.67137241
-0.40177765	0.38847736	3.67137408
-0.40310508	0.38712090	3.67137551
-0.40296373	0.38620070	3.67137694
-0.40387872	0.38551259	3.67137766
-0.40527087	0.38501528	3.67137790
-0.54120660	0.34253648	3.67139840
-0.54376882	0.34132382	3.67139935
-0.55434293	0.33792597	3.67140102
-0.55679053	0.33696786	3.67140174
-0.56536829	0.33423695	3.67140317
-0.56790519	0.33323458	3.67140388
-0.57044202	0.33223221	3.67140460
-0.57082921	0.33177441	3.67140508
-0.57189733	0.33120832	3.67140555
-0.57985801	0.32875183	3.67140675
-0.58494443	0.32664207	3.67140818
-0.58731544	0.32562262	3.67140889
-0.59385800	0.32318157	3.67141056
-0.59477293	0.32249340	3.67141128
-0.59671807	0.32155508	3.67141199
-0.59922975	0.32076329	3.67141247
-0.60072374	0.32011643	3.67141294
-0.60125148	0.31988600	3.67141294
-0.60224301	0.31925887	3.67141366
-0.60475463	0.31846708	3.67141390
-0.60770464	0.31748891	3.67141461
-0.60767871	0.31700701	3.67141509
-0.61219937	0.31544292	3.67141604
-0.61420852	0.31467092	3.67141652
-0.61454439	0.31394151	3.67141747
-0.61705601	0.31314972	3.67141795
-0.61903912	0.31189552	3.67141914
-0.62044382	0.31129289	3.67141962
-0.62186122	0.31058460	3.67142010
-0.62389570	0.30960238	3.67142105
-0.62438476	0.30899507	3.67142177
-0.62624061	0.30810067	3.67142248
-0.62875223	0.30730888	3.67142272
-0.63064611	0.30609897	3.67142391
-0.63315773	0.30530721	3.67142439
-0.63369805	0.30497149	3.67142463
-0.63751185	0.30303383	3.67142630
-0.63801354	0.30232123	3.67142725
-0.64095098	0.30144826	3.67142749
-0.64341128	0.30038485	3.67142844
-0.64487934	0.29925606	3.67142940
-0.64676046	0.29815111	3.67143059
-0.64691299	0.29758093	3.67143130
-0.65116590	0.29614937	3.67143202
-0.65412867	0.29506621	3.67143273
-0.65518415	0.29460534	3.67143297
-0.65555799	0.29356012	3.67143440
-0.65800560	0.29260200	3.67143512
-0.65895921	0.29229051	3.67143536
-0.66044050	0.29174891	3.67143559
-0.66305411	0.29080781	3.67143607
-0.66346657	0.29013944	3.67143703
-0.66408354	0.28986478	3.67143726
-0.66481996	0.28926498	3.67143774
-0.66630137	0.28872329	3.67143822
-0.66690576	0.28855425	3.67143822
-0.66928935	0.28742951	3.67143917
-0.67077076	0.28688791	3.67143941
-0.67234141	0.28630197	3.67143989
-0.67529148	0.28532413	3.67144036
-0.67536741	0.28469262	3.67144132
-0.67822820	0.28375864	3.67144179
-0.67878121	0.28331771	3.67144227
-0.68024999	0.28288135	3.67144251
-0.68416631	0.28148666	3.67144322
-0.68559635	0.28067347	3.67144394
-0.68710303	0.27992123	3.67144465
-0.69006574	0.27883804	3.67144537
-0.69060618	0.27850237	3.67144561
-0.69161040	0.27777025	3.67144632
-0.69252527	0.27708179	3.67144704
-0.69401932	0.27643484	3.67144752
-0.69483244	0.27589634	3.67144799
-0.69547474	0.27541137	3.67144847
-0.69600248	0.27518097	3.67144871
-0.69738185	0.27478862	3.67144895
-0.69833553	0.27447745	3.67144895
-0.69884992	0.27365953	3.67145014
-0.70074439	0.27314207	3.67145014
-0.70230252	0.27266181	3.67145038
-0.70268959	0.27220377	3.67145109
-0.70374525	0.27174327	3.67145133
-0.70464742	0.27116013	3.67145181
-0.70715904	0.27036834	3.67145228
-0.70713300	0.26988611	3.67145300
-0.70860177	0.26944980	3.67145324
-0.70961863	0.26861241	3.67145395
-0.71108735	0.26817581	3.67145419
-0.71244073	0.26730156	3.67145514
-0.71339434	0.26699004	3.67145514
-0.71340626	0.26619223	3.67145634
-0.71582866	0.26544473	3.67145681
-0.71732265	0.26479781	3.67145729
-0.71810961	0.26377672	3.67145848
-0.71953970	0.26296353	3.67145920
-0.72068447	0.26245871	3.67145944
-0.72159946	0.26177064	3.67146015
-0.72440892	0.26056510	3.67146111
-0.72692049	0.25977296	3.67146158
-0.72836316	0.25885445	3.67146230
-0.72883964	0.25835270	3.67146301
-0.73073345	0.25714248	3.67146420
-0.73173767	0.25641033	3.67146492
-0.73280585	0.25584424	3.67146540
-0.73328227	0.25534225	3.67146587
-0.73366946	0.25488454	3.67146659
-0.73660690	0.25401157	3.67146683
-0.73793513	0.25334796	3.67146730
-0.73793435	0.25265512	3.67146850
-0.73888791	0.25234392	3.67146850
-0.74080771	0.25161594	3.67146897
-0.74090898	0.25077412	3.67147017
-0.74143672	0.25054371	3.67147040
-0.74311405	0.24973762	3.67147112
-0.74371850	0.24956858	3.67147112
-0.74416965	0.24927713	3.67147136
-0.74602550	0.24838281	3.67147207
-0.74857503	0.24727508	3.67147303
-0.74954128	0.24685858	3.67147326
-0.75146121	0.24613085	3.67147374
-0.75298053	0.24527340	3.67147446
-0.75553000	0.24416570	3.67147541
-0.75795239	0.24341819	3.67147565
-0.75908452	0.24301837	3.67147589
-0.76197064	0.24187417	3.67147660
-0.76399249	0.24099685	3.67147732
-0.76598889	0.24033014	3.67147756
-0.76739371	0.23972720	3.67147803
-0.76883632	0.23880874	3.67147899
-0.77083290	0.23814198	3.67147946
-0.77137321	0.23780631	3.67147970
-0.77224946	0.23674124	3.67148089
-0.77470982	0.23567790	3.67148161
-0.77659106	0.23457319	3.67148280
-0.77656496	0.23409098	3.67148352
-0.77795702	0.23359334	3.67148376
-0.77952772	0.23300777	3.67148399
-0.78048128	0.23269622	3.67148423
-0.78147286	0.23206945	3.67148495
-0.78187263	0.23150611	3.67148566
-0.78243840	0.23096016	3.67148614
-0.78376651	0.23029615	3.67148662
-0.78522265	0.22996522	3.67148685
-0.78573698	0.22914721	3.67148781
-0.78667796	0.22894135	3.67148781
-0.78862315	0.22800304	3.67148852
-0.79100674	0.22687832	3.67148948
-0.79098082	0.22639638	3.67149019
-0.79144382	0.22530678	3.67149162
-0.79336369	0.22457910	3.67149210
-0.79474318	0.22418676	3.67149210
-0.79516828	0.22341311	3.67149305
-0.79670024	0.22245061	3.67149401
-0.79907125	0.22143123	3.67149472
-0.80048865	0.22072327	3.67149544
-0.80097771	0.22011593	3.67149615
-0.80095166	0.21963370	3.67149687
-0.80236912	0.21892577	3.67149734
-0.80434030	0.21846968	3.67149758
-0.80480409	0.21807300	3.67149782
-0.80579573	0.21744588	3.67149854
-0.80914551	0.21590459	3.67149973
-0.80911946	0.21542239	3.67150044
-0.81004703	0.21462895	3.67150116
-0.81245607	0.21329392	3.67150235
-0.81443989	0.21273245	3.67150259
-0.81441379	0.21225026	3.67150331
-0.81583124	0.21154240	3.67150402
-0.81678492	0.21123117	3.67150402
-0.81738925	0.21106178	3.67150426
-0.81924516	0.21016744	3.67150497
-0.81976020	0.21004237	3.67150497
-0.82071388	0.20973116	3.67150497
-0.82127959	0.20918520	3.67150569
-0.82313544	0.20829085	3.67150640
-0.82365060	0.20816571	3.67150640
-0.82457817	0.20737226	3.67150736
-0.82611090	0.20710231	3.67150712
-0.82805604	0.20616397	3.67150807
-0.82804263	0.20557646	3.67150879
-0.82994992	0.20495403	3.67150927
-0.83043891	0.20434672	3.67150998
-0.83292520	0.20376521	3.67150998
-0.83380145	0.20270017	3.67151117
-0.83475512	0.20238897	3.67151141
-0.83481836	0.20186278	3.67151213
-0.83628714	0.20142646	3.67151237
-0.83922458	0.20055358	3.67151260
-0.83919853	0.20007132	3.67151332
-0.83910847	0.19942278	3.67151427
-0.84203333	0.19865549	3.67151451
-0.84424973	0.19612867	3.67151737
-0.84414703	0.19558540	3.67151833
-0.84656936	0.19483759	3.67151856
-0.84642798	0.19391742	3.67151999
-0.84734297	0.19322929	3.67152071
-0.84731686	0.19274703	3.67152143
-0.84922421	0.19212462	3.67152166
-0.84919810	0.19164243	3.67152238
-0.85208422	0.19049786	3.67152309
-0.85194284	0.18957773	3.67152452
-0.85467511	0.18761860	3.67152643
-0.85586119	0.18534200	3.67152929
-0.86110491	0.18259081	3.67153168
-0.86334735	0.18054616	3.67153406
-0.86426210	0.17985773	3.67153478
-0.86660713	0.17835635	3.67153621
-0.86646593	0.17743623	3.67153740
-0.86890006	0.17589054	3.67153907
-0.86935121	0.17559914	3.67153931
-0.87075603	0.17499654	3.67153978
-0.87428516	0.17405955	3.67154002
-0.87518674	0.17278421	3.67154145
-0.87516069	0.17230198	3.67154217
-0.87661684	0.17197096	3.67154217
-0.87722117	0.17180157	3.67154241
-0.87868994	0.17136529	3.67154264
-0.87956691	0.17099275	3.67154288
-0.88456410	0.16892694	3.67154431
-0.88654715	0.16767274	3.67154551
-0.88957387	0.16675583	3.67154598
-0.89206022	0.16617465	3.67154598
-0.89463574	0.16554920	3.67154622
-0.90094501	0.16438071	3.67154598
-0.90297937	0.16339809	3.67154670
-0.90859520	0.16244328	3.67154646
-0.91793120	0.16035792	3.67154670
-0.92149824	0.15910530	3.67154741
-1.08958066	0.13334811	3.67153478
-1.08968329	0.13389134	3.67153406
-1.09094822	0.13375390	3.67153382
-1.09149706	0.13407636	3.67153311
-1.09214008	0.13428389	3.67153263
-1.09258020	0.13548316	3.67153096
-1.09345293	0.13587409	3.67153001
-1.09406304	0.13632661	3.67152929
-1.09457481	0.13765782	3.67152715
-1.09528172	0.13803165	3.67152643
-1.09553766	0.13869727	3.67152548
-1.09601474	0.13888776	3.67152500
-1.09685051	0.14028710	3.67152286
-1.09772348	0.14067832	3.67152190
-1.09826458	0.14103515	3.67152143
-1.09888291	0.14214613	3.67151952
-1.09993458	0.14244875	3.67151880
-1.10047555	0.14280593	3.67151809
-1.10095274	0.14299646	3.67151785
-1.10146868	0.14356416	3.67151690
-1.10196614	0.14361495	3.67151666
-1.10303664	0.14512706	3.67151403
-1.10387564	0.14507017	3.67151403
-1.10398602	0.14557903	3.67151332
-1.10464656	0.14561066	3.67151308
-1.10501778	0.14671423	3.67151141
-1.10571229	0.14719337	3.67151046
-1.10656476	0.14772427	3.67150950
-1.10734344	0.14823011	3.67150855
-1.10784662	0.14890277	3.67150736
-1.10812783	0.14935783	3.67150664
-1.10873306	0.14988121	3.67150569
-1.10958064	0.15048277	3.67150474
-1.10993052	0.15103346	3.67150378
-1.11105072	0.15143153	3.67150283
-1.11152375	0.15238576	3.67150140
-1.11299324	0.15264203	3.67150068
-1.11477768	0.15380074	3.67149830
-1.11540890	0.15480646	3.67149687
-1.11666906	0.15473960	3.67149663
-1.11755943	0.15495461	3.67149591
-1.11830497	0.15570541	3.67149472
-1.11907601	0.15624590	3.67149377
-1.11966777	0.15618181	3.67149353
-1.12020898	0.15653895	3.67149305
-1.12076259	0.15679079	3.67149234
-1.12203538	0.15661867	3.67149234
-1.12248731	0.15701976	3.67149162
-1.12362027	0.15731287	3.67149091
-1.12400329	0.15761854	3.67149019
-1.12505960	0.15785027	3.67148972
-1.12653756	0.15876463	3.67148805
-1.12726986	0.15892823	3.67148757
-1.12793887	0.15961801	3.67148638
-1.12927568	0.15961248	3.67148590
-1.12988079	0.16013563	3.67148495
-1.13102627	0.16032368	3.67148447
-1.13147807	0.16072482	3.67148376
-1.13228774	0.16164193	3.67148209
-1.13285410	0.16178843	3.67148185
-1.13406372	0.16214287	3.67148089
-1.13546431	0.16230336	3.67148042
-1.13583958	0.16264346	3.67147970
-1.13639343	0.16289526	3.67147923
-1.13713348	0.16302419	3.67147875
-1.13761079	0.16321498	3.67147827
-1.13825381	0.16342252	3.67147779
-1.13875687	0.16409528	3.67147684
-1.14008117	0.16419505	3.67147636
-1.14058423	0.16486779	3.67147517
-1.14195895	0.16454637	3.67147517
-1.14228356	0.16530737	3.67147398
-1.14448524	0.16572721	3.67147279
-1.14569473	0.16608128	3.67147207
-1.14675891	0.16627857	3.67147136
-1.14794230	0.16615078	3.67147112
-1.14821565	0.16664013	3.67147040
-1.14892268	0.16701427	3.67146969
-1.14942515	0.16699453	3.67146945
-1.15036619	0.16678831	3.67146969
-1.15116251	0.16711822	3.67146897
-1.15295112	0.16751379	3.67146778
-1.15439439	0.16728783	3.67146778
-1.15534317	0.16704720	3.67146778
-1.15561652	0.16753660	3.67146707
-1.15646350	0.16744557	3.67146683
-1.15811145	0.16761354	3.67146611
-1.16093433	0.16699556	3.67146611
-1.16161525	0.16688716	3.67146611
-1.16264558	0.16663696	3.67146611
-1.16312265	0.16682777	3.67146587
-1.16362512	0.16680798	3.67146564
-1.16491055	0.16653059	3.67146564
-1.16576219	0.16636863	3.67146564
-1.16653240	0.16621631	3.67146564
-1.16764712	0.16599277	3.67146564
-1.16817570	0.16645518	3.67146492
-1.16927481	0.16630070	3.67146468
-1.16977239	0.16635150	3.67146444
-1.17085397	0.16637298	3.67146420
-1.17230999	0.16604197	3.67146420
-1.17279983	0.16612718	3.67146397
-1.17430735	0.16606781	3.67146349
-1.17511618	0.16629238	3.67146301
-1.17657232	0.16596110	3.67146301
-1.17713857	0.16610759	3.67146277
-1.17825806	0.16581345	3.67146277
-1.17934394	0.16601473	3.67146230
-1.18153238	0.16584703	3.67146182
-1.18254685	0.16566595	3.67146182
-1.18292999	0.16597129	3.67146111
-1.18397427	0.16700122	3.67145944
-1.18532372	0.16689035	3.67145920
-1.18610168	0.16670364	3.67145920
-1.18671656	0.16708526	3.67145848
-1.18723154	0.16696018	3.67145848
-1.18801522	0.16739538	3.67145777
-1.19206023	0.16702613	3.67145705
-1.19378483	0.16725515	3.67145634
-1.19579470	0.16717595	3.67145586
-1.19897139	0.16783741	3.67145395
-1.20200586	0.16688576	3.67145443
-1.20326674	0.16751179	3.67145300
-1.20508456	0.16693309	3.67145348
-1.20683455	0.16695175	3.67145276
-1.20717967	0.16757306	3.67145181
-1.21388876	0.16584158	3.67145228
-1.21458626	0.16635722	3.67145133
-1.21674931	0.16640009	3.67145061
-1.21892488	0.16633767	3.67145014
-1.21950412	0.16637890	3.67144990
-1.22162867	0.16604516	3.67144990
-1.22411478	0.16546369	3.67144990
-1.22676694	0.16489919	3.67144990
-1.22734618	0.16494077	3.67144966
-1.23036015	0.16412884	3.67144990
-1.23190558	0.16375360	3.67145014
-1.23312771	0.16400272	3.67144942
-1.23953962	0.16337745	3.67144823
-1.24004209	0.16335765	3.67144823
-1.24516785	0.16231735	3.67144823
-1.24646652	0.16262710	3.67144728
-1.24793541	0.16219082	3.67144752
-1.25120533	0.16204450	3.67144680
-1.25299799	0.16167668	3.67144680
-1.25375545	0.16162965	3.67144656
-1.25536478	0.16142069	3.67144656
-1.25750685	0.16091071	3.67144656
-1.25844777	0.16070452	3.67144656
-1.25924408	0.16103439	3.67144585
-1.26009083	0.16094339	3.67144585
-1.26042354	0.16167000	3.67144465
-1.26376152	0.16092688	3.67144465
-1.26444721	0.16074795	3.67144489
-1.26518822	0.16156965	3.67144346
-1.26688671	0.16131642	3.67144322
-1.26781499	0.16121578	3.67144322
-1.26978612	0.16075939	3.67144322
-1.27036536	0.16080062	3.67144299
-1.27230716	0.16131854	3.67144179
-1.27426565	0.16096747	3.67144156
-1.27476811	0.16094762	3.67144156
-1.27602828	0.16088089	3.67144132
-1.27660728	0.16092211	3.67144108
-1.27859116	0.16036071	3.67144132
-1.27923405	0.16056827	3.67144084
-1.28076684	0.16029826	3.67144060
-1.28497696	0.15925324	3.67144084
-1.28850627	0.15831658	3.67144132
-1.28961313	0.15812737	3.67144108
-1.29163563	0.15794289	3.67144084
-1.29576910	0.15683684	3.67144108
-1.30428743	0.14894955	3.67144990
-1.30555081	0.14742649	3.67145157
-1.30845535	0.14257215	3.67145777
-1.30988669	0.13822478	3.67146349
-1.31066430	0.13585301	3.67146659
-1.30993795	0.12716579	3.67147923
-1.30941260	0.12524737	3.67148209
-1.30851305	0.12368171	3.67148447
-1.30743420	0.12151143	3.67148781
-1.30469978	0.11498125	3.67149782
-1.30354428	0.11274999	3.67150140
-1.30239785	0.11186944	3.67150307
-1.30205286	0.11124809	3.67150402
-1.30112708	0.10920025	3.67150712
-1.30062461	0.10922004	3.67150736
-1.29959714	0.10732168	3.67151022
-1.29851818	0.10515147	3.67151380
-1.29760575	0.10369082	3.67151594
-1.29680085	0.10270275	3.67151761
-1.29587543	0.10065487	3.67152095
-1.29503536	0.10001898	3.67152190
-1.29415321	0.09827709	3.67152476
-1.23663723	-0.05787078	3.67176294
-1.23429263	-0.06700753	3.67177677
-1.22471070	-0.07760939	3.67179441
-1.22001934	-0.08240343	3.67180276
-1.20791662	-0.09505665	3.67182422
-1.20659196	-0.09584867	3.67182565
-1.20373774	-0.09782699	3.67182922
-1.20319664	-0.09818383	3.67182994
-1.20221782	-0.09766199	3.67182946
-1.20116162	-0.09789407	3.67183018
-1.19970870	-0.09901903	3.67183208
-1.19916761	-0.09937617	3.67183280
-1.19860101	-0.09952268	3.67183328
-1.19610488	-0.10098469	3.67183614
-1.19423962	-0.10144132	3.67183733
-1.19318342	-0.10167304	3.67183781
-1.19239974	-0.10210826	3.67183876
-1.19134355	-0.10234029	3.67183924
-1.19045866	-0.10193338	3.67183900
-1.19001961	-0.10243980	3.67183995
-1.18952978	-0.10252532	3.67184019
-1.18847823	-0.10282795	3.67184091
-1.18734479	-0.10381354	3.67184258
-1.18682885	-0.10438128	3.67184353
-1.18605864	-0.10422894	3.67184353
-1.18498886	-0.10504820	3.67184496
-1.18437171	-0.10477382	3.67184472
-1.18332815	-0.10511085	3.67184567
-1.18237400	-0.10549219	3.67184639
-1.18133593	-0.10520762	3.67184639
-1.18087137	-0.10550342	3.67184687
-1.18005693	-0.10634992	3.67184830
-1.17887414	-0.10552958	3.67184758
-1.17842221	-0.10593067	3.67184830
-1.17782974	-0.10655911	3.67184925
-1.17586267	-0.10686646	3.67185020
-1.17524564	-0.10659210	3.67184997
-1.17382681	-0.10726924	3.67185140
-1.17240083	-0.10721944	3.67185187
-1.17136991	-0.10766178	3.67185283
-1.17024958	-0.10806015	3.67185354
-1.16812932	-0.10848954	3.67185497
-1.16665924	-0.10943829	3.67185664
-1.16545045	-0.10909984	3.67185640
-1.16459000	-0.10959638	3.67185736
-1.16390431	-0.10941739	3.67185736
-1.16323519	-0.11010716	3.67185855
-1.16201723	-0.11111939	3.67186046
-1.16088510	-0.11071992	3.67186022
-1.16000807	-0.11034737	3.67185998
-1.15946686	-0.11070453	3.67186046
-1.15839386	-0.11006783	3.67185998
-1.15730441	-0.11005486	3.67186022
-1.15584004	-0.11038171	3.67186117
-1.15379071	-0.11137199	3.67186308
-1.15192282	-0.10967982	3.67186117
-1.15108383	-0.10962319	3.67186141
-1.15033877	-0.10968146	3.67186165
-1.14969635	-0.10919647	3.67186117
-1.14923203	-0.10949229	3.67186189
-1.14766061	-0.10959924	3.67186236
-1.14697957	-0.10949117	3.67186236
-1.14582992	-0.10891549	3.67186189
-1.14485526	-0.10915715	3.67186260
-1.14436543	-0.10924235	3.67186284
-1.14304209	-0.10864931	3.67186236
-1.14189661	-0.10883707	3.67186308
-1.14112854	-0.10934135	3.67186403
-1.14000130	-0.10901248	3.67186379
-1.13920486	-0.10934238	3.67186451
-1.13832247	-0.10959176	3.67186522
-1.13758302	-0.10902812	3.67186451
-1.13708055	-0.10900831	3.67186475
-1.13607562	-0.10896874	3.67186499
-1.13384283	-0.10979985	3.67186666
-1.13200057	-0.10831796	3.67186522
-1.13011551	-0.10794239	3.67186522
-1.12937355	-0.10796413	3.67186546
-1.12823355	-0.10753027	3.67186522
-1.12746322	-0.10737792	3.67186522
-1.12639368	-0.10819721	3.67186666
-1.12580192	-0.10813344	3.67186666
-1.12502694	-0.10791017	3.67186666
-1.12376690	-0.10784337	3.67186689
-1.12065005	-0.10757501	3.67186737
-1.11954319	-0.10738584	3.67186761
-1.11864889	-0.10683741	3.67186689
-1.11808717	-0.10705486	3.67186737
-1.11698747	-0.10759291	3.67186856
-1.11588621	-0.10678184	3.67186761
-1.11536539	-0.10727865	3.67186856
-1.11420739	-0.10736111	3.67186904
-1.11370480	-0.10734130	3.67186904
-1.11308706	-0.10775947	3.67186999
-1.11208284	-0.10702735	3.67186928
-1.11146581	-0.10675266	3.67186904
-1.11108267	-0.10705839	3.67186952
-1.11050379	-0.10709961	3.67186975
-1.10946870	-0.10677850	3.67186952
-1.10843849	-0.10652831	3.67186952
-1.10784662	-0.10646456	3.67186952
-1.10724652	-0.10705861	3.67187071
-1.10653532	-0.10666934	3.67187023
-1.10556901	-0.10625285	3.67186999
-1.10490060	-0.10624978	3.67187023
-1.10402691	-0.10733354	3.67187190
-1.10243106	-0.10653737	3.67187119
-1.10113943	-0.10757437	3.67187309
-1.09855020	-0.10574553	3.67187142
-1.09757304	-0.10562927	3.67187142
-1.09618437	-0.10658760	3.67187309
-1.09409142	-0.10514969	3.67187166
-1.09355032	-0.10550682	3.67187238
-1.09244704	-0.10553193	3.67187285
-1.09133589	-0.10582133	3.67187357
-1.08976364	-0.10482991	3.67187262
-1.08866143	-0.10501005	3.67187309
-1.08819139	-0.10562940	3.67187428
-1.08659875	-0.10628915	3.67187548
-1.08605766	-0.10664631	3.67187619
-1.08479834	-0.10588665	3.67187548
-1.08330965	-0.10585983	3.67187595
-1.08200407	-0.10693518	3.67187786
-1.08012211	-0.10652311	3.67187786
-1.07836294	-0.10789244	3.67188025
-1.07563078	-0.10593303	3.67187834
-1.07503355	-0.10649090	3.67187929
-1.07441878	-0.10687283	3.67188001
-1.07212782	-0.10724834	3.67188120
-1.07107162	-0.10748038	3.67188191
-1.06821144	-0.10585392	3.67188025
-1.06767511	-0.10628166	3.67188120
-1.06678557	-0.10580382	3.67188072
-1.06617129	-0.10549323	3.67188048
-1.06497955	-0.10602321	3.67188144
-1.06438696	-0.10665199	3.67188263
-1.06338203	-0.10661241	3.67188287
-1.06268847	-0.10639904	3.67188263
-1.06209588	-0.10702751	3.67188382
-1.06053782	-0.10654723	3.67188358
-1.05951262	-0.10636765	3.67188358
-1.05892372	-0.10626735	3.67188358
-1.05808485	-0.10621075	3.67188382
-1.05745506	-0.10583106	3.67188334
-1.05691397	-0.10618789	3.67188406
-1.05582488	-0.10766743	3.67188644
-1.05352867	-0.10647983	3.67188549
-1.05288577	-0.10668740	3.67188597
-1.05200565	-0.10635138	3.67188573
-1.05039930	-0.10610619	3.67188597
-1.04951382	-0.10639181	3.67188668
-1.04806960	-0.10685864	3.67188764
-1.04761863	-0.10656723	3.67188740
-1.04724991	-0.10708506	3.67188811
-1.04674578	-0.10695814	3.67188811
-1.04637039	-0.10729823	3.67188883
-1.04522491	-0.10748598	3.67188931
-1.04401553	-0.10784006	3.67189026
-1.04316771	-0.10844157	3.67189121
-1.04193294	-0.10858535	3.67189193
-1.04136646	-0.10873188	3.67189217
-1.04074943	-0.10845751	3.67189217
-1.03954065	-0.10811906	3.67189193
-1.03908896	-0.10852018	3.67189264
-1.03799212	-0.10902170	3.67189360
-1.03711700	-0.10875662	3.67189360
-1.03568208	-0.10787246	3.67189264
-1.03509927	-0.10864275	3.67189407
-1.03404379	-0.10818197	3.67189360
-1.03302610	-0.10803707	3.67189384
-1.03233254	-0.10782371	3.67189360
-1.03095007	-0.10746793	3.67189360
-1.03032029	-0.10708825	3.67189312
-1.02974546	-0.10789292	3.67189455
-1.02823305	-0.10776263	3.67189479
-1.02733421	-0.10863576	3.67189622
-1.02533782	-0.10796876	3.67189598
-1.02429485	-0.10761358	3.67189574
-1.02287662	-0.10759818	3.67189598
-1.02173197	-0.10709310	3.67189574
-1.02026570	-0.10636981	3.67189503
-1.01972210	-0.10701393	3.67189622
-1.01796818	-0.10626889	3.67189550
-1.01707292	-0.10641329	3.67189598
-1.01627731	-0.10605033	3.67189574
-1.01582539	-0.10645144	3.67189646
-1.01514375	-0.10703624	3.67189765
-1.01363230	-0.10621311	3.67189670
-1.01329935	-0.10668892	3.67189765
-1.01248944	-0.10760636	3.67189908
-1.01203763	-0.10800747	3.67189980
-1.01076508	-0.10783534	3.67190003
-1.00840652	-0.10692122	3.67189932
-1.00739229	-0.10823259	3.67190146
-1.00650275	-0.10775477	3.67190099
-1.00537050	-0.10735528	3.67190075
-1.00491869	-0.10775641	3.67190146
-1.00431359	-0.10827988	3.67190242
-1.00265300	-0.10834254	3.67190313
-1.00215459	-0.10908619	3.67190433
-0.99971962	-0.10823306	3.67190385
-0.99814755	-0.10903253	3.67190528
-0.99737722	-0.10888052	3.67190528
-0.99678481	-0.10950895	3.67190647
-0.99577987	-0.10946938	3.67190671
-0.99458367	-0.10923623	3.67190671
-0.99315697	-0.10987898	3.67190790
-0.99087459	-0.10959636	3.67190838
-0.99021882	-0.10969891	3.67190862
-0.98917598	-0.10934341	3.67190838
-0.98759276	-0.10865222	3.67190790
-0.98634374	-0.11007606	3.67191029
-0.98473448	-0.10986710	3.67191052
-0.98358971	-0.10936233	3.67191005
-0.98258483	-0.10932244	3.67191029
-0.98150331	-0.10934387	3.67191052
-0.98019046	-0.11093405	3.67191339
-0.97807926	-0.11001275	3.67191267
-0.97757381	-0.11002918	3.67191267
-0.97582620	-0.11070418	3.67191434
-0.97521889	-0.11057100	3.67191434
-0.97470599	-0.11110222	3.67191505
-0.97417819	-0.11087215	3.67191505
-0.97358656	-0.11080807	3.67191505
-0.97299397	-0.11143683	3.67191601
-0.97204524	-0.11119623	3.67191601
-0.97144568	-0.11109777	3.67191601
-0.97080564	-0.11126909	3.67191648
-0.97019345	-0.11106532	3.67191648
-0.96940202	-0.11146612	3.67191720
-0.96856600	-0.11137299	3.67191720
-0.96712732	-0.11121789	3.67191744
-0.96635228	-0.11099496	3.67191744
-0.96583712	-0.11086986	3.67191744
-0.96522498	-0.11066610	3.67191720
-0.96363807	-0.11343815	3.67192173
-0.95984179	-0.11167640	3.67192030
-0.95895064	-0.11258392	3.67192173
-0.95824438	-0.11226559	3.67192149
-0.95767796	-0.11241212	3.67192197
-0.95720071	-0.11260261	3.67192245
-0.95671099	-0.11268812	3.67192268
-0.95560408	-0.11249896	3.67192268
-0.95506287	-0.11285609	3.67192340
-0.95400745	-0.11239529	3.67192292
-0.95233488	-0.11166013	3.67192245
-0.95183170	-0.11233287	3.67192364
-0.94983995	-0.11173709	3.67192340
-0.94874102	-0.11158230	3.67192340
-0.94728976	-0.11132192	3.67192340
-0.94674861	-0.11167905	3.67192411
-0.94587082	-0.11199936	3.67192483
-0.94527137	-0.11190090	3.67192483
-0.94479412	-0.11209139	3.67192531
-0.94421023	-0.11206203	3.67192531
-0.94386995	-0.11275425	3.67192650
-0.94260979	-0.11268740	3.67192674
-0.94206876	-0.11304424	3.67192745
-0.94152761	-0.11340138	3.67192817
-0.93958169	-0.11315559	3.67192841
-0.93923658	-0.11377688	3.67192936
-0.93755054	-0.11362925	3.67192960
-0.93694627	-0.11345988	3.67192960
-0.93598783	-0.11307776	3.67192936
-0.93551552	-0.11333917	3.67192984
-0.93413526	-0.11363970	3.67193055
-0.93302846	-0.11345051	3.67193055
-0.93196744	-0.11361165	3.67193127
-0.93089062	-0.11370400	3.67193174
-0.93016613	-0.11390197	3.67193222
-0.92952234	-0.11480235	3.67193365
-0.92766982	-0.11536396	3.67193484
-0.92652416	-0.11555204	3.67193556
-0.92551929	-0.11551215	3.67193580
-0.92494029	-0.11555337	3.67193604
-0.92384601	-0.11546981	3.67193627
-0.92333579	-0.11541532	3.67193627
-0.92264211	-0.11520197	3.67193627
-0.92163718	-0.11516239	3.67193651
-0.92105258	-0.11582555	3.67193747
-0.91926879	-0.11629175	3.67193866
-0.91675711	-0.11549996	3.67193842
-0.91618598	-0.11557559	3.67193866
-0.91321057	-0.11438707	3.67193770
-0.91017604	-0.11343549	3.67193723
-0.90859985	-0.11347184	3.67193770
-0.90621239	-0.11307616	3.67193794
-0.90491444	-0.11269341	3.67193770
-0.90433460	-0.11342748	3.67193890
-0.90198815	-0.11331118	3.67193961
-0.90161771	-0.11372218	3.67194033
-0.90048480	-0.11401524	3.67194104
-0.89932668	-0.11409771	3.67194152
-0.89821988	-0.11390852	3.67194152
-0.89708692	-0.11420157	3.67194223
-0.89466393	-0.11414661	3.67194295
-0.89398283	-0.11403855	3.67194295
-0.89280730	-0.11394511	3.67194319
-0.89236796	-0.11445151	3.67194390
-0.89158511	-0.11419387	3.67194390
-0.89104408	-0.11455101	3.67194438
-0.88984013	-0.11428317	3.67194438
-0.88902628	-0.11443715	3.67194486
-0.88844723	-0.11447837	3.67194510
-0.88795739	-0.11456388	3.67194533
-0.88719422	-0.11513877	3.67194653
-0.88625014	-0.11496909	3.67194653
-0.88587987	-0.11537978	3.67194724
-0.88474214	-0.11560193	3.67194772
-0.88338017	-0.11538583	3.67194796
-0.88288558	-0.11540043	3.67194796
-0.88234442	-0.11575757	3.67194867
-0.88191003	-0.11633459	3.67194963
-0.88059074	-0.11650498	3.67195034
-0.87923956	-0.11628706	3.67195034
-0.87857604	-0.11635492	3.67195058
-0.87820858	-0.11672939	3.67195129
-0.87773627	-0.11699082	3.67195177
-0.87719512	-0.11734796	3.67195249
-0.87661606	-0.11738919	3.67195272
-0.87587106	-0.11744745	3.67195296
-0.87441355	-0.11850151	3.67195487
-0.87375784	-0.11860406	3.67195535
-0.87350202	-0.11926934	3.67195630
-0.87121171	-0.11895234	3.67195654
-0.86926585	-0.11870654	3.67195678
-0.86799705	-0.11929815	3.67195797
-0.86535758	-0.11883901	3.67195797
-0.86430144	-0.11907075	3.67195868
-0.86257672	-0.11930002	3.67195964
-0.86114597	-0.11917934	3.67195988
-0.86054641	-0.11908087	3.67195988
-0.85995162	-0.11905331	3.67195988
-0.85921675	-0.11980228	3.67196131
-0.85804600	-0.11977943	3.67196155
-0.85779488	-0.12051593	3.67196274
-0.85627007	-0.12028036	3.67196274
-0.85526514	-0.12024045	3.67196298
-0.85468125	-0.12021109	3.67196321
-0.85384220	-0.12015446	3.67196321
-0.85348916	-0.12074138	3.67196417
-0.85287142	-0.12115952	3.67196512
-0.85174268	-0.12221605	3.67196679
-0.84919155	-0.12249368	3.67196798
-0.84680903	-0.12216891	3.67196822
-0.84621733	-0.12210484	3.67196822
-0.84518641	-0.12254718	3.67196918
-0.84444475	-0.12406173	3.67197156
-0.84153259	-0.12339944	3.67197156
-0.84090561	-0.12516825	3.67197418
-0.83680660	-0.12292214	3.67197227
-0.83603561	-0.12346232	3.67197323
-0.83509284	-0.12314929	3.67197299
-0.83365911	-0.12306482	3.67197323
-0.83216733	-0.12307422	3.67197371
-0.83153462	-0.12273075	3.67197347
-0.83035523	-0.12336636	3.67197466
-0.82789660	-0.12365179	3.67197585
-0.82572186	-0.12438931	3.67197752
-0.82449973	-0.12463809	3.67197824
-0.82151169	-0.12334427	3.67197728
-0.81967622	-0.12258992	3.67197680
-0.81800365	-0.12185477	3.67197609
-0.81713939	-0.12158753	3.67197609
-0.81663686	-0.12156774	3.67197609
-0.81572127	-0.12157214	3.67197657
-0.81446111	-0.12150531	3.67197680
-0.81358421	-0.12113278	3.67197657
-0.81281316	-0.12167329	3.67197752
-0.81061924	-0.12212747	3.67197871
-0.80675977	-0.11983921	3.67197657
-0.80505711	-0.11882282	3.67197561
-0.80438870	-0.11882008	3.67197585
-0.80349910	-0.11834224	3.67197537
-0.80295867	-0.11800686	3.67197514
-0.80050957	-0.11843379	3.67197657
-0.79467416	-0.11561853	3.67197418
-0.79410774	-0.11576506	3.67197466
-0.79246044	-0.11524050	3.67197418
-0.78755856	-0.11284785	3.67197227
-0.78669125	-0.11261683	3.67197227
-0.78463787	-0.11284367	3.67197323
-0.78434885	-0.11326426	3.67197394
-0.78318518	-0.11396865	3.67197514
-0.78193700	-0.11469965	3.67197657
-0.78044558	-0.11620123	3.67197919
-0.77915883	-0.11730916	3.67198110
-0.77722442	-0.12004654	3.67198563
-0.77599752	-0.12022471	3.67198610
-0.77545637	-0.12058152	3.67198682
-0.77462548	-0.12205180	3.67198920
-0.77377713	-0.12334582	3.67199135
-0.77294141	-0.12474549	3.67199349
-0.76382953	-0.14084099	3.67201900
-0.75911802	-0.14972205	3.67203283
-0.68189001	-0.30130750	3.67227054
-0.68163538	-0.30550691	3.67227650
-0.68368649	-0.30735800	3.67227864
-0.68434477	-0.30940455	3.67228127
-0.68469334	-0.31023920	3.67228246
-0.68293262	-0.31299394	3.67228675
-0.68254077	-0.31887665	3.67229533
-0.68335158	-0.32149339	3.67229867
-0.68222129	-0.32393524	3.67230248
-0.68263376	-0.32460362	3.67230344
-0.68319160	-0.32511520	3.67230392
-0.68302506	-0.32582480	3.67230511
-0.68456483	-0.32682198	3.67230606
-0.68569171	-0.32933584	3.67230916
-0.68524402	-0.33050042	3.67231107
-0.68559510	-0.33348387	3.67231512
-0.68561035	-0.33573765	3.67231822
-0.68577373	-0.33630636	3.67231917
-0.68746555	-0.33732456	3.67231989
-0.68895966	-0.34070563	3.67232442
-0.69099343	-0.34238076	3.67232609
-0.69071144	-0.34352830	3.67232776
-0.69742984	-0.34758672	3.67233157
-0.69931108	-0.34869128	3.67233276
-0.69962084	-0.34990287	3.67233419
-0.70040774	-0.35092393	3.67233562
-0.70007390	-0.35303563	3.67233849
-0.70082295	-0.35374075	3.67233944
-0.70144260	-0.35616398	3.67234254
-0.70179111	-0.35699865	3.67234373
-0.70187104	-0.35839361	3.67234564
-0.70156312	-0.36002335	3.67234802
-0.70320106	-0.36189884	3.67235017
-0.70369285	-0.36465469	3.67235398
-0.70354593	-0.36619675	3.67235637
-0.70420569	-0.36685798	3.67235708
-0.70472491	-0.36774626	3.67235804
-0.70565253	-0.36853963	3.67235899
-0.70646065	-0.36900786	3.67235947
-0.70880497	-0.37120178	3.67236185
-0.71069431	-0.37383357	3.67236495
-0.71172374	-0.37477633	3.67236614
-0.71276933	-0.37728029	3.67236924
-0.71452260	-0.37871784	3.67237091
-0.71797442	-0.38040844	3.67237210
-0.71885258	-0.38431484	3.67237759
-0.71765834	-0.38692299	3.67238164
-0.71986270	-0.38865203	3.67238331
-0.72019857	-0.38938135	3.67238426
-0.72081900	-0.39111203	3.67238665
-0.72067696	-0.39272469	3.67238879
-0.72053969	-0.39440835	3.67239141
-0.72015041	-0.39602816	3.67239380
-0.72095484	-0.39722511	3.67239523
-0.72182626	-0.39821962	3.67239642
-0.72409463	-0.39978197	3.67239785
-0.72467631	-0.40188959	3.67240071
-0.72539932	-0.40307698	3.67240214
-0.72561991	-0.40424424	3.67240381
-0.72554737	-0.40506870	3.67240500
-0.72753829	-0.40635732	3.67240620
-0.72702992	-0.40914446	3.67241025
-0.72779155	-0.40995497	3.67241120
-0.73054981	-0.41143215	3.67241263
-0.73101360	-0.41182882	3.67241287
-0.73106760	-0.41370568	3.67241549
-0.73199517	-0.41449916	3.67241645
-0.73130339	-0.41712713	3.67242026
-0.73126662	-0.42034537	3.67242503
-0.73206699	-0.42077896	3.67242527
-0.73245335	-0.42192951	3.67242694
-0.73278928	-0.42265883	3.67242789
-0.73243004	-0.42456016	3.67243052
-0.73293436	-0.42742136	3.67243457
-0.73239172	-0.42916381	3.67243719
-0.73204589	-0.43047762	3.67243910
-0.73335207	-0.43238732	3.67244148
-0.73271501	-0.43619964	3.67244697
-0.73242044	-0.43724209	3.67244864
-0.73235571	-0.43810099	3.67244983
-0.73269159	-0.43883032	3.67245078
-0.73297614	-0.43983161	3.67245221
-0.73377836	-0.44310650	3.67245650
-0.73407817	-0.44636160	3.67246103
-0.73443931	-0.44730157	3.67246222
-0.73569012	-0.44871902	3.67246389
-0.73603863	-0.44955373	3.67246509
-0.73658168	-0.45203823	3.67246842
-0.73736864	-0.45305896	3.67246962
-0.73739326	-0.45396212	3.67247081
-0.73843950	-0.45577359	3.67247319
-0.74008667	-0.45629844	3.67247343
-0.74070311	-0.45726532	3.67247462
-0.74171132	-0.45876116	3.67247629
-0.74334925	-0.46063673	3.67247868
-0.74406749	-0.46175319	3.67247987
-0.74602938	-0.46356031	3.67248201
-0.74613541	-0.46447298	3.67248321
-0.74760413	-0.46490926	3.67248344
-0.75195408	-0.46641952	3.67248416
-0.75281703	-0.46807179	3.67248631
-0.75391054	-0.46884823	3.67248702
-0.75563848	-0.47007519	3.67248845
-0.75580704	-0.47220689	3.67249131
-0.75656867	-0.47301742	3.67249227
-0.75775474	-0.47529405	3.67249513
-0.75806457	-0.47650567	3.67249680
-0.75837517	-0.47702473	3.67249751
-0.75867236	-0.47813094	3.67249894
-0.75911564	-0.47838801	3.67249918
-0.76144803	-0.47978407	3.67250037
-0.76419276	-0.48184878	3.67250252
-0.76519704	-0.48258090	3.67250323
-0.76541752	-0.48374850	3.67250490
-0.76823896	-0.48575187	3.67250681
-0.77165550	-0.48927528	3.67251086
-0.77317739	-0.49228162	3.67251468
-0.77562505	-0.49323970	3.67251539
-0.77395624	-0.49818715	3.67252278
-0.77392948	-0.49936196	3.67252445
-0.77480978	-0.50119042	3.67252684
-0.77482176	-0.50198829	3.67252803
-0.77545553	-0.50313139	3.67252946
-0.77582932	-0.50417668	3.67253089
-0.77645898	-0.50455630	3.67253113
-0.77925593	-0.50565660	3.67253184
-0.78041595	-0.50841546	3.67253542
-0.78102374	-0.51004082	3.67253757
-0.78067851	-0.51066214	3.67253852
-0.78289491	-0.51318896	3.67254162
-0.78159463	-0.51488447	3.67254424
-0.78356928	-0.51679647	3.67254639
-0.78340113	-0.51889145	3.67254949
-0.78314447	-0.52024955	3.67255139
-0.78464264	-0.52165985	3.67255306
-0.78565025	-0.52384824	3.67255592
-0.78669560	-0.52635258	3.67255902
-0.78659302	-0.52689582	3.67255998
-0.78723866	-0.52883673	3.67256236
-0.78659481	-0.52973717	3.67256403
-0.78615975	-0.53100693	3.67256594
-0.78694677	-0.53202772	3.67256713
-0.78652358	-0.53409547	3.67257023
-0.78644621	-0.53484929	3.67257118
-0.78647482	-0.53651583	3.67257357
-0.78692514	-0.53750014	3.67257476
-0.78625870	-0.54033840	3.67257905
-0.78550380	-0.54244012	3.67258239
-0.78569835	-0.54408967	3.67258453
-0.78542912	-0.54534250	3.67258644
-0.78593338	-0.54820395	3.67259026
-0.78589809	-0.55003685	3.67259288
-0.78579551	-0.55058008	3.67259383
-0.78543288	-0.55102515	3.67259455
-0.78671300	-0.55341697	3.67259741
-0.78705150	-0.55629516	3.67260146
-0.78671825	-0.55771434	3.67260361
-0.78673023	-0.55851215	3.67260480
-0.78719395	-0.55890882	3.67260504
-0.78605187	-0.56055254	3.67260790
-0.78699207	-0.56145132	3.67260885
-0.78727585	-0.56314510	3.67261124
-0.78698134	-0.56418729	3.67261267
-0.78698325	-0.56702864	3.67261672
-0.78688061	-0.56757188	3.67261744
-0.78710181	-0.56804693	3.67261815
-0.78713053	-0.56971353	3.67262053
-0.78724778	-0.57211661	3.67262387
-0.78702974	-0.57309818	3.67262530
-0.78754413	-0.57391572	3.67262626
-0.78730094	-0.57468635	3.67262745
-0.78642660	-0.57646263	3.67263031
-0.78789932	-0.57766271	3.67263150
-0.78390402	-0.58332610	3.67264080
-0.78328061	-0.58436620	3.67264247
-0.78484267	-0.58561021	3.67264366
-0.78417927	-0.58841228	3.67264795
-0.78384680	-0.58913881	3.67264891
-0.78410602	-0.58992952	3.67265010
-0.78337222	-0.59147817	3.67265248
-0.78342617	-0.59335530	3.67265511
-0.78290176	-0.59458119	3.67265701
-0.76790726	-0.61163074	3.67268562
-0.76428145	-0.61484206	3.67269111
-0.76304585	-0.61567843	3.67269278
-0.76116729	-0.61672223	3.67269468
-0.75784945	-0.61830378	3.67269802
-0.74896955	-0.62204909	3.67270589
-0.74488920	-0.62351280	3.67270923
-0.74163193	-0.62347180	3.67270994
-0.71398497	-0.61815596	3.67271066
-0.70991540	-0.61688370	3.67270994
-0.59342217	-0.56466281	3.67266989
-0.58328307	-0.55999535	3.67266631
-0.57544142	-0.55637193	3.67266345
-0.57171780	-0.55378538	3.67266083
-0.56872749	-0.55183524	3.67265892
-0.56412673	-0.54887658	3.67265606
-0.56342900	-0.54789972	3.67265487
-0.56268477	-0.54726547	3.67265439
-0.55794650	-0.54449785	3.67265177
-0.55614263	-0.54263937	3.67264962
-0.55496848	-0.54116058	3.67264795
-0.55272537	-0.53980851	3.67264652
-0.55075747	-0.53807414	3.67264462
-0.55021119	-0.53686792	3.67264318
-0.55019927	-0.53607005	3.67264199
-0.54947549	-0.53557551	3.67264152
-0.54758167	-0.53436530	3.67264032
-0.54715651	-0.53359193	3.67263937
-0.54714465	-0.53279376	3.67263842
-0.54501688	-0.53100377	3.67263627
-0.54269719	-0.52971298	3.67263532
-0.54148507	-0.52791828	3.67263293
-0.53991181	-0.52518386	3.67262959
-0.53906083	-0.52432942	3.67262864
-0.53881502	-0.52295119	3.67262673
-0.53863311	-0.52140701	3.67262459
-0.53783345	-0.52028096	3.67262316
-0.53618288	-0.51830012	3.67262101
-0.53578299	-0.51773703	3.67262030
-0.39068997	-0.43230808	3.67254162
-0.38418683	-0.42879754	3.67253852
-0.37415031	-0.42452988	3.67253542
-0.37229437	-0.42363578	3.67253470
-0.36589447	-0.42013091	3.67253160
-0.36527544	-0.42069274	3.67253256
-0.36388987	-0.42067152	3.67253280
-0.35684937	-0.41678911	3.67252946
-0.35570467	-0.41628399	3.67252898
-0.35158923	-0.41466162	3.67252803
-0.33480731	-0.40601817	3.67252064
-0.33032525	-0.40407750	3.67251921
-0.32983539	-0.40416297	3.67251945
-0.32299092	-0.40054470	3.67251635
-0.32011089	-0.39902905	3.67251492
-0.31748930	-0.39929527	3.67251611
-0.31606594	-0.39865983	3.67251563
-0.30153728	-0.39111617	3.67250919
-0.29845920	-0.39047089	3.67250919
-0.28000098	-0.38182127	3.67250228
-0.27610582	-0.37987372	3.67250061
-0.26984927	-0.37704858	3.67249846
-0.26414105	-0.37459326	3.67249656
-0.26306051	-0.37541464	3.67249823
-0.23842731	-0.36300611	3.67248774
-0.23405534	-0.36274159	3.67248869
-0.22238579	-0.35572630	3.67248201
-0.21090893	-0.34751892	3.67247391
-0.19371156	-0.33456612	3.67246056
-0.18423897	-0.32706022	3.67245269
-0.17843886	-0.32241198	3.67244768
-0.17659631	-0.32093045	3.67244625
-0.16765815	-0.31015539	3.67243338
-0.16549319	-0.30735695	3.67243004
-0.15575607	-0.29476294	3.67241502
-0.15253222	-0.29004773	3.67240930
-0.14975952	-0.28562397	3.67240381
-0.14870065	-0.28370720	3.67240143
-0.14205572	-0.27047846	3.67238474
-0.13628444	-0.25616619	3.67236614
-0.13332722	-0.24804938	3.67235541
-0.12712559	-0.22866595	3.67232966
-0.12561364	-0.22361642	3.67232299
-0.11971472	-0.19830593	3.67228889
-0.10955139	-0.14810452	3.67222071
-0.10463133	-0.12331584	3.67218685
-0.10101338	-0.09967302	3.67215443
-0.09965017	-0.08951135	3.67214036
-0.09950628	-0.08828275	3.67213869
-0.09763901	-0.07034040	3.67211390
-0.09651086	-0.05788097	3.67209649
-0.09526589	-0.03809892	3.67206883
-0.09476361	-0.02674820	3.67205286
-0.09466119	-0.01596084	3.67203760
-0.09540452	-0.00173029	3.67201710
-0.09643243	0.01149925	3.67199802
-0.11292884	0.13417901	3.67181921
-0.11658046	0.15984161	3.67178178
