//X	Y	Z
-0.84014225	-0.34142917	3.55815935
-0.83138865	-0.33934969	3.55815029
-0.79086649	-0.32902867	3.55810809
-0.73994762	-0.31500825	3.55805492
-0.72725266	-0.31141216	3.55804157
-0.72391689	-0.31000492	3.55803800
-0.69125170	-0.29590377	3.55800295
-0.66453373	-0.28419524	3.55797434
-0.66106588	-0.28227514	3.55797052
-0.63572782	-0.26720840	3.55794239
-0.63144439	-0.26446116	3.55793762
-0.63078994	-0.26399046	3.55793691
-0.62824327	-0.26142967	3.55793405
-0.62112230	-0.25675431	3.55792594
-0.62038505	-0.25611591	3.55792522
-0.61881548	-0.25473976	3.55792332
-0.61688662	-0.25223780	3.55792093
-0.59765035	-0.23451918	3.55789852
-0.59519058	-0.23210350	3.55789566
-0.46062094	-0.12575775	3.55774188
-0.45875132	-0.12567142	3.55773997
-0.45694417	-0.12525044	3.55773807
-0.45090061	-0.12092591	3.55773139
-0.45028701	-0.12084504	3.55773067
-0.44717205	-0.11857121	3.55772710
-0.44616902	-0.11843221	3.55772614
-0.44543934	-0.11836211	3.55772543
-0.44420403	-0.11824507	3.55772424
-0.44142833	-0.11659566	3.55772114
-0.43983668	-0.11654030	3.55771947
-0.43902028	-0.11602695	3.55771852
-0.43782651	-0.11598547	3.55771732
-0.43729180	-0.11579576	3.55771685
-0.43651187	-0.11599302	3.55771613
-0.43461677	-0.11663706	3.55771446
-0.43196476	-0.11554474	3.55771160
-0.43135539	-0.11544169	3.55771089
-0.42981774	-0.11481398	3.55770922
-0.42855817	-0.11421772	3.55770779
-0.42729861	-0.11362147	3.55770659
-0.42603463	-0.11334591	3.55770516
-0.42447567	-0.11342651	3.55770373
-0.42380455	-0.11304482	3.55770302
-0.42071366	-0.11154870	3.55769968
-0.42011610	-0.11199181	3.55769920
-0.41825402	-0.11217466	3.55769730
-0.41565701	-0.11047843	3.55769444
-0.41415566	-0.11085992	3.55769300
-0.41295794	-0.11054236	3.55769181
-0.41200870	-0.11012921	3.55769062
-0.41006532	-0.10951664	3.55768871
-0.40946853	-0.10934679	3.55768800
-0.40735978	-0.10810122	3.55768561
-0.40676290	-0.10793099	3.55768514
-0.40602082	-0.10792811	3.55768442
-0.40468675	-0.10712001	3.55768275
-0.40351412	-0.10666880	3.55768156
-0.40314457	-0.10711160	3.55768132
-0.39791676	-0.10361471	3.55767560
-0.39733660	-0.10335547	3.55767488
-0.39581218	-0.10234701	3.55767322
-0.39438295	-0.10143851	3.55767155
-0.39301980	-0.10078655	3.55767012
-0.39050904	-0.09925075	3.55766726
-0.38816452	-0.09773540	3.55766463
-0.38750920	-0.09787717	3.55766416
-0.38694507	-0.09814191	3.55766368
-0.38626137	-0.09782699	3.55766273
-0.38566869	-0.09763456	3.55766225
-0.38488978	-0.09721936	3.55766129
-0.38398114	-0.09779321	3.55766058
-0.37925300	-0.09588984	3.55765557
-0.37094679	-0.09083004	3.55764627
-0.36982334	-0.09072393	3.55764508
-0.36606142	-0.08854756	3.55764103
-0.36548975	-0.08824407	3.55764031
-0.36367425	-0.08786774	3.55763865
-0.36233956	-0.08767250	3.55763721
-0.35977933	-0.08608968	3.55763435
-0.35824645	-0.08512556	3.55763268
-0.35765800	-0.08491101	3.55763197
-0.35632321	-0.08471578	3.55763054
-0.35574323	-0.08445693	3.55763006
-0.35376650	-0.08372375	3.55762792
-0.34823176	-0.08033550	3.55762172
-0.34777117	-0.08065586	3.55762148
-0.34045896	-0.07609404	3.55761337
-0.33835444	-0.07482634	3.55761099
-0.33699962	-0.07412974	3.55760956
-0.33485737	-0.07306216	3.55760717
-0.33284390	-0.07191697	3.55760503
-0.33075112	-0.07119536	3.55760264
-0.32732517	-0.06905262	3.55759883
-0.32622603	-0.06942581	3.55759788
-0.32487947	-0.06868450	3.55759645
-0.32366082	-0.06847811	3.55759525
-0.32228929	-0.06787086	3.55759358
-0.32095945	-0.06704051	3.55759215
-0.22163320	-0.00539108	3.55748200
-0.21924943	-0.00530165	3.55747962
-0.21344978	-0.00150084	3.55747318
-0.14919001	0.05392142	3.55739880
-0.14421713	0.05907585	3.55739284
-0.13896757	0.06518888	3.55738664
-0.11995059	0.08892976	3.55736327
-0.11313421	0.09855596	3.55735445
-0.11020809	0.10274354	3.55735087
-0.07092994	0.21700467	3.55729008
-0.06588334	0.25997567	3.55727696
-0.07266676	0.41482279	3.55725384
-0.07830453	0.48808932	3.55724549
-0.10461992	0.55946481	3.55725789
-0.20271724	0.69415951	3.55732942
-0.20725298	0.70093727	3.55733252
-0.20894730	0.70325500	3.55733371
-0.21403778	0.70600110	3.55733824
-0.29022133	0.72807479	3.55740952
-0.29138231	0.72816926	3.55741072
-0.29257578	0.72782958	3.55741191
-0.29598027	0.72830266	3.55741525
-0.46801966	0.74826926	3.55758190
-0.47123754	0.74866700	3.55758500
-0.47279724	0.74936044	3.55758643
-0.47726738	0.75002879	3.55759072
-0.47782323	0.75024879	3.55759120
-0.48005828	0.75058281	3.55759335
-0.48060584	0.75075799	3.55759406
-0.51849300	0.75555986	3.55763054
-0.51898289	0.75603604	3.55763102
-0.52061701	0.75651765	3.55763245
-0.52147627	0.75743717	3.55763316
-0.52251780	0.75811124	3.55763412
-0.52358764	0.75832850	3.55763507
-0.52399468	0.75897193	3.55763531
-0.52503628	0.75964588	3.55763626
-0.52604437	0.76014155	3.55763721
-0.52761233	0.76087976	3.55763865
-0.52964950	0.76198268	3.55764031
-0.53071928	0.76220000	3.55764151
-0.53215122	0.76342839	3.55764270
-0.53316760	0.76396877	3.55764341
-0.53473151	0.76468450	3.55764484
-0.53580558	0.76492399	3.55764604
-0.53724581	0.76619714	3.55764723
-0.53826225	0.76673740	3.55764794
-0.53982192	0.76743102	3.55764937
-0.54003096	0.76884323	3.55764937
-0.54437745	0.77006865	3.55765343
-0.54648459	0.77093774	3.55765533
-0.55551016	0.77424371	3.55766368
-0.56133783	0.77635193	3.55766916
-0.56155097	0.77778685	3.55766892
-0.56257164	0.77834922	3.55766988
-0.56357980	0.77884489	3.55767083
-0.56453013	0.77964193	3.55767155
-0.56602812	0.78061372	3.55767298
-0.56690824	0.78164470	3.55767345
-0.56935656	0.78341353	3.55767560
-0.57301927	0.78495371	3.55767894
-0.57504797	0.78601187	3.55768085
-0.57545924	0.78667784	3.55768108
-0.57640123	0.78743011	3.55768180
-0.57817423	0.78955793	3.55768323
-0.57973409	0.79025155	3.55768466
-0.58116591	0.79147995	3.55768585
-0.58224821	0.79176414	3.55768681
-0.58421922	0.79312360	3.55768847
-0.58516961	0.79392016	3.55768943
-0.58665919	0.79484767	3.55769062
-0.58815289	0.79579735	3.55769181
-0.59296405	0.79736567	3.55769634
-0.59553611	0.79857695	3.55769873
-0.59652746	0.79898357	3.55769968
-0.59643722	0.79971910	3.55769944
-0.59779048	0.80113739	3.55770040
-0.60077798	0.80303663	3.55770302
-0.60395503	0.80412281	3.55770588
-0.60987371	0.80610847	3.55771136
-0.61507946	0.80825329	3.55771613
-0.65354419	0.81792033	3.55775261
-0.65409589	0.81811786	3.55775309
-0.65505046	0.81893688	3.55775380
-0.65589315	0.81976700	3.55775452
-0.65687275	0.82071972	3.55775523
-0.65689963	0.82237738	3.55775499
-0.66110992	0.82409298	3.55775881
-0.66299814	0.82561964	3.55776048
-0.67035294	0.82885581	3.55776715
-0.68607652	0.82736641	3.55778289
-0.68918920	0.82659441	3.55778623
-0.69408041	0.82585865	3.55779123
-0.71128118	0.82522953	3.55780840
-0.71616405	0.82444888	3.55781341
-0.71746540	0.82407570	3.55781460
-0.71929336	0.82376629	3.55781651
-0.71999800	0.82356250	3.55781722
-0.72180092	0.82311934	3.55781913
-0.72356707	0.82308871	3.55782080
-0.72663873	0.82270658	3.55782413
-0.72861117	0.82195145	3.55782604
-0.75496727	0.82169640	3.55785227
-0.75778478	0.82026964	3.55785537
-0.77138293	0.81993669	3.55786896
-0.77546424	0.81793594	3.55787325
-0.77567387	0.81662118	3.55787373
-0.77801597	0.81630886	3.55787611
-0.77825576	0.81576288	3.55787659
-0.78396052	0.81570089	3.55788207
-0.78935409	0.81550801	3.55788755
-0.95465535	0.81458384	3.55805159
-0.98178416	0.81628883	3.55807805
-0.98625439	0.81695670	3.55808234
-0.98680180	0.81713253	3.55808282
-0.98735356	0.81732994	3.55808353
-0.98890907	0.81800145	3.55808496
-0.99006593	0.81807357	3.55808592
-0.99048126	0.81876165	3.55808616
-0.99162978	0.81878930	3.55808735
-0.99360907	0.82019347	3.55808902
-0.99632561	0.82095927	3.55809164
-0.99896783	0.82193655	3.55809402
-1.00053167	0.82265264	3.55809546
-1.00161421	0.82293653	3.55809641
-1.00263894	0.82352144	3.55809736
-1.00541735	0.82400858	3.55809999
-1.00589454	0.82441849	3.55810046
-1.01337457	0.82498276	3.55810785
-1.02328336	0.82509041	3.55811763
-1.02513218	0.82489258	3.55811954
-1.06340170	0.82019961	3.55815816
-1.06401515	0.82011861	3.55815887
-1.06775379	0.81933260	3.55816269
-1.13276982	0.79885131	3.55823112
-1.14729393	0.79281539	3.55824661
-1.14948940	0.79142505	3.55824900
-1.15494812	0.78672433	3.55825543
-1.16193855	0.78044695	3.55826354
-1.20444310	0.72726744	3.55831575
-1.20830333	0.71742123	3.55832148
-1.26489186	0.58429575	3.55840302
-1.29860926	0.50602967	3.55845141
-1.29988706	0.50340784	3.55845332
-1.30098367	0.50164413	3.55845475
-1.30249548	0.50056887	3.55845642
-1.30398679	0.49938163	3.55845809
-1.30924618	0.45784551	3.55847120
-1.31907463	0.37929511	3.55849600
-1.32138109	0.35029340	3.55850387
-1.32985318	0.21421303	3.55853820
-1.33005404	0.20921531	3.55853939
-1.32771063	0.10096503	3.55855775
-1.31400919	0.02100465	3.55855966
-1.30077577	-0.02251042	3.55855465
-1.29709387	-0.03264230	3.55855298
-1.22668958	-0.18931332	3.55851316
-1.19665599	-0.23978259	3.55849314
-1.18002689	-0.26340351	3.55848122
-1.17604053	-0.26848158	3.55847812
-1.17068398	-0.27506679	3.55847406
-1.14748609	-0.29988161	3.55845594
-1.14321136	-0.30345532	3.55845237
-1.13405681	-0.31047764	3.55844474
-1.08190572	-0.34334543	3.55839920
-1.07031727	-0.35054570	3.55838919
-1.06751704	-0.35205579	3.55838656
-1.06524861	-0.35256821	3.55838442
-1.05534530	-0.35476771	3.55837512
-0.99341583	-0.36309090	3.55831528
-0.93502605	-0.35840127	3.55825663
