//X	Y	Z
-0.57274342	-0.25598612	2.59866214
-0.52916425	-0.26130456	2.59849238
-0.52106136	-0.26216656	2.59846067
-0.51733142	-0.26243067	2.59844637
-0.49363115	-0.26397815	2.59835482
-0.46756619	-0.26473144	2.59825444
-0.40553677	-0.26130450	2.59801888
-0.38637951	-0.25788462	2.59794736
-0.35499653	-0.25111240	2.59783101
-0.31166169	-0.24048035	2.59767103
-0.27649668	-0.22725913	2.59754372
-0.26606926	-0.22307548	2.59750605
-0.24354199	-0.21071650	2.59742665
-0.23996523	-0.20868184	2.59741426
-0.23466793	-0.20549347	2.59739566
-0.22269180	-0.19737388	2.59735441
-0.21571651	-0.19196184	2.59733057
-0.19680691	-0.17574716	2.59726739
-0.17651916	-0.15607330	2.59720063
-0.17471269	-0.15389702	2.59719491
-0.15812597	-0.13308042	2.59714293
-0.15650719	-0.13094909	2.59713793
-0.14798149	-0.11841979	2.59711218
-0.13951686	-0.10593114	2.59708667
-0.13626930	-0.10030657	2.59707737
-0.12481698	-0.08038212	2.59704471
-0.12164834	-0.07434071	2.59703588
-0.10977206	-0.04428372	2.59700727
-0.10536769	-0.03114830	2.59699774
-0.10436532	-0.02775312	2.59699559
-0.09855235	-0.00063239	2.59698844
-0.09770975	0.00362221	2.59698772
-0.09606901	0.01489187	2.59698772
-0.09385476	0.03083964	2.59698796
-0.09237468	0.04299459	2.59698915
-0.08857241	0.07479205	2.59699225
-0.08829287	0.07893771	2.59699345
-0.08848310	0.12096712	2.59701777
-0.08876598	0.13144413	2.59702468
-0.08888999	0.13462144	2.59702682
-0.08969647	0.15367025	2.59704041
-0.09153876	0.17665362	2.59706044
-0.09246501	0.18746433	2.59706998
-0.09529915	0.21485469	2.59709597
-0.09799120	0.23537715	2.59711790
-0.10121080	0.25810856	2.59714270
-0.10250482	0.26703572	2.59715271
-0.10400298	0.27634978	2.59716368
-0.11995533	0.35392588	2.59726787
-0.15436020	0.50543278	2.59748387
-0.16018024	0.53180188	2.59752083
-0.16084856	0.53761995	2.59752679
-0.19080967	0.62043810	2.59768748
-0.19595519	0.63275522	2.59771419
-0.19921601	0.64039141	2.59773088
-0.20267630	0.64343923	2.59774590
-0.22913818	0.66080272	2.59785676
-0.23326609	0.66320252	2.59787393
-0.25676373	0.67244917	2.59796906
-0.30320156	0.68644285	2.59815478
-0.30561662	0.68694395	2.59816432
-0.30707398	0.68713462	2.59816980
-0.33092451	0.68924534	2.59826231
-0.33565569	0.68932146	2.59828067
-0.33830267	0.68930519	2.59829068
-0.35865754	0.68913686	2.59836864
-0.36766359	0.68891066	2.59840298
-0.39429179	0.68636692	2.59850335
-0.40477279	0.68355596	2.59854198
-0.42014539	0.67847341	2.59859800
-0.43234339	0.67443144	2.59864259
-0.43401611	0.67367285	2.59864855
-0.43525144	0.67301911	2.59865284
-0.43667305	0.67229456	2.59865785
-0.43915826	0.67136717	2.59866691
-0.44120756	0.67057037	2.59867430
-0.44356823	0.66967297	2.59868288
-0.44605350	0.66874552	2.59869194
-0.44704017	0.66817737	2.59869528
-0.44952321	0.66719848	2.59870434
-0.45157170	0.66637582	2.59871173
-0.45318279	0.66565800	2.59871745
-0.45479167	0.66488868	2.59872317
-0.45583859	0.66425401	2.59872675
-0.45844901	0.66329658	2.59873629
-0.46049717	0.66247404	2.59874368
-0.46260890	0.66166234	2.59875131
-0.46428132	0.66090363	2.59875727
-0.46507660	0.66027731	2.59875989
-0.46674901	0.65951872	2.59876585
-0.46779484	0.65885824	2.59876966
-0.46902910	0.65817857	2.59877396
-0.46932560	0.65769786	2.59877491
-0.48302311	0.65323246	2.59882474
-0.48415944	0.65165257	2.59882832
-0.48639607	0.65081084	2.59883642
-0.48731810	0.65020621	2.59883952
-0.48961493	0.64929795	2.59884787
-0.49197671	0.64842623	2.59885645
-0.49250293	0.64737636	2.59885788
-0.49430135	0.64661360	2.59886432
-0.49434590	0.64614111	2.59886408
-0.49483413	0.64571851	2.59886575
-0.49526793	0.64553636	2.59886742
-0.49625462	0.64496821	2.59887075
-0.49675196	0.64479691	2.59887266
-0.49824169	0.64418638	2.59887791
-0.50022411	0.64330137	2.59888506
-0.50162894	0.64214516	2.59888983
-0.50330138	0.64138651	2.59889579
-0.50484568	0.64058048	2.59890127
-0.50557929	0.63999486	2.59890389
-0.50631320	0.63940918	2.59890628
-0.50773478	0.63868475	2.59891129
-0.50877953	0.63799846	2.59891486
-0.50989103	0.63740045	2.59891891
-0.51212764	0.63655871	2.59892702
-0.51379925	0.63577425	2.59893298
-0.51434666	0.63525933	2.59893465
-0.51501781	0.63468874	2.59893703
-0.51725107	0.63376969	2.59894490
-0.51798582	0.63320988	2.59894753
-0.52339703	0.63132769	2.59896708
-0.52337807	0.63084424	2.59896684
-0.52528238	0.62956822	2.59897351
-0.52626801	0.62897432	2.59897685
-0.52743757	0.62825817	2.59898090
-0.52818465	0.62802696	2.59898376
-0.52979934	0.62738645	2.59898949
-0.52982491	0.62643045	2.59898901
-0.53087074	0.62577003	2.59899259
-0.53753364	0.62362099	2.59901690
-0.53781015	0.62263095	2.59901762
-0.53791821	0.62216932	2.59901762
-0.53882378	0.62113261	2.59902048
-0.54018295	0.62042308	2.59902549
-0.54022533	0.61989897	2.59902525
-0.54264700	0.61896086	2.59903407
-0.54313421	0.61851245	2.59903550
-0.54317981	0.61806560	2.59903550
-0.54460037	0.61731541	2.59904051
-0.54552376	0.61673641	2.59904385
-0.54675686	0.61603111	2.59904814
-0.54784834	0.61492383	2.59905171
-0.54914618	0.61425501	2.59905624
-0.54937911	0.61376339	2.59905696
-0.55061555	0.61313540	2.59906125
-0.55166167	0.61247492	2.59906483
-0.55320597	0.61166888	2.59907031
-0.55381358	0.61108738	2.59907246
-0.55429852	0.61058748	2.59907389
-0.55522060	0.60998273	2.59907722
-0.55657971	0.60927320	2.59908199
-0.55931473	0.60828596	2.59909177
-0.55967510	0.60781592	2.59909296
-0.56128395	0.60704654	2.59909868
-0.56245470	0.60635614	2.59910274
-0.56312585	0.60578549	2.59910512
-0.56323397	0.60532373	2.59910536
-0.56346804	0.60485792	2.59910583
-0.56409025	0.60465658	2.59910822
-0.56488961	0.60413337	2.59911084
-0.56562215	0.60352194	2.59911346
-0.56585407	0.60300452	2.59911394
-0.56608808	0.60253859	2.59911466
-0.56696010	0.60227752	2.59911776
-0.56750530	0.60171098	2.59911966
-0.56761229	0.60122341	2.59911966
-0.56922263	0.60047978	2.59912539
-0.56945562	0.59998816	2.59912610
-0.56987917	0.59952891	2.59912753
-0.57067305	0.59887677	2.59913015
-0.57209462	0.59815228	2.59913516
-0.57226729	0.59772712	2.59913564
-0.57230866	0.59717727	2.59913540
-0.57285935	0.59673965	2.59913731
-0.57354510	0.59654927	2.59913993
-0.57390541	0.59607917	2.59914088
-0.57434112	0.59594864	2.59914255
-0.57476395	0.59546369	2.59914398
-0.57524776	0.59493786	2.59914541
-0.57616431	0.59420413	2.59914851
-0.57658792	0.59374493	2.59914994
-0.57702506	0.59364021	2.59915161
-0.57739055	0.59329915	2.59915280
-0.57831037	0.59264284	2.59915590
-0.57873321	0.59215784	2.59915733
-0.57996631	0.59145236	2.59916162
-0.58038884	0.59096742	2.59916306
-0.58081132	0.59048241	2.59916425
-0.58168441	0.59024709	2.59916759
-0.58179361	0.58981115	2.59916759
-0.58240926	0.58945507	2.59916973
-0.58308923	0.58909076	2.59917212
-0.58358538	0.58884871	2.59917402
-0.58501363	0.58832395	2.59917927
-0.58518302	0.58782148	2.59917951
-0.58529007	0.58733392	2.59917974
-0.58559138	0.58700120	2.59918070
-0.58658701	0.58663934	2.59918427
-0.58695376	0.58636904	2.59918547
-0.58738971	0.58623844	2.59918714
-0.58793712	0.58572352	2.59918880
-0.58862400	0.58555889	2.59919143
-0.58886164	0.58517027	2.59919214
-0.58973366	0.58490926	2.59919524
-0.59040809	0.58441591	2.59919763
-0.59182966	0.58369142	2.59920263
-0.59200132	0.58324051	2.59920311
-0.59343970	0.58294785	2.59920835
-0.59454685	0.58224660	2.59921241
-0.59523368	0.58208197	2.59921479
-0.59590596	0.58153707	2.59921718
-0.59671885	0.58136833	2.59922004
-0.59726536	0.58082753	2.59922194
-0.60388309	0.57921511	2.59924626
-0.61406869	0.57691091	2.59928417
-0.61929226	0.57507360	2.59930301
-0.64484501	0.56906188	2.59939766
-0.79832917	0.53953356	2.59996891
-0.80189919	0.53893828	2.59998226
-0.80358875	0.53861141	2.59998846
-0.81735706	0.53613043	2.60003972
-0.81931055	0.53612399	2.60004735
-0.82319546	0.53550541	2.60006189
-0.82507414	0.53518534	2.60006881
-0.82651466	0.53494418	2.60007429
-0.82696849	0.53527117	2.60007620
-0.82930362	0.53532958	2.60008502
-0.83174646	0.53492641	2.60009432
-0.83237302	0.53482836	2.60009646
-0.83331192	0.53465533	2.60010004
-0.83419830	0.53472948	2.60010362
-0.83539504	0.53472209	2.60010815
-0.83658469	0.53451508	2.60011244
-0.83831614	0.53525829	2.60011959
-0.84164780	0.53502566	2.60013223
-0.84229255	0.53538513	2.60013485
-0.84840608	0.53374434	2.60015726
-0.85034829	0.53343511	2.60016465
-0.85105443	0.53375375	2.60016751
-0.85211813	0.53355080	2.60017157
-0.85488772	0.53340805	2.60018206
-0.86039686	0.53242612	2.60020256
-0.88288319	0.52544403	2.60028481
-0.88618457	0.52442527	2.60029674
-0.88774812	0.52410257	2.60030270
-0.88901913	0.52436399	2.60030770
-0.89801943	0.52236986	2.60034108
-0.98713094	0.47816128	2.60065770
-0.99312055	0.47493717	2.60067868
-0.99925202	0.47052088	2.60069966
-1.03261638	0.44510454	2.60081339
-1.03369665	0.44369447	2.60081673
-1.03554618	0.44101986	2.60082245
-1.08049774	0.35374939	2.60094595
-1.08252954	0.34926191	2.60095119
-1.08192337	0.34019589	2.60094380
-1.07851815	0.31437296	2.60091639
-1.07117629	0.27976140	2.60086894
-1.06737971	0.26973587	2.60084891
-1.04557240	0.21318446	2.60073400
-1.02331090	0.16934729	2.60062432
-1.02256823	0.16808760	2.60062075
-1.01290107	0.14974409	2.60057354
-1.01013982	0.14522123	2.60056043
-1.00871861	0.14273857	2.60055351
-1.00766373	0.14155373	2.60054874
-1.00624323	0.13907097	2.60054207
-1.00550163	0.13783708	2.60053849
-0.92483860	-0.01489282	2.60014462
-0.92494678	-0.01535456	2.60014486
-0.90505636	-0.05334600	2.60004735
-0.90421653	-0.05548010	2.60004306
-0.90391314	-0.05679296	2.60004115
-0.90329647	-0.05805682	2.60003805
-0.90233183	-0.06016096	2.60003328
-0.90013385	-0.06479280	2.60002232
-0.87468183	-0.10314931	2.59990335
-0.85787016	-0.12525155	2.59982681
-0.85747659	-0.12564513	2.59982491
-0.82806003	-0.15412655	2.59969640
-0.82381362	-0.15793571	2.59967804
-0.81728822	-0.16361216	2.59964991
-0.81187993	-0.16811867	2.59962678
-0.79712182	-0.17960230	2.59956384
-0.79231226	-0.18330254	2.59954333
-0.77080351	-0.19815136	2.59945273
-0.76964158	-0.19884866	2.59944797
-0.74516344	-0.21224429	2.59934664
-0.70368779	-0.22989316	2.59917808
-0.69984394	-0.23146354	2.59916258
-0.69664377	-0.23270015	2.59914947
-0.69027787	-0.23428409	2.59912419
-0.67958462	-0.23691259	2.59908175
-0.66298038	-0.24077220	2.59901619
-0.64250594	-0.24527204	2.59893513
-0.62493628	-0.24802861	2.59886646
-0.61409009	-0.24972278	2.59882402
