//X	Y	Z
-1.08326769	0.66247451	1.37286806
-1.08439040	0.66089845	1.37286687
-1.09176695	0.64032960	1.37285435
-1.09326518	0.63063341	1.37284935
-1.09227407	0.62755257	1.37284839
-1.09000456	0.62066817	1.37284636
-1.08739626	0.61514944	1.37284505
-1.08200586	0.60558200	1.37284327
-1.07948172	0.60111433	1.37284243
-1.07521844	0.59296739	1.37284064
-1.07296419	0.59012622	1.37284040
-1.07007933	0.58493137	1.37283945
-1.06908178	0.58380061	1.37283933
-1.06783593	0.58313650	1.37283969
-1.06644964	0.58113593	1.37283945
-1.06469500	0.57935947	1.37283945
-1.06380796	0.57842362	1.37283933
-1.06269050	0.57705069	1.37283933
-1.06116509	0.57471251	1.37283897
-1.06031597	0.57396686	1.37283897
-1.05916059	0.57240367	1.37283885
-1.05854237	0.57209533	1.37283897
-1.05703580	0.56985229	1.37283862
-1.05539203	0.56827074	1.37283874
-1.05440378	0.56718767	1.37283862
-1.05239117	0.56582999	1.37283897
-1.05076611	0.56434357	1.37283909
-0.97005457	0.41127563	1.37280750
-0.96984297	0.41031027	1.37280715
-0.97012687	0.40965825	1.37280667
-0.96983278	0.40864065	1.37280643
-0.96972984	0.40749437	1.37280595
-0.96982038	0.40659529	1.37280548
-0.96955973	0.40501648	1.37280488
-0.96911722	0.40361369	1.37280440
-0.96919841	0.40266716	1.37280405
-0.96901023	0.40171620	1.37280369
-0.96938872	0.40091634	1.37280309
-0.96905494	0.39933285	1.37280262
-0.95981753	0.38100910	1.37279856
-0.95618951	0.37513530	1.37279761
-0.95561624	0.37468898	1.37279773
-0.95502484	0.37352443	1.37279749
-0.95406342	0.37158507	1.37279701
-0.95325917	0.37070140	1.37279701
-0.95207626	0.36837241	1.37279642
-0.95140362	0.36815447	1.37279665
-0.94980311	0.36543605	1.37279618
-0.94847322	0.36372077	1.37279606
-0.94769728	0.36297983	1.37279606
-0.94659835	0.36170173	1.37279594
-0.94586933	0.36119869	1.37279606
-0.94509345	0.36045772	1.37279618
-0.94402266	0.35932237	1.37279606
-0.94330239	0.35949004	1.37279654
-0.94251770	0.35807830	1.37279618
-0.94057292	0.35518402	1.37279582
-0.93942678	0.35366827	1.37279570
-0.93816078	0.35191020	1.37279546
-0.93746740	0.35122150	1.37279546
-0.93632346	0.35008147	1.37279546
-0.93573135	0.34954017	1.37279546
-0.93534476	0.34904596	1.37279546
-0.93468004	0.34787661	1.37279522
-0.93416381	0.34709245	1.37279510
-0.93355370	0.34583288	1.37279487
-0.93274140	0.34590065	1.37279522
-0.93183643	0.34424657	1.37279487
-0.93126315	0.34380022	1.37279499
-0.93039930	0.34350219	1.37279522
-0.92991853	0.34253246	1.37279499
-0.92931914	0.34231925	1.37279522
-0.92819870	0.34140247	1.37279534
-0.92725706	0.34118041	1.37279570
-0.92689657	0.34045309	1.37279546
-0.92171973	0.33039916	1.37279332
-0.92121083	0.32928687	1.37279308
-0.92084086	0.32851207	1.37279296
-0.91823399	0.32399213	1.37279212
-0.91722715	0.32281405	1.37279201
-0.91631216	0.32173550	1.37279189
-0.91535157	0.32141823	1.37279224
-0.91476959	0.32030118	1.37279201
-0.91396588	0.31879449	1.37279165
-0.91341138	0.31844327	1.37279177
-0.91158497	0.31766111	1.37279224
-0.91089153	0.31697243	1.37279224
-0.90951025	0.31734535	1.37279308
-0.90886170	0.31651860	1.37279296
-0.90805960	0.31601083	1.37279320
-0.90693343	0.31621224	1.37279379
-0.90630639	0.31523329	1.37279356
-0.90571427	0.31469190	1.37279367
-0.90470880	0.31451261	1.37279403
-0.90380460	0.31448048	1.37279439
-0.90317690	0.31412464	1.37279451
-0.90242189	0.31385452	1.37279475
-0.90180111	0.31379378	1.37279499
-0.90077293	0.31172705	1.37279451
-0.90032047	0.31089991	1.37279439
-0.89984924	0.30997783	1.37279415
-0.89879513	0.30856186	1.37279403
-0.89812124	0.30734509	1.37279379
-0.89673489	0.30534452	1.37279356
-0.89483494	0.30210346	1.37279296
-0.85640985	0.22155558	1.37277448
-0.81301200	0.12833437	1.37275267
-0.81281662	0.12771159	1.37275243
-0.81265801	0.12565696	1.37275159
-0.81269270	0.12384939	1.37275076
-0.81179291	0.12149143	1.37275016
-0.81230104	0.12098166	1.37274969
-0.81215107	0.11959770	1.37274909
-0.81194687	0.11830410	1.37274861
-0.81241465	0.11785167	1.37274826
-0.81258506	0.11725235	1.37274790
-0.81355202	0.11561942	1.37274671
-0.81271404	0.11305162	1.37274587
-0.81232393	0.11118296	1.37274528
-0.81173027	0.10964254	1.37274480
-0.81230474	0.10863367	1.37274408
-0.81218052	0.10784876	1.37274384
-0.81252867	0.10653058	1.37274313
-0.81197274	0.10518056	1.37274277
-0.81266469	0.10487032	1.37274230
-0.81248665	0.10334361	1.37274170
-0.81298530	0.10278645	1.37274122
-0.81304753	0.10174468	1.37274075
-0.81360990	0.10114446	1.37274015
-0.81407630	0.09969318	1.37273932
-0.81416523	0.09779525	1.37273848
-0.81475645	0.09671447	1.37273765
-0.81423467	0.09417999	1.37273681
-0.81540489	0.09221840	1.37273538
-0.81565118	0.09137630	1.37273490
-0.81520593	0.09022105	1.37273455
-0.81515813	0.08836117	1.37273383
-0.81489897	0.08778128	1.37273359
-0.81463039	0.08715388	1.37273347
-0.81523979	0.08679140	1.37273300
-0.81459188	0.08534148	1.37273264
-0.81440580	0.08476618	1.37273252
-0.81432188	0.08371517	1.37273204
-0.81417209	0.08233124	1.37273157
-0.81370866	0.08045775	1.37273085
-0.81323588	0.07853657	1.37273026
-0.81285655	0.07771432	1.37273002
-0.81221795	0.07631192	1.37272978
-0.81154191	0.07471958	1.37272930
-0.81167948	0.07405818	1.37272894
-0.81117994	0.07299337	1.37272871
-0.81103009	0.07160938	1.37272823
-0.81064129	0.07073951	1.37272799
-0.81032574	0.06987438	1.37272775
-0.81004775	0.06919923	1.37272751
-0.80995435	0.06810057	1.37272704
-0.80965281	0.06720227	1.37272680
-0.81032598	0.06679699	1.37272632
-0.80985379	0.06425267	1.37272537
-0.80925351	0.06241739	1.37272489
-0.80884600	0.06145248	1.37272465
-0.80946475	0.06113744	1.37272418
-0.80937147	0.06003889	1.37272370
-0.80930352	0.05933022	1.37272346
-0.80904436	0.05875033	1.37272334
-0.80870116	0.05711931	1.37272274
-0.80816400	0.05586439	1.37272239
-0.80728513	0.05397713	1.37272203
-0.80633110	0.05170968	1.37272143
-0.80496013	0.04842970	1.37272060
-0.80413151	0.04590958	1.37271988
-0.80479527	0.04545671	1.37271929
-0.80434918	0.04267937	1.37271833
-0.80361670	0.04080164	1.37271774
-0.80377364	0.03961220	1.37271714
-0.80348414	0.03851387	1.37271678
-0.80444384	0.03720909	1.37271583
-0.80366635	0.03546926	1.37271535
-0.80294383	0.03301582	1.37271464
-0.80204999	0.02933088	1.37271333
-0.80007070	0.02516678	1.37271237
-0.78692901	-0.00199306	1.37270629
-0.78602993	-0.00497422	1.37270534
-0.78452492	-0.00621828	1.37270546
-0.78289026	-0.00775248	1.37270558
-0.78089809	-0.00801599	1.37270629
-0.77742636	-0.01096100	1.37270665
-0.77473056	-0.01358283	1.37270665
-0.77309680	-0.01349479	1.37270749
-0.68141389	-0.15796055	1.37268472
-0.68074787	-0.16012862	1.37268400
-0.68045902	-0.16185012	1.37268341
-0.67961788	-0.16354696	1.37268305
-0.67970824	-0.16444609	1.37268257
-0.67658776	-0.17020658	1.37268138
-0.67613095	-0.17403018	1.37267995
-0.67343414	-0.17827410	1.37267923
-0.67318225	-0.17918231	1.37267900
-0.67295933	-0.18057096	1.37267840
-0.67256117	-0.18148832	1.37267816
-0.67221010	-0.18216804	1.37267804
-0.67272538	-0.18300608	1.37267745
-0.67327487	-0.18502839	1.37267625
-0.67290342	-0.18680190	1.37267566
-0.67234957	-0.18777642	1.37267554
-0.67147070	-0.18966356	1.37267506
-0.67072153	-0.19126073	1.37267470
-0.67021257	-0.19237307	1.37267447
-0.66883361	-0.19470173	1.37267399
-0.66890734	-0.19532022	1.37267375
-0.66879708	-0.19796582	1.37267256
-0.66201293	-0.20962347	1.37267041
-0.66097844	-0.21156749	1.37267005
-0.66086411	-0.21313690	1.37266946
-0.65608531	-0.22269118	1.37266731
-0.65545619	-0.22404584	1.37266695
-0.65567636	-0.22465493	1.37266660
-0.65472424	-0.22654672	1.37266624
-0.65382040	-0.22944739	1.37266529
-0.65269387	-0.23149124	1.37266493
-0.57734978	-0.36336532	1.37264037
-0.57658958	-0.36600900	1.37263954
-0.57558119	-0.36818618	1.37263906
-0.56533581	-0.37908262	1.37263882
-0.54151690	-0.39474639	1.37264264
-0.54016978	-0.39555785	1.37264287
-0.48314345	-0.41220981	1.37266147
-0.47866789	-0.41229886	1.37266350
-0.34826225	-0.38876134	1.37273347
-0.22380818	-0.34947869	1.37280786
-0.19316171	-0.33882248	1.37282658
-0.14894511	-0.31621736	1.37285686
-0.12188756	-0.29023108	1.37288082
-0.11251642	-0.27786940	1.37289059
-0.09791880	-0.25467908	1.37290764
-0.04335682	-0.16494256	1.37297261
-0.03530686	-0.15132754	1.37298238
-0.03565803	-0.15064771	1.37298250
-0.02899977	-0.13531820	1.37299240
-0.02693975	-0.13096766	1.37299538
-0.02646493	-0.12794177	1.37299693
-0.02743220	-0.12732950	1.37299669
-0.02634129	-0.12423608	1.37299860
-0.02683333	-0.12305207	1.37299895
-0.02672408	-0.12224799	1.37299931
-0.02634103	-0.12115876	1.37300003
-0.02571035	-0.11860742	1.37300146
-0.02578284	-0.11797967	1.37300169
-0.02562339	-0.11633376	1.37300241
-0.02600721	-0.11580100	1.37300253
-0.02594497	-0.11475920	1.37300301
-0.02566993	-0.11343648	1.37300372
-0.02535723	-0.11230402	1.37300444
-0.02487774	-0.10940619	1.37300587
-0.02410554	-0.10652719	1.37300754
-0.02378326	-0.10398357	1.37300885
-0.02413438	-0.10330385	1.37300897
-0.02452632	-0.10189477	1.37300944
-0.02579238	-0.10013670	1.37300968
-0.02658345	-0.09921659	1.37300968
-0.02743638	-0.09855506	1.37300956
-0.02723136	-0.09776672	1.37301004
-0.02740946	-0.09624003	1.37301064
-0.02796325	-0.09526581	1.37301075
-0.02755135	-0.09390484	1.37301159
-0.02795687	-0.09331546	1.37301171
-0.02696511	-0.09045070	1.37301338
-0.02829359	-0.08973418	1.37301314
-0.02809231	-0.08902999	1.37301350
-0.02841521	-0.08849289	1.37301362
-0.02804824	-0.08726989	1.37301433
-0.02725050	-0.08478105	1.37301588
-0.02783260	-0.08366410	1.37301600
-0.02851658	-0.08302297	1.37301600
-0.02915830	-0.08270018	1.37301588
-0.02873018	-0.08168192	1.37301648
-0.02601450	-0.07579346	1.37302041
-0.02682604	-0.07523798	1.37302029
-0.02629401	-0.07411941	1.37302101
-0.02634186	-0.07225955	1.37302184
-0.02646418	-0.07143263	1.37302220
-0.02442282	-0.06719595	1.37302494
-0.02610307	-0.06621413	1.37302470
-0.02552326	-0.06491898	1.37302554
-0.02276463	-0.05851691	1.37302959
-0.02008722	-0.05306133	1.37303329
-0.01934515	-0.05149169	1.37303436
-0.01896884	-0.05031614	1.37303495
-0.01858508	-0.04881268	1.37303591
-0.01837444	-0.04815587	1.37303627
-0.01833829	-0.04734720	1.37303662
-0.01785113	-0.04636663	1.37303734
-0.01853243	-0.04547807	1.37303734
-0.01954214	-0.04454719	1.37303734
-0.01906842	-0.04297667	1.37303829
-0.01477858	-0.03409055	1.37304413
-0.01424590	-0.03234880	1.37304521
-0.01440519	-0.03091725	1.37304580
-0.01435231	-0.02982797	1.37304628
-0.01480482	-0.02900088	1.37304640
-0.01449429	-0.02749255	1.37304723
-0.01418361	-0.02598448	1.37304807
-0.01327306	-0.02406619	1.37304938
-0.01481090	-0.02276010	1.37304926
-0.01413189	-0.02102779	1.37305033
-0.01544778	-0.01927927	1.37305045
-0.01524977	-0.01761830	1.37305129
-0.01531113	-0.01699575	1.37305152
-0.01558116	-0.01536947	1.37305212
-0.01478136	-0.01325630	1.37305343
-0.01598165	-0.01183094	1.37305355
-0.01607965	-0.01081309	1.37305403
-0.01586439	-0.01007564	1.37305439
-0.01628388	-0.00951952	1.37305450
-0.01582499	-0.00839624	1.37305522
-0.01569690	-0.00768728	1.37305558
-0.01555473	-0.00694521	1.37305593
-0.01423011	-0.00404184	1.37305784
-0.01365244	-0.00216211	1.37305892
-0.01269098	0.00101228	1.37306082
-0.01202869	0.00246406	1.37306178
-0.01167109	0.00373451	1.37306249
-0.01154441	0.00544234	1.37306333
-0.01129767	0.00690781	1.37306404
-0.01162060	0.00744493	1.37306416
-0.01036178	0.01068113	1.37306619
-0.01023511	0.01238889	1.37306702
-0.01023661	0.01338793	1.37306750
-0.01008697	0.01424912	1.37306798
-0.00998979	0.01485320	1.37306821
-0.00988047	0.01565733	1.37306869
-0.00949469	0.01678516	1.37306929
-0.01026066	0.01810165	1.37306952
-0.01005937	0.01880591	1.37307000
-0.00928786	0.02106178	1.37307131
-0.00940945	0.02230307	1.37307179
-0.00937332	0.02311169	1.37307215
-0.00939960	0.02491506	1.37307298
-0.00688056	0.03018000	1.37307656
-0.00640369	0.03283027	1.37307787
-0.00581662	0.03466240	1.37307894
-0.00708123	0.03542149	1.37307870
-0.00793041	0.03616717	1.37307870
-0.00797953	0.03678069	1.37307894
-0.00799979	0.03787459	1.37307942
-0.00848787	0.03851625	1.37307954
-0.00830009	0.04001937	1.37308025
-0.00875051	0.04047067	1.37308025
-0.00908288	0.04105532	1.37308037
-0.00879168	0.04203541	1.37308097
-0.00920861	0.04304794	1.37308121
-0.00955500	0.04359946	1.37308133
-0.01008595	0.04393618	1.37308121
-0.01037280	0.04528205	1.37308168
-0.01045206	0.04620497	1.37308204
-0.01040645	0.04696602	1.37308240
-0.01104500	0.04836841	1.37308276
-0.01262524	0.04999285	1.37308276
-0.01360603	0.05140411	1.37308288
-0.01449073	0.05196415	1.37308276
-0.01447549	0.05324372	1.37308335
-0.01351464	0.05579496	1.37308490
-0.01553647	0.05719995	1.37308466
-0.01517887	0.05847054	1.37308538
-0.01471202	0.06054512	1.37308645
-0.01669623	0.06175997	1.37308609
-0.01829320	0.06310383	1.37308598
-0.01911414	0.06370678	1.37308586
-0.01983379	0.06416246	1.37308574
-0.02003857	0.06483269	1.37308598
-0.01936010	0.06594191	1.37308681
-0.02226314	0.06653253	1.37308574
-0.02282520	0.06718212	1.37308574
-0.02268361	0.06891964	1.37308657
-0.02392560	0.06945901	1.37308633
-0.02411275	0.07040647	1.37308657
-0.02441898	0.07122427	1.37308681
-0.02503864	0.07253136	1.37308717
-0.02587251	0.07455648	1.37308764
-0.02582847	0.07631656	1.37308848
-0.02659505	0.07700991	1.37308848
-0.02679930	0.07830350	1.37308896
-0.02713365	0.07926368	1.37308919
-0.02753278	0.08039343	1.37308955
-0.02781073	0.08106846	1.37308967
-0.02822563	0.08170535	1.37308979
-0.02857678	0.08238512	1.37308991
-0.02860640	0.08352659	1.37309039
-0.02854706	0.08656612	1.37309182
-0.02889173	0.08919610	1.37309289
-0.03000949	0.09056921	1.37309289
-0.02988281	0.09227701	1.37309372
-0.03006091	0.09380366	1.37309432
0.00921713	0.26186982	1.37318742
0.01036803	0.26330331	1.37318861
0.01069005	0.26438832	1.37318921
0.01174992	0.26429939	1.37318969
0.01395331	0.26531583	1.37319112
0.01543657	0.26616451	1.37319219
0.01605189	0.26785398	1.37319314
0.01672503	0.26825935	1.37319374
0.01699062	0.26962972	1.37319446
0.01776516	0.26988769	1.37319493
0.01889731	0.27141613	1.37319613
0.01936567	0.27249181	1.37319672
0.01987165	0.27337724	1.37319744
0.02052601	0.27387762	1.37319791
0.02128966	0.27518207	1.37319887
0.02189760	0.27654344	1.37319970
0.02254990	0.27741951	1.37320042
0.02296387	0.27840483	1.37320101
0.02315570	0.27915657	1.37320149
0.02418801	0.27983344	1.37320220
0.02491403	0.28132814	1.37320328
0.02607289	0.28371292	1.37320483
0.02646804	0.28479332	1.37320554
0.02733311	0.28595030	1.37320638
0.02790342	0.28750187	1.37320733
0.02852954	0.28814489	1.37320793
0.02925558	0.28963947	1.37320900
0.02976018	0.29152381	1.37321007
0.03055201	0.29268560	1.37321091
0.03208086	0.29429549	1.37321234
0.03310218	0.29601890	1.37321353
0.03382821	0.29751360	1.37321460
0.03457454	0.29791412	1.37321508
0.03595643	0.29891020	1.37321615
0.03647235	0.30037141	1.37321699
0.03723541	0.30105269	1.37321770
0.03808165	0.30230486	1.37321866
0.03838700	0.30310914	1.37321913
0.03914277	0.30346224	1.37321961
0.03994341	0.30395329	1.37322021
0.04066205	0.30511981	1.37322104
0.04096475	0.30567670	1.37322152
0.04173775	0.30693364	1.37322235
0.04252177	0.30714402	1.37322283
0.04347870	0.30820137	1.37322378
0.04398319	0.31008577	1.37322485
0.04440458	0.31139910	1.37322557
0.04490326	0.31195635	1.37322605
0.04555701	0.31183350	1.37322628
0.04608031	0.31362289	1.37322736
0.04717773	0.31334382	1.37322772
0.04804924	0.31645107	1.37322950
0.04865859	0.31681359	1.37322998
0.04955342	0.31662029	1.37323022
0.04992987	0.31779557	1.37323093
0.05083393	0.31776381	1.37323141
0.05193569	0.32001942	1.37323284
0.05254303	0.32075757	1.37323344
0.05277255	0.32131916	1.37323380
0.05338928	0.32200977	1.37323439
0.05387853	0.32261455	1.37323499
0.05444826	0.32354289	1.37323558
0.05511142	0.32337254	1.37323582
0.05627175	0.32475841	1.37323701
0.05700718	0.32620555	1.37323797
0.05807839	0.32752100	1.37323904
0.05847305	0.32797807	1.37323940
0.05933069	0.32880700	1.37324023
0.05972533	0.32926410	1.37324059
0.06054541	0.33028322	1.37324142
0.06115276	0.33102134	1.37324202
0.06198227	0.33199292	1.37324286
0.06261507	0.33234102	1.37324321
0.06328095	0.33241817	1.37324357
0.06534271	0.33352447	1.37324500
0.06609847	0.33387756	1.37324548
0.06701167	0.33604336	1.37324691
0.06783782	0.33614433	1.37324739
0.06856403	0.33763880	1.37324834
0.06879345	0.33820045	1.37324870
0.06905381	0.33886695	1.37324917
0.06966111	0.33960503	1.37324977
0.07043359	0.34023875	1.37325037
0.07194926	0.34019339	1.37325108
0.07322612	0.34292036	1.37325287
0.07439584	0.34425864	1.37325394
0.07538101	0.34517342	1.37325478
0.07626490	0.34623528	1.37325573
0.07666008	0.34731570	1.37325633
0.07736468	0.34844914	1.37325716
0.07836473	0.34981114	1.37325823
0.07904460	0.34992135	1.37325859
0.07961702	0.35109720	1.37325943
0.08012296	0.35198271	1.37326002
0.08083959	0.35352486	1.37326109
0.08167854	0.35444880	1.37326181
0.08233139	0.35594827	1.37326276
0.08316235	0.35592082	1.37326312
0.08492883	0.35679859	1.37326443
0.08677146	0.36078733	1.37326705
0.08759300	0.36080772	1.37326741
0.08872509	0.36233622	1.37326860
0.08932455	0.36212289	1.37326872
0.09220055	0.36824399	1.37327278
0.09355274	0.37038165	1.37327433
0.09400232	0.37155244	1.37327516
0.09434520	0.37216666	1.37327552
0.09529948	0.37297660	1.37327635
0.09597385	0.37462825	1.37327743
0.09699528	0.37635148	1.37327862
0.09822458	0.37848413	1.37328017
0.09922718	0.38030249	1.37328136
0.10012977	0.38126951	1.37328219
0.10061690	0.38225019	1.37328291
0.10178319	0.38475415	1.37328458
0.10230599	0.38571131	1.37328517
0.10311870	0.38661110	1.37328601
0.10367164	0.38725895	1.37328649
0.10406627	0.38771605	1.37328696
0.10486901	0.38783139	1.37328732
0.10534476	0.38902634	1.37328804
0.10615894	0.38892722	1.37328839
0.10653277	0.38964623	1.37328887
0.10699570	0.39022702	1.37328935
0.10768513	0.39008093	1.37328959
0.10865946	0.39204192	1.37329090
0.10964610	0.39195782	1.37329137
0.11057846	0.39178318	1.37329173
0.11184955	0.39297417	1.37329280
0.11287241	0.39369863	1.37329364
0.11335959	0.39467907	1.37329423
0.11496422	0.39653188	1.37329578
0.11613487	0.39624807	1.37329626
0.11880957	0.40166497	1.37329984
0.11934371	0.40240777	1.37330043
0.12045704	0.40403140	1.37330174
0.12180547	0.40446636	1.37330246
0.12321411	0.40631866	1.37330401
0.12394947	0.40776575	1.37330496
0.12495351	0.40858543	1.37330580
0.12624276	0.40905806	1.37330663
0.12724893	0.40950182	1.37330723
0.12817773	0.41070193	1.37330818
0.12890524	0.41119751	1.37330878
0.12966092	0.41155058	1.37330925
0.13061847	0.41323119	1.37331045
0.13146621	0.41348451	1.37331092
0.13222986	0.41478890	1.37331188
0.13400701	0.41686523	1.37331367
0.13602147	0.42045474	1.37331617
0.13691472	0.42146921	1.37331700
0.13769864	0.42167974	1.37331748
0.13943310	0.42099717	1.37331796
0.14405857	0.42996049	1.37332404
0.14545925	0.43086147	1.37332511
0.14634310	0.43192354	1.37332594
0.14664578	0.43248045	1.37332630
0.14759681	0.43221062	1.37332666
0.14854443	0.43331563	1.37332761
0.14961423	0.43380231	1.37332833
0.15045109	0.43510216	1.37332928
0.15127125	0.43612123	1.37333012
0.15231863	0.43807775	1.37333143
0.15404083	0.43944043	1.37333286
0.15504336	0.44125897	1.37333417
0.15568830	0.44180691	1.37333465
0.15643312	0.44320646	1.37333560
0.15756525	0.44473505	1.37333679
0.15823846	0.44514018	1.37333727
0.15885194	0.44496024	1.37333751
0.16014519	0.44692671	1.37333894
0.16159958	0.44729492	1.37333977
0.16327667	0.44851989	1.37334108
0.16424313	0.44952965	1.37334204
0.16485038	0.45026785	1.37334263
0.16579494	0.45029306	1.37334311
0.16657877	0.45050353	1.37334347
0.16830087	0.45186648	1.37334490
0.16895261	0.45211923	1.37334526
0.16980037	0.45237261	1.37334585
0.17042118	0.45231178	1.37334609
0.17197967	0.45278019	1.37334704
0.17322409	0.45311499	1.37334776
0.17424834	0.45284045	1.37334800
0.17546302	0.45431682	1.37334931
0.17649378	0.45599261	1.37335050
0.17820510	0.45840192	1.37335229
0.17900771	0.45851731	1.37335277
0.17999299	0.45943195	1.37335360
0.18079425	0.46054614	1.37335443
0.18230717	0.46025336	1.37335503
0.18345018	0.46073550	1.37335575
0.18531780	0.46371102	1.37335801
0.18631090	0.46557713	1.37335920
0.18771167	0.46647814	1.37336028
0.18921356	0.46723169	1.37336135
0.19013654	0.46710470	1.37336171
0.19290683	0.47104716	1.37336469
0.19486776	0.47292405	1.37336648
0.19600932	0.47440499	1.37336767
0.19693223	0.47427797	1.37336802
0.19933556	0.47699735	1.37337029
0.20079990	0.47794139	1.37337136
0.20313087	0.47904342	1.37337291
0.20525961	0.48106331	1.37337482
0.20985571	0.48892298	1.37338042
0.21115772	0.49021882	1.37338161
0.21216173	0.49103841	1.37338245
0.21382155	0.49135947	1.37338328
0.21557187	0.49257976	1.37338471
0.21757844	0.49521762	1.37338674
0.21943663	0.49824089	1.37338901
0.22043121	0.49910793	1.37338984
0.22109495	0.49956095	1.37339032
0.22227417	0.50085157	1.37339139
0.22315797	0.50191361	1.37339234
0.22406793	0.50320876	1.37339330
0.22471283	0.50375658	1.37339377
0.22668537	0.50521016	1.37339532
0.22932746	0.50844383	1.37339807
0.22984295	0.50928164	1.37339866
0.23045963	0.50997221	1.37339926
0.23107630	0.51066297	1.37339985
0.23434752	0.51254177	1.37340212
0.23525171	0.51250964	1.37340260
0.23612610	0.51361924	1.37340343
0.23908815	0.51831353	1.37340689
0.24025941	0.51865286	1.37340760
0.24421392	0.52479887	1.37341213
0.24491468	0.52443844	1.37341225
0.24546775	0.52508610	1.37341285
0.24716741	0.52791870	1.37341487
0.24802460	0.52812439	1.37341535
0.24930504	0.52926791	1.37341642
0.25002322	0.52981102	1.37341702
0.25057900	0.53049737	1.37341762
0.25124210	0.53032708	1.37341785
0.25246763	0.53075689	1.37341857
0.25409782	0.53221953	1.37342000
0.25545293	0.53235948	1.37342060
0.25857896	0.53570282	1.37342358
0.26033723	0.53787446	1.37342536
0.26127905	0.53765213	1.37342560
0.26223013	0.53738254	1.37342596
0.26477623	0.53614455	1.37342656
0.26566935	0.53715897	1.37342739
0.26656264	0.53817338	1.37342834
0.26794595	0.53817070	1.37342894
0.27026013	0.53899223	1.37343037
0.27088621	0.53963536	1.37343097
0.27800196	0.54294664	1.37343562
0.27875629	0.54429853	1.37343657
0.28175014	0.54747564	1.37343943
0.28287578	0.54705381	1.37343967
0.28391880	0.54668438	1.37344003
0.28583783	0.54642546	1.37344074
0.28741944	0.54912472	1.37344277
0.28856522	0.54985428	1.37344360
0.28956863	0.55005074	1.37344408
0.28996593	0.55075538	1.37344456
0.29063690	0.55153626	1.37344527
0.29158527	0.55326432	1.37344646
0.29266390	0.55308038	1.37344682
0.29425853	0.55435753	1.37344813
0.29509881	0.55428267	1.37344849
0.29591829	0.55467856	1.37344909
0.29761365	0.55518526	1.37345004
0.29902524	0.55503982	1.37345064
0.30506405	0.57104999	1.37346053
0.30531877	0.57346660	1.37346172
0.30531287	0.57746220	1.37346351
0.30055010	0.64480495	1.37349153
0.30042854	0.64604628	1.37349200
0.29966041	0.64773858	1.37349236
0.29751834	0.64938611	1.37349212
0.29310620	0.65197212	1.37349129
0.28448674	0.65647393	1.37348938
0.27248317	0.65966743	1.37348533
0.24145862	0.66683888	1.37347436
0.21911106	0.66535586	1.37346351
0.12073380	0.63750303	1.37340617
-0.01568228	0.53415012	1.37329769
-0.01986554	0.53135198	1.37329459
-0.02065891	0.53118908	1.37329412
-0.02132270	0.53073621	1.37329364
-0.02215156	0.53038788	1.37329316
-0.02294493	0.53022498	1.37329268
-0.02375704	0.53015721	1.37329233
-0.02531344	0.52931303	1.37329113
-0.02633631	0.52858865	1.37329042
-0.02729949	0.52865845	1.37328994
-0.02810013	0.52816737	1.37328947
-0.02881095	0.52795225	1.37328899
-0.02975062	0.52779871	1.37328851
-0.03044260	0.52748853	1.37328804
-0.03136611	0.52699232	1.37328744
-0.03249967	0.52646279	1.37328660
-0.03327426	0.52620488	1.37328613
-0.03411254	0.52590394	1.37328565
-0.03490588	0.52574110	1.37328517
-0.03557900	0.52533579	1.37328470
-0.03673881	0.52457321	1.37328386
-0.03730267	0.52497184	1.37328374
-0.03879523	0.52417052	1.37328279
-0.04127318	0.52245468	1.37328088
-0.04244435	0.52211523	1.37328017
-0.04466456	0.52081829	1.37327862
-0.04583570	0.52047879	1.37327790
-0.05045122	0.51741385	1.37327445
-0.05315146	0.51609093	1.37327254
-0.05383405	0.51573324	1.37327206
-0.05516103	0.51545078	1.37327135
-0.05627576	0.51482606	1.37327063
-0.05676645	0.51521999	1.37327051
-0.05807456	0.51484239	1.37326980
-0.05964246	0.51442164	1.37326884
-0.06058207	0.51426804	1.37326837
-0.06179827	0.51379073	1.37326765
-0.06287903	0.51435035	1.37326741
-0.06450850	0.51351082	1.37326622
-0.06566572	0.51320469	1.37326562
-0.06649923	0.51277554	1.37326503
-0.06726438	0.51247013	1.37326455
-0.06982690	0.51118213	1.37326276
-0.07155585	0.51032317	1.37326157
-0.07246053	0.50973189	1.37326097
-0.07309756	0.51013529	1.37326086
-0.07488495	0.50972855	1.37325978
-0.07581517	0.50952744	1.37325931
-0.07653531	0.50935984	1.37325895
-0.07746556	0.50915873	1.37325835
-0.07883078	0.50844330	1.37325740
-0.07996434	0.50791371	1.37325668
-0.08157712	0.50735480	1.37325573
-0.08263764	0.50682062	1.37325501
-0.08383700	0.50662374	1.37325430
-0.08457395	0.50617564	1.37325382
-0.08596665	0.50622582	1.37325323
-0.08698159	0.50645280	1.37325287
-0.08849305	0.50574666	1.37325180
-0.08962661	0.50521708	1.37325108
-0.09176573	0.50486684	1.37325001
-0.09369999	0.50384617	1.37324858
-0.09426391	0.50424492	1.37324858
-0.09564602	0.50549412	1.37324846
-0.09752589	0.50456369	1.37324715
-0.09809041	0.50433934	1.37324679
-0.09859723	0.50507593	1.37324691
-0.10003763	0.50474083	1.37324607
-0.10063496	0.50457835	1.37324572
-0.10181555	0.50428647	1.37324512
-0.10254657	0.50516522	1.37324512
-0.10322648	0.50505501	1.37324476
-0.10384536	0.50474012	1.37324440
-0.10530391	0.50512326	1.37324393
-0.10585567	0.50572199	1.37324393
-0.10783055	0.50688934	1.37324357
-0.10881928	0.50734919	1.37324333
-0.11080784	0.50623810	1.37324190
-0.11278185	0.50578344	1.37324083
-0.11332422	0.50633442	1.37324083
-0.11381495	0.50672859	1.37324071
-0.11457276	0.50675124	1.37324035
-0.11580506	0.50661641	1.37323976
-0.11685964	0.50740921	1.37323964
-0.11973506	0.50723398	1.37323821
-0.12146804	0.50691754	1.37323737
-0.12322921	0.50674367	1.37323642
-0.12538710	0.50648856	1.37323534
-0.12701875	0.50602472	1.37323439
-0.13300556	0.50337124	1.37323046
-0.13491517	0.50358254	1.37322974
-0.13620448	0.50310981	1.37322891
-0.13679656	0.50365114	1.37322891
-0.13882285	0.50273049	1.37322748
-0.14052972	0.50264710	1.37322676
-0.14204118	0.50194097	1.37322569
-0.14378348	0.50167191	1.37322474
-0.14532325	0.50110853	1.37322378
-0.14697364	0.50073981	1.37322295
-0.15114895	0.49889305	1.37322021
-0.15379401	0.49765730	1.37321842
-0.15511151	0.49732721	1.37321770
-0.15600626	0.49731174	1.37321723
-0.15696467	0.49725318	1.37321675
-0.16083530	0.49558762	1.37321424
-0.17267191	0.48990104	1.37320638
-0.17825729	0.48720086	1.37320256
-0.17902187	0.48751852	1.37320244
-0.17975082	0.48802161	1.37320232
-0.18035021	0.48823476	1.37320209
-0.18113357	0.48864764	1.37320197
-0.18227805	0.48916453	1.37320161
-0.18308221	0.49004787	1.37320161
-0.18445608	0.48979437	1.37320089
-0.18696372	0.48942888	1.37319958
-0.18745375	0.49023718	1.37319970
-0.18841231	0.49038771	1.37319934
-0.18986942	0.48977190	1.37319839
-0.19047959	0.49082264	1.37319863
-0.19131789	0.49052185	1.37319815
-0.19247040	0.49029624	1.37319744
-0.19296981	0.49115211	1.37319767
-0.19388866	0.49073663	1.37319708
-0.19485484	0.49280423	1.37319756
-0.19701417	0.49354792	1.37319684
-0.19856323	0.49303192	1.37319589
-0.20075025	0.49454153	1.37319565
-0.20196636	0.49406409	1.37319481
-0.20289081	0.49519008	1.37319493
-0.20477219	0.49525881	1.37319410
-0.20748304	0.49435583	1.37319243
-0.20799717	0.49476424	1.37319243
-0.21001831	0.49475622	1.37319148
-0.21145384	0.49429274	1.37319064
-0.21231103	0.49408710	1.37319016
-0.21312456	0.49501806	1.37319016
-0.21400991	0.49495506	1.37318981
-0.21531071	0.49490559	1.37318909
-0.21600217	0.49521869	1.37318897
-0.21769951	0.49508765	1.37318814
-0.21887961	0.49541906	1.37318778
-0.21982123	0.49564108	1.37318742
-0.22145292	0.49517748	1.37318647
-0.22345510	0.49486533	1.37318540
-0.22548281	0.49494338	1.37318456
-0.23064686	0.49355653	1.37318158
-0.23164295	0.49368829	1.37318110
-0.23264846	0.49386761	1.37318075
-0.23291698	0.49449503	1.37318087
-0.23430975	0.49454540	1.37318027
-0.23767440	0.49376529	1.37317848
-0.23793361	0.49434522	1.37317860
-0.24032241	0.49452728	1.37317753
-0.24123324	0.49485424	1.37317729
-0.24562635	0.49510002	1.37317538
-0.24910176	0.49451470	1.37317359
-0.25073332	0.49405089	1.37317264
-0.25115031	0.49506360	1.37317288
-0.25304553	0.49817646	1.37317336
-0.25465834	0.49761766	1.37317240
-0.25492689	0.49824518	1.37317252
-0.25693643	0.49760497	1.37317133
-0.25818223	0.49826896	1.37317109
-0.25956559	0.49827176	1.37317050
-0.26194501	0.49840626	1.37316942
-0.26341099	0.49846137	1.37316883
-0.26425859	0.49820799	1.37316823
-0.26511508	0.49862552	1.37316811
-0.26650995	0.49905148	1.37316763
-0.26811549	0.49882090	1.37316680
-0.27229312	0.49959502	1.37316525
-0.27389067	0.50031573	1.37316477
-0.27583578	0.50034136	1.37316394
-0.27663997	0.50122488	1.37316394
-0.27889925	0.50111711	1.37316287
-0.28213578	0.50104594	1.37316144
-0.28424668	0.50055301	1.37316024
-0.28587824	0.50008917	1.37315929
-0.28751928	0.49967301	1.37315834
-0.29220358	0.49893862	1.37315583
-0.29510778	0.49828279	1.37315428
-0.29636154	0.49799556	1.37315357
-0.29760596	0.49766096	1.37315285
-0.29986519	0.49755305	1.37315178
-0.30087066	0.49773225	1.37315142
-0.30275202	0.49780089	1.37315059
-0.30387768	0.49822262	1.37315023
-0.30475360	0.49811202	1.37314975
-0.30641347	0.49779099	1.37314892
-0.30699611	0.49828470	1.37314880
-0.30768549	0.49822214	1.37314844
-0.30827755	0.49876353	1.37314844
-0.30908027	0.49864811	1.37314808
-0.30990183	0.49862787	1.37314761
-0.31165361	0.49840653	1.37314677
-0.31335843	0.49794742	1.37314582
-0.31454989	0.49870199	1.37314558
-0.31710911	0.49828473	1.37314415
-0.31795684	0.49803150	1.37314367
-0.31841204	0.49861103	1.37314379
-0.31886244	0.49906230	1.37314379
-0.32066122	0.49907875	1.37314296
-0.32131761	0.49895400	1.37314260
-0.32268578	0.50023639	1.37314248
-0.32295430	0.50086379	1.37314272
-0.32420951	0.50157541	1.37314248
-0.32659048	0.50270909	1.37314188
-0.32718045	0.50287455	1.37314165
-0.32800198	0.50285429	1.37314129
-0.32859203	0.50302005	1.37314105
-0.32904452	0.50384706	1.37314129
-0.33013260	0.50407863	1.37314081
-0.33076018	0.50443447	1.37314069
-0.33198720	0.50500351	1.37314045
-0.33315051	0.50561547	1.37314022
-0.33418423	0.50593746	1.37313986
-0.33568770	0.50618255	1.37313926
-0.33730200	0.50662267	1.37313867
-0.33881494	0.50691545	1.37313819
-0.34143323	0.50653595	1.37313676
-0.34361935	0.50642335	1.37313581
-0.34434894	0.50630331	1.37313533
-0.34502885	0.50619310	1.37313497
-0.34562826	0.50640631	1.37313485
-0.34765798	0.50686002	1.37313414
-0.34887564	0.50738156	1.37313378
-0.35601369	0.50553989	1.37312973
-0.35844159	0.50691104	1.37312925
-0.36472926	0.50557017	1.37312579
-0.36707109	0.50551456	1.37312460
-0.36733961	0.50614202	1.37312484
-0.36898068	0.50572580	1.37312388
-0.36973935	0.50737059	1.37312424
-0.37149113	0.50714934	1.37312341
-0.37440479	0.50654101	1.37312174
-0.37617275	0.50666231	1.37312102
-0.37811995	0.50706381	1.37312031
-0.37909716	0.50710034	1.37311983
-0.37994900	0.50759858	1.37311971
-0.38149750	0.50770581	1.37311900
-0.38181311	0.50857103	1.37311924
-0.38371328	0.50873482	1.37311852
-0.38723567	0.50838721	1.37311673
-0.39046282	0.50826842	1.37311518
-0.39254743	0.50779974	1.37311399
-0.39428255	0.50785905	1.37311327
-0.39525250	0.50822377	1.37311304
-0.39610696	0.50847447	1.37311268
-0.39730638	0.50827765	1.37311208
-0.39790049	0.50898588	1.37311208
-0.39953363	0.50952101	1.37311161
-0.40044454	0.51005697	1.37311149
-0.40273932	0.50976354	1.37311029
-0.40344214	0.51049984	1.37311029
-0.40432745	0.51043671	1.37310982
-0.40557331	0.51110089	1.37310958
-0.40834004	0.51110643	1.37310827
-0.40892732	0.51151949	1.37310827
-0.41066033	0.51120311	1.37310731
-0.41167673	0.51242894	1.37310743
-0.41472256	0.51186311	1.37310576
-0.41543272	0.51227117	1.37310565
-0.41717249	0.51224989	1.37310481
-0.41852027	0.51243812	1.37310421
-0.42026478	0.51254505	1.37310350
-0.42132401	0.51325703	1.37310338
-0.42267179	0.51344532	1.37310278
-0.42366785	0.51357710	1.37310243
-0.44078022	0.51014805	1.37309313
-0.44219315	0.51108348	1.37309289
-0.44491228	0.51679718	1.37309420
-0.44601122	0.51807517	1.37309420
-0.44735989	0.51988560	1.37309444
-0.57856089	0.49635208	1.37302411
-0.58107138	0.49777547	1.37302351
-0.58168018	0.49803627	1.37302339
-0.58317876	0.50123066	1.37302411
-0.58481330	0.50276458	1.37302411
-0.58848411	0.50280219	1.37302244
-0.59005135	0.50300455	1.37302184
-0.59244084	0.50256342	1.37302053
-0.59305841	0.50349480	1.37302065
-0.59457344	0.50416338	1.37302029
-0.60217953	0.50943720	1.37301910
-0.60463357	0.51057523	1.37301850
-0.60627896	0.51315570	1.37301898
-0.62055385	0.51071894	1.37301135
-0.62167960	0.51114058	1.37301099
-0.62295216	0.51094854	1.37301040
-0.67035395	0.50632823	1.37298667
-0.72701359	0.49675807	1.37295651
-0.72964281	0.49742490	1.37295568
-0.73012346	0.49839458	1.37295580
-0.73100877	0.49833149	1.37295544
-0.73263246	0.49881908	1.37295485
-0.73579466	0.50531226	1.37295640
-0.74105215	0.50502402	1.37295377
-0.74142146	0.50642204	1.37295425
-0.74181020	0.50729185	1.37295449
-0.74267817	0.50813270	1.37295449
-0.74350917	0.50815994	1.37295413
-0.74495119	0.51106894	1.37295473
-0.74670458	0.51184666	1.37295425
-0.74799591	0.51174951	1.37295365
-0.74865323	0.51324701	1.37295401
-0.74902326	0.51402181	1.37295425
-0.75229734	0.51414078	1.37295282
-0.75378412	0.51466656	1.37295234
-0.75441903	0.51469427	1.37295210
-0.75517833	0.51571584	1.37295210
-0.75594497	0.51640916	1.37295210
-0.75700480	0.51649803	1.37295163
-0.75783718	0.51752424	1.37295175
-0.76039064	0.51843405	1.37295103
-0.76120275	0.51836622	1.37295055
-0.76140749	0.51903653	1.37295079
-0.76164728	0.52014458	1.37295115
-0.76239645	0.52174169	1.37295151
-0.76324838	0.52223992	1.37295139
-0.76427943	0.52280939	1.37295115
-0.76795220	0.52322251	1.37294972
-0.76895720	0.52402508	1.37294960
-0.76962298	0.52394795	1.37294924
-0.77119178	0.52514917	1.37294912
-0.77185702	0.52569520	1.37294900
-0.77335256	0.52689171	1.37294888
-0.77542734	0.52720743	1.37294805
-0.77620333	0.52794838	1.37294805
-0.77648121	0.52862346	1.37294817
-0.77744913	0.52861249	1.37294781
-0.77764457	0.52923536	1.37294793
-0.77900118	0.53009444	1.37294769
-0.78073567	0.53077692	1.37294722
-0.78236139	0.53164023	1.37294686
-0.78357029	0.53149098	1.37294626
-0.78433418	0.53243184	1.37294638
-0.78549755	0.53304374	1.37294602
-0.78598815	0.53343779	1.37294602
-0.78691781	0.53385991	1.37294579
-0.78775823	0.53393477	1.37294543
-0.78798175	0.53470021	1.37294567
-0.78892291	0.53554565	1.37294567
-0.78957874	0.53604406	1.37294555
-0.79047281	0.53665173	1.37294543
-0.79130524	0.53767788	1.37294555
-0.79316938	0.53865039	1.37294507
-0.79429501	0.53907216	1.37294471
-0.79488492	0.53923774	1.37294459
-0.79624164	0.54009682	1.37294436
-0.79708141	0.54079485	1.37294424
-0.79761231	0.54113162	1.37294412
-0.79864138	0.54132539	1.37294376
-0.79895627	0.54281378	1.37294436
-0.80111891	0.54268670	1.37294328
-0.80177146	0.54405600	1.37294352
-0.80308163	0.54405403	1.37294292
-0.80342352	0.54468626	1.37294304
-0.80430084	0.54557449	1.37294304
-0.80579633	0.54677099	1.37294292
-0.80760467	0.54683501	1.37294209
-0.80814910	0.54776180	1.37294233
-0.80988348	0.54844427	1.37294185
-0.81208050	0.54937816	1.37294126
-0.81292033	0.55007631	1.37294114
-0.81370568	0.55086464	1.37294114
-0.81773853	0.55262840	1.37294006
-0.81867963	0.55347383	1.37294006
-0.82136375	0.55342704	1.37293887
-0.82210356	0.55497664	1.37293923
-0.82283270	0.55547988	1.37293911
-0.82600689	0.55645043	1.37293804
-0.82764000	0.55698562	1.37293756
-0.82902324	0.55698836	1.37293696
-0.83127457	0.55783182	1.37293625
-0.83402395	0.55874121	1.37293541
-0.83542609	0.55883908	1.37293482
-0.83914405	0.55911434	1.37293327
-0.84087843	0.55979687	1.37293279
-0.84134042	0.56067151	1.37293291
-0.84168208	0.56130368	1.37293303
-0.84269696	0.56153041	1.37293267
-0.84482813	0.56213158	1.37293196
-0.84747612	0.56289351	1.37293112
-0.84998512	0.56331807	1.37293017
-0.85563934	0.56294835	1.37292743
-0.85672742	0.56318003	1.37292707
-0.85739249	0.56372595	1.37292695
-0.85828727	0.56371033	1.37292659
-0.86110979	0.56462443	1.37292564
-0.86266029	0.56510741	1.37292516
-0.86358267	0.56585765	1.37292516
-0.86451501	0.56603235	1.37292480
-0.86610109	0.56632972	1.37292421
-0.86687571	0.56628066	1.37292385
-0.86742073	0.56658417	1.37292373
-0.86758727	0.56747878	1.37292397
-0.86852437	0.56778157	1.37292373
-0.86961448	0.56838882	1.37292349
-0.87022328	0.56864959	1.37292337
-0.87097847	0.56891972	1.37292314
-0.87120199	0.56968516	1.37292337
-0.87285393	0.57031536	1.37292290
-0.87351710	0.57048571	1.37292266
-0.87439913	0.57129329	1.37292266
-0.87548250	0.57160544	1.37292230
-0.87576509	0.57219994	1.37292242
-0.87692839	0.57281184	1.37292218
-0.87815547	0.57338083	1.37292182
-0.87890327	0.57397926	1.37292171
-0.87957788	0.57457274	1.37292171
-0.88040173	0.57717347	1.37292254
-0.88295782	0.57783568	1.37292159
-0.88330889	0.57851541	1.37292182
-0.88580060	0.57984382	1.37292123
-0.88702834	0.57978964	1.37292063
-0.88781428	0.57995492	1.37292039
-0.88815534	0.58121026	1.37292075
-0.88908780	0.58138496	1.37292039
-0.88928318	0.58200777	1.37292063
-0.88954228	0.58258766	1.37292075
-0.89017928	0.58299106	1.37292063
-0.89141721	0.58460653	1.37292075
-0.89258718	0.58551347	1.37292063
-0.89359486	0.58606857	1.37292051
-0.89440787	0.58762288	1.37292075
-0.89603305	0.58910936	1.37292075
-0.89687324	0.58918417	1.37292039
-0.89728022	0.59077239	1.37292087
-0.89828575	0.59095168	1.37292051
-0.90013099	0.59182900	1.37292004
-0.90097135	0.59190392	1.37291968
-0.90434831	0.59316915	1.37291873
-0.90525246	0.59320116	1.37291837
-0.90684944	0.59454507	1.37291825
-0.90969217	0.59655309	1.37291777
-0.91182333	0.59715408	1.37291706
-0.91321611	0.59720445	1.37291646
-0.91445255	0.59782094	1.37291622
-0.91532052	0.59866166	1.37291622
-0.91876251	0.59863764	1.37291455
-0.91932577	0.59965956	1.37291479
-0.92070901	0.59966236	1.37291420
-0.92100525	0.60105562	1.37291467
-0.92388415	0.60225511	1.37291384
-0.92582470	0.60236144	1.37291300
-0.92591548	0.60370767	1.37291360
-0.92730957	0.60475683	1.37291348
-0.92817765	0.60559750	1.37291336
-0.92952746	0.60616148	1.37291300
-0.93038607	0.60695463	1.37291300
-0.93055069	0.60768235	1.37291324
-0.93129838	0.60828054	1.37291324
-0.93254691	0.60869718	1.37291276
-0.93318188	0.60872495	1.37291253
-0.93371695	0.60960424	1.37291265
-0.93420762	0.60999823	1.37291265
-0.93548173	0.61080515	1.37291241
-0.93608981	0.61168891	1.37291253
-0.93718058	0.61167300	1.37291205
-0.93823242	0.61271322	1.37291205
-0.93891442	0.61297870	1.37291181
-0.93920195	0.61370134	1.37291205
-0.94036508	0.61431324	1.37291169
-0.94098336	0.61462152	1.37291157
-0.94248831	0.61586565	1.37291145
-0.94335628	0.61670625	1.37291145
-0.94505310	0.61719847	1.37291086
-0.94623661	0.61890447	1.37291110
-0.94731534	0.61908859	1.37291074
-0.94864589	0.62018061	1.37291062
-0.94927824	0.62066472	1.37291050
-0.94958848	0.62202489	1.37291098
-0.95035493	0.62271821	1.37291098
-0.95103705	0.62298369	1.37291074
-0.95155591	0.62352037	1.37291074
-0.95233464	0.62401384	1.37291062
-0.95268291	0.62494093	1.37291086
-0.95341933	0.62511599	1.37291062
-0.95356190	0.62682819	1.37291133
-0.95585966	0.62853259	1.37291098
-0.95705998	0.62995780	1.37291110
-0.95833546	0.63176358	1.37291133
-0.95902818	0.63307542	1.37291157
-0.96028507	0.63478607	1.37291181
-0.96111596	0.63481331	1.37291145
-0.96237117	0.63552511	1.37291121
-0.96265858	0.63624763	1.37291133
-0.96270502	0.63710856	1.37291169
-0.96360117	0.63809192	1.37291181
-0.96395224	0.63877159	1.37291193
-0.96556962	0.64120942	1.37291229
-0.98711318	0.64108819	1.37290239
-0.98781538	0.64244765	1.37290263
-0.99339730	0.64369541	1.37290072
-0.99409962	0.64505482	1.37290096
-0.99574208	0.64563757	1.37290049
-0.99762535	0.64608186	1.37289977
-0.99854785	0.64683217	1.37289977
-0.99922234	0.64742577	1.37289965
-1.00035739	0.64789504	1.37289941
-1.00131750	0.64883548	1.37289941
-1.00228679	0.64982361	1.37289941
-1.00290513	0.65013188	1.37289917
-1.00448382	0.65075743	1.37289882
-1.00518596	0.65211684	1.37289906
-1.00621033	0.65239125	1.37289870
-1.00732660	0.65276545	1.37289834
-1.00918126	0.65369040	1.37289798
-1.01236486	0.65470845	1.37289691
-1.01258790	0.65609705	1.37289751
-1.01513588	0.65771073	1.37289703
-1.01648319	0.65852213	1.37289679
-1.01886404	0.65965551	1.37289619
-1.02050662	0.66023833	1.37289572
-1.02273965	0.66036350	1.37289476
-1.02287805	0.66132420	1.37289512
-1.02477968	0.66248685	1.37289476
-1.02633965	0.66301733	1.37289429
-1.02652502	0.66421574	1.37289476
-1.02927494	0.66450197	1.37289357
-1.02973688	0.66537654	1.37289381
-1.03149021	0.66615409	1.37289333
-1.03288305	0.66620439	1.37289274
-1.03294814	0.66716045	1.37289310
-1.03621435	0.66823077	1.37289214
-1.04312325	0.66919607	1.37288940
-1.04476571	0.66977876	1.37288892
-1.04805064	0.67094421	1.37288797
-1.04917645	0.67136604	1.37288761
-1.05055976	0.67136878	1.37288702
-1.05682075	0.67088407	1.37288392
-1.06034303	0.67053664	1.37288213
-1.06677914	0.66958082	1.37287879
-1.07218158	0.66830301	1.37287569
-1.07439435	0.66733432	1.37287426
-1.08161879	0.66384214	1.37286949
