//X	Y	Z
-1.00844586	2.92382455	6.40511894
-1.05030847	2.86097956	6.40511227
-1.04966617	2.81521440	6.40510941
-1.03416610	2.80032730	6.40510941
-1.03035188	2.76425004	6.40510798
-0.92412537	2.66150069	6.40510941
-0.92011607	2.62172651	6.40510750
-0.92251903	2.60767055	6.40510654
-0.93303776	2.49651790	6.40509892
-0.94057792	2.49240947	6.40509844
-1.14858198	2.48432302	6.40508223
-1.14496934	2.53258467	6.40508556
-1.21541166	2.45082855	6.40507555
-1.23638105	2.42169118	6.40507221
-1.24810421	2.40400696	6.40507030
-1.26710618	2.35848832	6.40506601
-1.28662300	2.28222179	6.40506029
-1.28732193	2.27225566	6.40505934
-1.28594184	2.23539138	6.40505743
-1.28586614	2.23000741	6.40505695
-1.28478682	2.21712017	6.40505648
-1.28482914	2.21249008	6.40505600
-1.28475511	2.20466471	6.40505552
-1.28275204	2.18233681	6.40505457
-1.28255808	2.17701292	6.40505409
-1.28326011	2.16216540	6.40505314
-1.27190256	2.13507819	6.40505266
-1.27090120	2.12350726	6.40505171
-1.26379144	2.10531425	6.40505123
-1.25768602	2.09381008	6.40505123
-1.27754247	1.92304695	6.40503931
-1.28094769	1.91893482	6.40503883
-1.29855108	1.89416111	6.40503597
-1.30195594	1.89086270	6.40503550
-1.30698383	1.88622510	6.40503502
-1.32628310	1.87037933	6.40503263
-1.33471727	1.86000228	6.40503168
-1.35649967	1.82816195	6.40502787
-1.36551809	1.80218399	6.40502548
-1.37256980	1.75901055	6.40502262
-1.37412190	1.74496555	6.40502167
-1.37056708	1.73586905	6.40502119
-1.33937573	1.69588828	6.40502119
-1.29612219	1.64773607	6.40502167
-1.28838956	1.64407921	6.40502214
-1.20796585	1.62258291	6.40502691
-1.17811549	1.61921585	6.40502882
-1.16369426	1.61802864	6.40502977
-1.13886774	1.61653268	6.40503168
-1.13542557	1.61632597	6.40503168
-1.11582065	1.61633039	6.40503311
-1.10654163	1.61695540	6.40503407
-1.09370136	1.61906087	6.40503502
-1.09122801	1.61959672	6.40503550
-1.06732917	1.62103260	6.40503740
-1.05545807	1.62306666	6.40503836
-1.05294466	1.62416506	6.40503836
-1.04439712	1.62646556	6.40503931
-1.03581095	1.62688816	6.40503979
-1.02827084	1.63099647	6.40504074
-1.02575815	1.63128114	6.40504074
-1.02065349	1.63216150	6.40504122
-1.01887250	1.63330829	6.40504169
-1.01461852	1.63417768	6.40504169
-1.00015545	1.63680756	6.40504313
-0.99516726	1.64088249	6.40504360
-0.99435484	1.64277196	6.40504408
-0.99091125	1.64500630	6.40504408
-0.98580563	1.64751363	6.40504503
-0.97741628	1.64919245	6.40504551
-0.97563517	1.65033937	6.40504599
-0.96379817	1.66076088	6.40504742
-0.96221483	1.66153693	6.40504742
-0.96047211	1.66456246	6.40504789
-0.95795727	1.66810131	6.40504789
-0.94952649	1.67278290	6.40504885
-0.93757510	1.67675555	6.40505028
-0.93595082	1.67972112	6.40505028
-0.93007112	1.68599653	6.40505123
-0.91993803	1.69232774	6.40505219
-0.91738439	1.69480181	6.40505266
-0.90813971	1.70381463	6.40505409
-0.90562445	1.70816684	6.40505457
-0.90314901	1.71195722	6.40505505
-0.90144670	1.71360683	6.40505505
-0.90067351	1.71574759	6.40505505
-0.89730859	1.71848392	6.40505552
-0.89046025	1.72401679	6.40505648
-0.88972652	1.72640920	6.40505648
-0.87452710	1.73549926	6.40505838
-0.87108344	1.73773313	6.40505886
-0.86942041	1.73963416	6.40505886
-0.86179954	1.74649429	6.40505981
-0.85924590	1.74896848	6.40506029
-0.85669279	1.75062883	6.40506077
-0.85000074	1.75879455	6.40506172
-0.84829831	1.76044369	6.40506172
-0.84497327	1.76261806	6.40506220
-0.84334898	1.76558352	6.40506268
-0.83735335	1.76785088	6.40506315
-0.83576900	1.77025378	6.40506315
-0.82122707	1.77238166	6.40506458
-0.81948590	1.77296591	6.40506458
-0.81697118	1.77650487	6.40506506
-0.81194520	1.77788794	6.40506554
-0.80869412	1.78788710	6.40506649
-0.80691266	1.78984749	6.40506649
-0.80529046	1.78955865	6.40506649
-0.80436051	1.78988087	6.40506697
-0.80277508	1.79391146	6.40506697
-0.79430503	1.79834211	6.40506792
-0.79349369	1.79860449	6.40506792
-0.79086256	1.79894865	6.40506840
-0.78664732	1.80088305	6.40506887
-0.78158104	1.80364180	6.40506935
-0.77643818	1.80264330	6.40506983
-0.76881719	1.80950379	6.40507078
-0.76630503	1.80897474	6.40507078
-0.76541454	1.80954826	6.40507078
-0.76127762	1.81279826	6.40507126
-0.75953633	1.81338310	6.40507174
-0.75787330	1.81528354	6.40507174
-0.74947929	1.82428491	6.40507317
-0.74445128	1.82892203	6.40507364
-0.74011922	1.82847488	6.40507364
-0.73338878	1.83476186	6.40507460
-0.71474940	1.84039092	6.40507650
-0.70790464	1.84022880	6.40507698
-0.70461732	1.84509456	6.40507746
-0.69858491	1.84304297	6.40507793
-0.69428909	1.84772885	6.40507841
-0.68837470	1.84643090	6.40507889
-0.67395085	1.84931195	6.40507984
-0.66374320	1.84863186	6.40508080
-0.65941113	1.84818494	6.40508127
-0.64498681	1.85187972	6.40508223
-0.63651884	1.85305595	6.40508318
-0.62449133	1.85245800	6.40508413
-0.61845887	1.85040629	6.40508413
-0.61339468	1.84991050	6.40508461
-0.59978479	1.84846091	6.40508556
-0.59800375	1.84960842	6.40508556
-0.59553087	1.84933043	6.40508604
-0.59371150	1.84859884	6.40508604
-0.56989503	1.84484208	6.40508747
-0.56467342	1.84334195	6.40508795
-0.56216073	1.84362650	6.40508795
-0.54928458	1.83978522	6.40508890
-0.53903812	1.83803988	6.40508938
-0.53312320	1.83755565	6.40508986
-0.51085120	1.83195782	6.40509129
-0.50315738	1.82936621	6.40509176
-0.49635342	1.82701457	6.40509176
-0.49113289	1.82388663	6.40509224
-0.48432949	1.82072103	6.40509224
-0.48165995	1.81918693	6.40509272
-0.47999790	1.81946051	6.40509272
-0.47566688	1.81738687	6.40509272
-0.46797299	1.81479430	6.40509319
-0.46623227	1.81456530	6.40509367
-0.34067053	1.72252953	6.40509748
-0.31898472	1.69807637	6.40509748
-0.30603659	1.68315578	6.40509748
-0.29907742	1.67654443	6.40509796
-0.29474947	1.66958880	6.40509748
-0.29046035	1.66369796	6.40509748
-0.28864262	1.66052556	6.40509748
-0.27561730	1.64266133	6.40509748
-0.27136651	1.63864934	6.40509748
-0.26533669	1.63252890	6.40509748
-0.26004007	1.62483096	6.40509748
-0.25660002	1.62136972	6.40509748
-0.25312075	1.61765742	6.40509748
-0.24890819	1.61552346	6.40509796
-0.24883002	1.61420715	6.40509796
-0.22741398	1.60046232	6.40509844
-0.22559507	1.59891760	6.40509844
-0.21786290	1.59444702	6.40509892
-0.21190915	1.59289730	6.40509939
-0.20340492	1.58894086	6.40509987
-0.20154676	1.58714449	6.40509987
-0.19822317	1.58687758	6.40509987
-0.19725500	1.58532178	6.40509987
-0.19300267	1.58374989	6.40510035
-0.17765360	1.57963109	6.40510082
-0.17251125	1.57781911	6.40510130
-0.14435911	1.57931137	6.40510368
-0.11640048	1.58694053	6.40510607
-0.10027372	1.59228504	6.40510750
-0.06306533	1.61706281	6.40511179
-0.05714529	1.62471461	6.40511274
-0.03640710	1.66268122	6.40511656
0.01561010	1.79434872	6.40512800
-0.03641313	1.86367464	6.40512848
-0.03908165	1.86683643	6.40512848
-0.04584727	1.86730933	6.40512800
-0.04754913	1.86647379	6.40512753
-0.05102947	1.86855876	6.40512753
-0.05791155	1.87222683	6.40512753
-0.06564222	1.87913811	6.40512705
-0.06649233	1.87994075	6.40512705
-0.07515140	1.88897049	6.40512705
-0.08968645	1.89741993	6.40512657
-0.09231615	1.89951646	6.40512657
-0.09490642	1.90136135	6.40512609
-0.10008864	1.90261066	6.40512609
-0.10438035	1.90443349	6.40512562
-0.10693195	1.90521383	6.40512562
-0.11288510	1.90757668	6.40512514
-0.11624807	1.90809464	6.40512514
-0.12146910	1.91040850	6.40512466
-0.12831235	1.91301155	6.40512466
-0.13090222	1.91567075	6.40512466
-0.13604248	1.92073679	6.40512419
-0.13774386	1.92071450	6.40512419
-0.15753730	1.93498409	6.40512371
-0.16186927	1.93543088	6.40512323
-0.16356917	1.93784940	6.40512323
-0.16534860	1.93914354	6.40512323
-0.16693148	1.93918061	6.40512323
-0.17300263	1.94229722	6.40512276
-0.18923970	1.94991112	6.40512228
-0.19608453	1.95007348	6.40512180
-0.20126359	1.95620418	6.40512180
-0.20215309	1.95725811	6.40512180
-0.20567168	1.96122169	6.40512180
-0.21417654	1.96436501	6.40512133
-0.21591668	1.96540737	6.40512085
-0.21931787	1.96780419	6.40512085
-0.22117554	1.97041392	6.40512085
-0.22368619	1.97338378	6.40512085
-0.22627755	1.97360158	6.40512085
-0.22979620	1.97756541	6.40512085
-0.23234726	1.97915888	6.40512085
-0.24015549	1.98820031	6.40512037
-0.24521869	1.99032307	6.40512037
-0.25221568	1.99962616	6.40512037
-0.25557652	2.00339842	6.40512037
-0.26261073	2.01620770	6.40512037
-0.26353902	2.01832581	6.40512085
-0.26786953	2.02121353	6.40512037
-0.29688507	2.09058928	6.40512228
-0.30735368	2.11580920	6.40512323
-0.30828303	2.11630034	6.40512323
-0.31094992	2.12190270	6.40512323
-0.31268913	2.12457252	6.40512323
-0.32138070	2.14443016	6.40512371
-0.32311934	2.14791369	6.40512371
-0.32675391	2.15588546	6.40512419
-0.33007586	2.15859270	6.40512419
-0.33355469	2.16311908	6.40512419
-0.33452284	2.16467500	6.40512419
-0.33703360	2.16764498	6.40512419
-0.34488118	2.17693758	6.40512419
-0.35013849	2.18438435	6.40512419
-0.35716906	2.20288873	6.40512466
-0.36142093	2.20527387	6.40512466
-0.37463820	2.23171663	6.40512514
-0.37637681	2.23520017	6.40512514
-0.37811542	2.23868370	6.40512514
-0.38236424	2.24595022	6.40512514
-0.38422087	2.25018740	6.40512562
-0.38932186	2.25500274	6.40512514
-0.39206639	2.26273394	6.40512562
-0.39905876	2.27935982	6.40512609
-0.40431345	2.29087543	6.40512657
-0.40779170	2.29621482	6.40512657
-0.41215900	2.30342197	6.40512657
-0.41300818	2.30585146	6.40512657
-0.41915131	2.32004762	6.40512705
-0.42548859	2.33956790	6.40512753
-0.42888767	2.34521866	6.40512753
-0.43418378	2.35373092	6.40512800
-0.43839529	2.35749173	6.40512753
-0.44287950	2.36707950	6.40512800
-0.44631898	2.37135434	6.40512800
-0.44975901	2.37481570	6.40512800
-0.45242545	2.38123131	6.40512800
-0.48183152	2.54840612	6.40513563
-0.48105744	2.55217409	6.40513611
-0.48016641	2.55356097	6.40513611
-0.47862080	2.55702901	6.40513659
-0.48032010	2.56026149	6.40513659
-0.47950828	2.56133723	6.40513659
-0.48398319	2.58557010	6.40513802
-0.47996110	2.59445596	6.40513849
-0.47821894	2.59666753	6.40513897
-0.47574300	2.60127163	6.40513945
-0.48014492	2.61605215	6.40513992
-0.47933149	2.61956906	6.40514040
-0.48492989	2.64961743	6.40514183
-0.49006769	2.65875149	6.40514183
-0.49462849	2.67209673	6.40514231
-0.49454880	2.67322135	6.40514231
-0.49725455	2.67988825	6.40514231
-0.49643907	2.68665910	6.40514278
-0.50362337	2.71186399	6.40514374
-0.50540137	2.71559882	6.40514421
-0.51761258	2.73779321	6.40514421
-0.52020091	2.74289250	6.40514469
-0.52120531	2.74958134	6.40514469
-0.52120483	2.75039530	6.40514469
-0.52900898	2.76594496	6.40514517
-0.53770328	2.78173470	6.40514565
-0.53870964	2.78516912	6.40514565
-0.54044831	2.78865266	6.40514565
-0.54566526	2.79747629	6.40514565
-0.56390691	2.82497668	6.40514612
-0.57952088	2.84712648	6.40514612
-0.58736849	2.85641909	6.40514612
-0.61593318	2.88942146	6.40514612
-0.64345729	2.91060233	6.40514517
-0.64948863	2.91428137	6.40514517
-0.68548179	2.93265867	6.40514326
-0.70701903	2.94227529	6.40514231
-0.74204761	2.95340133	6.40514040
-0.78554881	2.95602846	6.40513754
-0.90252113	2.96296358	6.40512896
-0.94997132	2.94725323	6.40512466
