//X	Y	Z
-1.36726296	1.53052652	2.21331263
-1.37428796	1.51072419	2.21321154
-1.37975025	1.49433279	2.21312857
-1.38694215	1.47150898	2.21301365
-1.38830209	1.46188021	2.21296787
-1.39006925	1.45006335	2.21291161
-1.39108622	1.44382858	2.21288180
-1.39101100	1.43681896	2.21285033
-1.39097321	1.43493938	2.21284199
-1.39078307	1.43366516	2.21283650
-1.39004660	1.43281567	2.21283388
-1.39070761	1.42828012	2.21281242
-1.39051783	1.42375588	2.21279240
-1.39051795	1.42294383	2.21278858
-1.38989627	1.41798449	2.21276736
-1.38951683	1.40893590	2.21272707
-1.38831043	1.40658462	2.21271849
-1.38773954	1.40601146	2.21271682
-1.38657165	1.40228963	2.21270204
-1.38592470	1.39958215	2.21269083
-1.38390589	1.39749694	2.21268487
-1.38344932	1.39443851	2.21267176
-1.38414848	1.38934517	2.21264768
-1.38101220	1.38792443	2.21264648
-1.38074613	1.38532782	2.21263504
-1.37819397	1.38373709	2.21263218
-1.37738156	1.38319063	2.21263099
-1.37505782	1.38231611	2.21263099
-1.37424517	1.38176978	2.21262980
-1.37401712	1.38024056	2.21262336
-1.37216353	1.37843096	2.21261835
-1.37201142	1.37659967	2.21261024
-1.37127495	1.37575030	2.21260762
-1.36853278	1.37288499	2.21259928
-1.36775827	1.37259340	2.21259928
-1.36335278	1.36919308	2.21259117
-1.35658550	1.36547577	2.21258569
-1.35403347	1.36388481	2.21258259
-1.34772277	1.36160111	2.21258283
-1.34622502	1.35971713	2.21257687
-1.34131098	1.35943377	2.21258378
-1.33338785	1.35937655	2.21259665
-1.32325530	1.35920918	2.21261263
-1.31896353	1.35901070	2.21261883
-1.31641138	1.35823178	2.21261954
-1.31204391	1.35508645	2.21261263
-1.30701578	1.35485184	2.21261978
-1.30523789	1.35598934	2.21262789
-1.30102205	1.35711312	2.21264005
-1.29521894	1.35902381	2.21265817
-1.29278076	1.36063480	2.21266961
-1.28818500	1.35677278	2.21265984
-1.28567064	1.35706162	2.21266532
-1.27801383	1.35960054	2.21268940
-1.27328968	1.36302948	2.21271276
-1.27039528	1.35995674	2.21270370
-1.26776719	1.35704362	2.21269488
-1.26343739	1.35577774	2.21269631
-1.25349557	1.35282254	2.21269941
-1.24340177	1.33995819	2.21265817
-1.23736989	1.34277737	2.21268082
-1.20942748	1.31712377	2.21261144
-1.15190303	1.33885086	2.21280479
-1.14312887	1.34042966	2.21282649
-1.11701703	1.30015016	2.21268797
-1.11280155	1.29964888	2.21269274
-1.10336804	1.29357600	2.21268106
-1.09423864	1.29197931	2.21268892
-1.09183860	1.29303265	2.21269774
-1.08731878	1.29049301	2.21269369
-1.08013248	1.28722203	2.21269083
-1.06241930	1.28685367	2.21271849
-1.05043197	1.29300129	2.21276617
-1.04219162	1.29002368	2.21276641
-1.02808654	1.27714109	2.21273160
-1.02449381	1.27266192	2.21271753
-1.02046847	1.27343559	2.21272755
-1.01621509	1.27105415	2.21272397
-1.01137698	1.27290583	2.21274018
-1.01048827	1.27266228	2.21274066
-1.00801229	1.27158117	2.21273994
-1.00074935	1.27186298	2.21275330
-0.99815923	1.27082944	2.21275282
-0.99304169	1.27164078	2.21276498
-0.98729122	1.26250064	2.21273327
-0.98517090	1.26215756	2.21273518
-0.98222506	1.26119852	2.21273589
-0.97929209	1.26112103	2.21274042
-0.97573733	1.25689673	2.21272707
-0.97008663	1.25820267	2.21274233
-0.96908391	1.25638175	2.21273589
-0.96804285	1.25511885	2.21273184
-0.96301484	1.25325894	2.21273184
-0.96142775	1.25323343	2.21273446
-0.96091980	1.25228858	2.21273088
-0.95431781	1.24803495	2.21272278
-0.94940424	1.24531436	2.21271849
-0.94197613	1.24450779	2.21272731
-0.94055480	1.24069619	2.21271229
-0.93672007	1.23949409	2.21271324
-0.93567914	1.23823106	2.21270943
-0.93413001	1.23764789	2.21270919
-0.93208635	1.23456407	2.21269870
-0.92760491	1.22902930	2.21268129
-0.92501491	1.22718310	2.21267724
-0.91599989	1.22310162	2.21267366
-0.91495901	1.22183859	2.21266985
-0.91344798	1.22151017	2.21267080
-0.91178465	1.22097492	2.21267104
-0.91074371	1.21971202	2.21266723
-0.90756929	1.21884894	2.21266842
-0.90656626	1.21865344	2.21266937
-0.90416646	1.21808147	2.21267080
-0.90254128	1.21698916	2.21266842
-0.89945626	1.21507955	2.21266484
-0.89898640	1.21439016	2.21266270
-0.89590108	1.21410525	2.21266651
-0.89458096	1.21017706	2.21265101
-0.89353991	1.20972610	2.21265054
-0.89234674	1.20744359	2.21264219
-0.89017546	1.20677638	2.21264291
-0.88851207	1.20624161	2.21264315
-0.88681084	1.20463896	2.21263885
-0.88576978	1.20418859	2.21263862
-0.88359845	1.20352101	2.21263909
-0.88290060	1.19967723	2.21262288
-0.87896466	1.19859147	2.21262455
-0.87792361	1.19814110	2.21262431
-0.87560016	1.19645429	2.21262050
-0.87455904	1.19600320	2.21262026
-0.86941701	1.19256675	2.21261311
-0.86671305	1.18833125	2.21259856
-0.86563444	1.18356347	2.21257877
-0.86555362	1.01239181	2.21180677
-0.87154722	1.01013052	2.21178651
-0.87286842	1.00593460	2.21176553
-0.88164252	1.00435579	2.21174383
-0.88521206	0.99564934	2.21169853
-0.88899571	0.99571550	2.21169257
-0.89232302	0.99191070	2.21166992
-0.89298356	0.99062514	2.21166301
-0.89394855	0.99056578	2.21166110
-0.90105915	0.99007714	2.21164727
-0.91537040	0.98236585	2.21158862
-0.91896409	0.98034519	2.21157360
-0.92716753	0.97494400	2.21153569
-0.93168807	0.97260910	2.21151757
-0.93408835	0.96993053	2.21150160
-0.94166976	0.96281993	2.21145701
-0.94573355	0.95905137	2.21143317
-0.94917518	0.95519906	2.21141005
-0.95091516	0.95218140	2.21139359
-0.96603966	0.94014150	2.21131420
-0.96948117	0.93628925	2.21129107
-0.97037017	0.93490756	2.21128345
-0.97180569	0.93066359	2.21126199
-0.97335517	0.92799693	2.21124721
-0.97753334	0.92418087	2.21122313
-0.97753346	0.92255557	2.21121573
-0.97738129	0.92153621	2.21121144
-0.97776246	0.91839755	2.21119666
-0.97757232	0.91712326	2.21119118
-0.97808069	0.91481823	2.21117997
-0.97796673	0.91242892	2.21116948
-0.98194134	0.90889424	2.21114683
-0.98264015	0.90623879	2.21113372
-0.98441821	0.90266341	2.21111465
-0.98407626	0.89711970	2.21109033
-0.98852086	0.89346296	2.21106625
-0.98933393	0.88994688	2.21104908
-0.99192494	0.88529330	2.21102381
-0.98978007	0.88151389	2.21101046
-0.99054170	0.88092387	2.21100640
-0.99088454	0.87996769	2.21100163
-0.99088466	0.87915510	2.21099782
-0.99163425	0.87844819	2.21099353
-0.99284083	0.87755024	2.21098733
-0.99262464	0.87613744	2.21098137
-0.99432647	0.87286490	2.21096373
-0.99426359	0.87161207	2.21095824
-0.99401015	0.87070972	2.21095467
-0.99519068	0.86967319	2.21094799
-0.99557173	0.86815929	2.21094060
-0.99751496	0.86648494	2.21092963
-0.99771845	0.86539096	2.21092439
-0.99754018	0.86423355	2.21091962
-0.99715960	0.86330962	2.21091604
-0.99835318	0.86234212	2.21090961
-1.00013101	0.86120456	2.21090150
-0.99995393	0.85837454	2.21088910
-1.00116038	0.85747612	2.21088314
-1.00090611	0.85662103	2.21087956
-1.00071585	0.85534668	2.21087408
-1.00057697	0.85358423	2.21086645
-1.00156724	0.85127342	2.21085429
-1.00092030	0.84856546	2.21084332
-1.00205088	0.84634519	2.21083140
-1.00184798	0.84256399	2.21081471
-1.00134003	0.84161913	2.21081114
-1.00108671	0.84071672	2.21080756
-1.00177217	0.83961701	2.21080136
-1.00315630	0.83829916	2.21079326
-1.00222969	0.83617544	2.21078515
-1.00219190	0.83348334	2.21077299
-1.00165904	0.83235258	2.21076894
-1.00112593	0.83122236	2.21076465
-1.00212944	0.82898057	2.21075296
-1.00197721	0.82796109	2.21074843
-1.00254846	0.82690889	2.21074295
-1.00235832	0.82563454	2.21073747
-1.00197768	0.82389855	2.21073031
-1.00301921	0.82191169	2.21071959
-1.00254941	0.82040900	2.21071362
-1.00305748	0.81972921	2.21070957
-1.00251186	0.81690478	2.21069789
-1.00191581	0.81452066	2.21068811
-1.00201726	0.81359154	2.21068358
-1.00182700	0.81231719	2.21067834
-1.00175107	0.81099492	2.21067238
-1.00205588	0.80978382	2.21066642
-1.00224638	0.80862081	2.21066093
-1.00224662	0.80699563	2.21065354
-1.00205636	0.80572128	2.21064806
-1.00177741	0.80224359	2.21063280
-1.00185370	0.80112803	2.21062779
-1.00017869	0.79722655	2.21061277
-1.00100350	0.79626471	2.21060705
-1.00014102	0.79453444	2.21060085
-1.00062311	0.79371613	2.21059632
-1.00047100	0.79269665	2.21059203
-1.00085187	0.79199535	2.21058822
-1.00000143	0.78956932	2.21057868
-0.99996358	0.78768921	2.21057010
-0.99988776	0.78555477	2.21056080
-0.99765372	0.78119665	2.21054482
-0.99753958	0.78043211	2.21054149
-0.99888545	0.77967197	2.21053576
-0.99888593	0.77642202	2.21052122
-0.99780697	0.77409148	2.21051240
-0.99807376	0.77262568	2.21050549
-0.99681854	0.76985455	2.21049500
-0.99638683	0.76860726	2.21048999
-0.99717450	0.76815522	2.21048665
-0.99704736	0.76732171	2.21048307
-0.99661565	0.76607388	2.21047831
-0.99634928	0.76510245	2.21047425
-0.99598157	0.76424754	2.21047115
-0.99619710	0.76327044	2.21046638
-0.99594373	0.76236796	2.21046257
-0.99599403	0.76111448	2.21045685
-0.99623561	0.76027536	2.21045280
-0.99534810	0.75835919	2.21044564
-0.99546242	0.75749904	2.21044135
-0.99530935	0.75571489	2.21043372
-0.99509412	0.75425470	2.21042752
-0.99486583	0.75272554	2.21042085
-0.99467564	0.75145125	2.21041560
-0.99428195	0.75045824	2.21041155
-0.99378633	0.74800563	2.21040154
-0.99386358	0.74684221	2.21039605
-0.99348319	0.74429357	2.21038508
-0.99371183	0.74338543	2.21038079
-0.99293745	0.74146914	2.21037340
-0.99344367	0.74088460	2.21036983
-0.99293679	0.73907971	2.21036267
-0.99239099	0.73706740	2.21035433
-0.99308968	0.73522407	2.21034479
-0.99306369	0.73427337	2.21034074
-0.99376249	0.73161799	2.21032763
-0.99364853	0.73004079	2.21032071
-0.99576902	0.72875911	2.21031141
-0.99457604	0.72566462	2.21029925
-0.99466544	0.72380596	2.21029067
-0.99566865	0.72237629	2.21028256
-0.99566877	0.72156423	2.21027899
-0.99720508	0.72045320	2.21027136
-0.99731940	0.71959257	2.21026731
-0.99716723	0.71857309	2.21026301
-0.99697709	0.71729875	2.21025753
-0.99752331	0.71606123	2.21025109
-0.99886918	0.71530056	2.21024537
-0.99880630	0.71323514	2.21023631
-0.99869227	0.71165800	2.21022940
-0.99979675	0.71011174	2.21022058
-0.99977201	0.70748860	2.21020865
-0.99958193	0.70540166	2.21019959
-1.00041986	0.70450926	2.21019411
-1.00227416	0.70063102	2.21017361
-1.00393832	0.69547898	2.21014762
-1.00374794	0.69420463	2.21014214
-1.00378633	0.69283426	2.21013594
-1.00321555	0.68982399	2.21012330
-1.00467563	0.68901587	2.21011734
-1.00414276	0.68707246	2.21010947
-1.00545049	0.68605751	2.21010256
-1.00503194	0.68406618	2.21009421
-1.00576890	0.68085295	2.21007872
-1.00618792	0.67959392	2.21007228
-1.00684845	0.67830831	2.21006536
-1.00792801	0.67657673	2.21005583
-1.00750923	0.67458534	2.21004748
-1.00731909	0.67331105	2.21004200
-1.00813186	0.67223281	2.21003580
-1.00782788	0.66856873	2.21001983
-1.01021481	0.66663373	2.21000719
-1.01002467	0.66535944	2.21000171
-1.01076186	0.66052163	2.20997858
-1.01450789	0.65789509	2.20996046
-1.01594365	0.65202641	2.20993161
-1.01683259	0.65064478	2.20992398
-1.01668048	0.64962530	2.20991969
-1.01857257	0.64762712	2.20990753
-1.01927114	0.64659637	2.20990157
-1.02108717	0.64408851	2.20988727
-1.01966596	0.63946474	2.20986891
-1.02055478	0.63889569	2.20986485
-1.02333570	0.63714111	2.20985222
-1.02581227	0.63416022	2.20983481
-1.02651095	0.63150418	2.20982170
-1.03099370	0.62810230	2.20979881
-1.03354609	0.62644380	2.20978713
-1.03454912	0.62582672	2.20978260
-1.03621292	0.62392449	2.20977139
-1.04120386	0.61821711	2.20973730
-1.04182613	0.61748928	2.20973301
-1.04286742	0.61631501	2.20972586
-1.04715955	0.61326349	2.20970511
-1.04670298	0.61020511	2.20969200
-1.04651284	0.60893089	2.20968652
-1.04817641	0.60784078	2.20967889
-1.05466509	0.60564256	2.20965815
-1.05729342	0.60449380	2.20964861
-1.06139529	0.60179269	2.20962977
-1.06653833	0.59791785	2.20960379
-1.06634820	0.59664351	2.20959830
-1.07071638	0.59410167	2.20957947
-1.07052624	0.59282744	2.20957422
-1.07404351	0.59110904	2.20956063
-1.07721853	0.58709735	2.20953727
-1.07869160	0.58635825	2.20953131
-1.08027923	0.58475840	2.20952153
-1.08143449	0.58434880	2.20951772
-1.08599317	0.58226866	2.20950079
-1.08839333	0.58040333	2.20948839
-1.08820307	0.57912898	2.20948291
-1.09257138	0.57658720	2.20946431
-1.09601271	0.57435966	2.20944858
-1.09589863	0.57278240	2.20944166
-1.10026681	0.57105327	2.20942664
-1.10139775	0.56720775	2.20940733
-1.10962582	0.56442922	2.20938110
-1.11709261	0.56061614	2.20935154
-1.11720705	0.55894333	2.20934391
-1.12049615	0.55650830	2.20932746
-1.12567675	0.55532569	2.20931363
-1.12900400	0.55314565	2.20929813
-1.13414669	0.55170804	2.20928311
-1.13758779	0.55029261	2.20927095
-1.13735962	0.54876339	2.20926452
-1.15031147	0.54580641	2.20922971
-1.15000749	0.54051757	2.20920634
-1.16207051	0.53812915	2.20917559
-1.16547370	0.53645879	2.20916247
-1.17216587	0.53235447	2.20913291
-1.18203259	0.52748740	2.20909452
-1.18400097	0.52599895	2.20908451
-1.18558860	0.52277446	2.20906734
-1.18965209	0.52144372	2.20905471
-1.19061708	0.52057230	2.20904899
-1.19169641	0.51965290	2.20904303
-1.19336009	0.51856291	2.20903540
-1.19421101	0.51692629	2.20902658
-1.19564605	0.51593232	2.20901990
-1.19838893	0.51473546	2.20900989
-1.20311296	0.51211911	2.20899034
-1.21092200	0.51059973	2.20897031
-1.22132182	0.50686342	2.20893621
-1.22557545	0.50599504	2.20892525
-1.23052812	0.50328255	2.20890498
-1.23381698	0.50084817	2.20888853
-1.23799503	0.49784470	2.20886803
-1.23903620	0.49748245	2.20886469
-1.24217284	0.49646589	2.20885491
-1.24854672	0.49594039	2.20884180
-1.25419796	0.49138528	2.20881200
-1.26888907	0.49028528	2.20878267
-1.27136540	0.48892906	2.20877242
-1.27902222	0.48801488	2.20875573
-1.28212082	0.48511818	2.20873737
-1.28629863	0.48292741	2.20872068
-1.29170775	0.48164862	2.20870590
-1.29607606	0.47991946	2.20869088
-1.30032980	0.47905043	2.20867991
-1.30350447	0.47828871	2.20867109
-1.30454564	0.47792646	2.20866776
-1.30599380	0.47618946	2.20865750
-1.31201220	0.47573858	2.20864558
-1.31766272	0.47443274	2.20863032
-1.32407510	0.47335014	2.20861483
-1.32917953	0.47246975	2.20860243
-1.33169401	0.47055635	2.20858955
-1.33853841	0.46747100	2.20856428
-1.33893275	0.46358871	2.20854616
-1.34484982	0.46325487	2.20853472
-1.35458887	0.46242940	2.20851493
-1.36233485	0.46128187	2.20849681
-1.36299527	0.46080840	2.20849371
-1.36577606	0.46067902	2.20848846
-1.36728728	0.45938215	2.20848012
-1.36783350	0.45814452	2.20847368
-1.37072861	0.45634192	2.20846081
-1.38112783	0.45666814	2.20844483
-1.38564837	0.45514587	2.20843053
-1.38943267	0.45115003	2.20840621
-1.39245474	0.45099357	2.20840049
-1.39604819	0.45059755	2.20839286
-1.39926112	0.44765338	2.20837426
-1.40177572	0.44411463	2.20835400
-1.40336323	0.44170284	2.20834064
-1.40788376	0.44018048	2.20832610
-1.40839183	0.43950018	2.20832229
-1.41225183	0.43845081	2.20831108
-1.42501295	0.43828154	2.20828915
-1.42752719	0.43799281	2.20828366
-1.43085408	0.43662590	2.20827198
-1.43313992	0.43643272	2.20826745
-1.43603492	0.43544275	2.20825815
-1.43646693	0.43425310	2.20825219
-1.44117761	0.43319249	2.20823956
-1.44280326	0.43184763	2.20823073
-1.44319713	0.43040323	2.20822358
-1.44756520	0.42948616	2.20821214
-1.44879675	0.42958611	2.20821047
-1.45026982	0.42884701	2.20820475
-1.45223808	0.42735863	2.20819473
-1.45433331	0.42670369	2.20818830
-1.45595884	0.42617136	2.20818329
-1.45711446	0.42413700	2.20817232
-1.45851147	0.42370021	2.20816803
-1.45966709	0.42085320	2.20815325
-1.46492386	0.42017967	2.20814133
-1.46662581	0.41771978	2.20812750
-1.46917796	0.41768599	2.20812321
-1.46987653	0.41665518	2.20811725
-1.47420669	0.41467112	2.20810127
-1.47994661	0.41231936	2.20808101
-1.48333716	0.40814275	2.20805669
-1.48434043	0.40752620	2.20805216
-1.48677838	0.40591514	2.20804071
-1.49033391	0.40526474	2.20803189
-1.49076605	0.40326256	2.20802236
-1.49358499	0.40257484	2.20801449
-1.49416935	0.40159220	2.20800900
-1.49946415	0.40036154	2.20799470
-1.50131810	0.39973319	2.20798874
-1.50155962	0.39889407	2.20798469
-1.50286722	0.39869112	2.20798159
-1.50348985	0.39715070	2.20797348
-1.50522923	0.39738297	2.20797181
-1.50630867	0.39646357	2.20796585
-1.50712132	0.39619738	2.20796323
-1.50967360	0.39616346	2.20795894
-1.51107061	0.39491469	2.20795083
-1.51230240	0.39257741	2.20793843
-1.51498187	0.39256454	2.20793390
-1.51761091	0.38816577	2.20790958
-1.51795375	0.38639694	2.20790100
-1.52131855	0.38690960	2.20789790
-1.53160417	0.38240874	2.20786047
-1.53519785	0.38120061	2.20784903
-1.53767419	0.37984437	2.20783877
-1.54107738	0.37736195	2.20782208
-1.54429030	0.37360513	2.20779967
-1.54517937	0.37222397	2.20779204
-1.54572594	0.36936122	2.20777822
-1.54661477	0.36879212	2.20777416
-1.54738927	0.36827117	2.20777059
-1.54816413	0.36775011	2.20776677
-1.55024636	0.36783892	2.20776391
-1.55175757	0.36654192	2.20775557
-1.55283713	0.36399740	2.20774221
-1.55604994	0.36267787	2.20773101
-1.55702794	0.36187547	2.20772576
-1.55778956	0.36047286	2.20771813
-1.55848825	0.35944211	2.20771217
-1.56119275	0.35961515	2.20770860
-1.56440580	0.35667092	2.20769000
-1.56599319	0.35425913	2.20767641
-1.56885016	0.35463893	2.20767355
-1.57032371	0.34983718	2.20764923
-1.57098413	0.34936422	2.20764613
-1.57164454	0.34889132	2.20764279
-1.57314253	0.34915006	2.20764160
-1.57531428	0.34738022	2.20762992
-1.57586050	0.34533006	2.20761991
-1.57659745	0.34374154	2.20761132
-1.57782876	0.34384161	2.20760989
-1.57918775	0.34233791	2.20760083
-1.58412695	0.34280646	2.20759463
-1.58571482	0.33795673	2.20757031
-1.58618486	0.33702207	2.20756531
-1.58699763	0.33675587	2.20756269
-1.58830535	0.33655304	2.20755959
-1.58904183	0.33577716	2.20755482
-1.58993101	0.33358341	2.20754361
-1.59272468	0.33352244	2.20753860
-1.59771585	0.32619035	2.20749736
-1.60200846	0.31907684	2.20745802
-1.61414480	0.25609827	2.20715380
-1.61546612	0.25190234	2.20713258
-1.61660206	0.21876007	2.20698118
-1.61386466	0.18741024	2.20684433
-1.61046326	0.17526823	2.20679522
-1.60509467	0.15730286	2.20672297
-1.60061395	0.14770496	2.20668721
-1.59620881	0.14105475	2.20666456
-1.58492303	0.12504774	2.20661092
-1.57800364	0.11868632	2.20659375
-1.57201099	0.11444777	2.20658469
-1.54367197	0.10084909	2.20657015
-1.53512669	0.09908235	2.20657635
-1.53094912	0.09964848	2.20658588
-1.52839684	0.09968245	2.20659018
-1.52669537	0.09970492	2.20659328
-1.50527489	0.09815496	2.20662165
-1.50368774	0.09813011	2.20662427
-1.48911083	0.09836942	2.20664954
-1.48652053	0.09814847	2.20665288
-1.47886395	0.09906268	2.20666957
-1.47205806	0.09915286	2.20668125
-1.46617889	0.09974158	2.20669365
-1.46203923	0.10137522	2.20670795
-1.44990051	0.10081619	2.20672560
-1.44061828	0.10307521	2.20675111
-1.43373621	0.10265577	2.20676064
-1.43129826	0.10264164	2.20676470
-1.43048525	0.10453296	2.20677447
-1.42708230	0.10539019	2.20678401
-1.41517198	0.10554808	2.20680451
-1.41343236	0.10612857	2.20681000
-1.40484858	0.10816890	2.20683336
-1.40256262	0.10998684	2.20684528
-1.39212525	0.11021835	2.20686364
-1.38613188	0.11085451	2.20687652
-1.38562381	0.11153489	2.20688057
-1.38021481	0.11118835	2.20688796
-1.37333262	0.11239421	2.20690465
-1.37290049	0.11439639	2.20691442
-1.37127495	0.11492860	2.20691967
-1.37019575	0.11503595	2.20692182
-1.36327553	0.11517370	2.20693398
-1.36234868	0.11548799	2.20693684
-1.35809493	0.11635703	2.20694780
-1.35473001	0.11746955	2.20695853
-1.34970164	0.11723441	2.20696568
-1.34699726	0.11706150	2.20696950
-1.34022915	0.11821860	2.20698595
-1.33334708	0.11861187	2.20699906
-1.32569027	0.11952603	2.20701575
-1.31977320	0.11985987	2.20702720
-1.31729698	0.12121558	2.20703745
-1.30612290	0.12222296	2.20706058
-1.30279601	0.12359041	2.20707226
-1.29254901	0.12428296	2.20709229
-1.28914583	0.12595344	2.20710540
-1.28581893	0.12650818	2.20711350
-1.28152728	0.12630981	2.20711970
-1.27812409	0.12716752	2.20712924
-1.27731156	0.12743372	2.20713162
-1.27557194	0.12720138	2.20713353
-1.27498746	0.12899679	2.20714259
-1.27039123	0.12838411	2.20714760
-1.26698828	0.12842923	2.20715332
-1.26358521	0.12847435	2.20715928
-1.25596642	0.13045549	2.20718074
-1.25167465	0.13025701	2.20718694
-1.24745893	0.13138098	2.20719910
-1.24672222	0.13215691	2.20720387
-1.24065280	0.13228387	2.20721436
-1.23396099	0.13395125	2.20723295
-1.23218346	0.13427621	2.20723748
-1.22955489	0.13461304	2.20724320
-1.22622812	0.13516790	2.20725131
-1.22282505	0.13602567	2.20726085
-1.21853304	0.13745189	2.20727444
-1.21794868	0.13843518	2.20727968
-1.21465993	0.13924491	2.20728898
-1.21006358	0.13863230	2.20729375
-1.20936501	0.13966292	2.20729947
-1.20855224	0.13992912	2.20730209
-1.20685077	0.13995165	2.20730495
-1.20170820	0.14138925	2.20731997
-1.19686997	0.14324105	2.20733643
-1.19590509	0.14330029	2.20733833
-1.18798184	0.14243037	2.20734739
-1.18713105	0.14406645	2.20735621
-1.18643248	0.14509714	2.20736217
-1.18372798	0.14492422	2.20736575
-1.17858517	0.14717430	2.20738459
-1.17614675	0.14959806	2.20739937
-1.17582893	0.15155214	2.20740891
-1.17038155	0.15257603	2.20742249
-1.16871834	0.15285337	2.20742655
-1.16601360	0.15430516	2.20743752
-1.16245818	0.15414345	2.20744276
-1.16144156	0.15875357	2.20746517
-1.15661681	0.15823704	2.20747089
-1.15584219	0.15875798	2.20747447
-1.15510547	0.16034645	2.20748281
-1.15151215	0.15992945	2.20748687
-1.14741027	0.16263056	2.20750594
-1.14381707	0.16221392	2.20750999
-1.13960135	0.16333729	2.20752192
-1.13789964	0.16498518	2.20753217
-1.13294685	0.16932225	2.20756006
-1.13043261	0.17042303	2.20756912
-1.12528992	0.17267376	2.20758796
-1.12459123	0.17451650	2.20759726
-1.12022316	0.17543364	2.20760870
-1.11948633	0.17702216	2.20761704
-1.11515629	0.17819351	2.20762944
-1.11364484	0.18111509	2.20764518
-1.10920072	0.18152243	2.20765448
-1.10776579	0.18251640	2.20766139
-1.10668647	0.18262380	2.20766354
-1.10509920	0.18341094	2.20766973
-1.10417223	0.18372458	2.20767283
-1.10273719	0.18471909	2.20767951
-1.10076916	0.18458223	2.20768213
-1.09899139	0.18572044	2.20769024
-1.09744215	0.18594974	2.20769382
-1.09307420	0.18605429	2.20770168
-1.09241343	0.18977726	2.20771956
-1.08974683	0.19067121	2.20772791
-1.08708012	0.19237775	2.20774007
-1.08112502	0.19164467	2.20774674
-1.07972729	0.19858074	2.20778036
-1.07910490	0.19930857	2.20778465
-1.07624793	0.20055348	2.20779490
-1.07554936	0.20158416	2.20780063
-1.07481265	0.20236009	2.20780540
-1.07029235	0.20306987	2.20781612
-1.06874311	0.20411181	2.20782351
-1.06804454	0.20514250	2.20782924
-1.06770170	0.20609874	2.20783401
-1.06549203	0.20680165	2.20784092
-1.06511116	0.20750296	2.20784473
-1.06085753	0.20837140	2.20785570
-0.88978118	0.22231710	2.20820236
-0.87883592	0.22160375	2.20821714
-0.87775683	0.22089845	2.20821571
-0.87017632	0.22150975	2.20823121
-0.86762393	0.22235566	2.20823908
-0.86422086	0.22321343	2.20824862
-0.84883118	0.22534412	2.20828390
-0.84720558	0.22668910	2.20829248
-0.84650695	0.22853243	2.20830202
-0.84213889	0.22944894	2.20831347
-0.83896399	0.23264849	2.20833302
-0.83629739	0.23354250	2.20834160
-0.83482420	0.23509425	2.20835090
-0.83374494	0.23520100	2.20835328
-0.83119249	0.23686016	2.20836496
-0.82875431	0.23847112	2.20837641
-0.82608783	0.23936513	2.20838475
-0.82535112	0.24095365	2.20839310
-0.82469070	0.24142662	2.20839643
-0.82094491	0.24161530	2.20840335
-0.82009411	0.24243924	2.20840859
-0.81521726	0.24891073	2.20844579
-0.81417608	0.24927294	2.20844913
-0.81362957	0.25213578	2.20846295
-0.81234682	0.25333652	2.20847058
-0.81215614	0.25531217	2.20847988
-0.81094974	0.25539801	2.20848227
-0.80918503	0.25579244	2.20848680
-0.80835915	0.25761437	2.20849657
-0.80708945	0.25807208	2.20850062
-0.80578172	0.25827491	2.20850372
-0.80372429	0.25999728	2.20851493
-0.80236530	0.26150101	2.20852399
-0.80066359	0.26314834	2.20853424
-0.79823858	0.26401570	2.20854211
-0.79684126	0.26688975	2.20855737
-0.79413652	0.26915413	2.20857215
-0.79073334	0.27082449	2.20858526
-0.78895545	0.27277467	2.20859694
-0.78585613	0.27973333	2.20863366
-0.78403962	0.28549120	2.20866251
-0.78387415	0.28684005	2.20866895
-0.78375983	0.28770018	2.20867300
-0.78321338	0.28975034	2.20868325
-0.78205800	0.29016057	2.20868683
-0.78028011	0.29129815	2.20869493
-0.77954346	0.29288658	2.20870328
-0.77823573	0.29308948	2.20870638
-0.77814633	0.29494810	2.20871496
-0.77721924	0.29607439	2.20872164
-0.77394331	0.29857835	2.20873833
-0.77053988	0.30187339	2.20875883
-0.76980299	0.30427393	2.20877099
-0.76840580	0.30714807	2.20878625
-0.76558685	0.30864778	2.20879769
-0.76388484	0.31192032	2.20881510
-0.76218307	0.31438017	2.20882916
-0.76156068	0.31592062	2.20883703
-0.76070958	0.31836927	2.20884967
-0.75649345	0.32193047	2.20887256
-0.75609916	0.32581273	2.20889068
-0.75424516	0.32725313	2.20890045
-0.75335634	0.32782224	2.20890450
-0.75095600	0.33050025	2.20892048
-0.74913937	0.33707064	2.20895314
-0.74817443	0.33712944	2.20895505
-0.74562192	0.33960119	2.20897031
-0.74306923	0.34288439	2.20898938
-0.74247140	0.34704858	2.20900917
-0.74193811	0.34835517	2.20901585
-0.74131572	0.34908304	2.20902038
-0.74073148	0.35006571	2.20902562
-0.73899114	0.35552117	2.20905328
-0.73741651	0.35881463	2.20907068
-0.73641300	0.36186844	2.20908618
-0.73575240	0.36396670	2.20909667
-0.73524410	0.36627179	2.20910788
-0.73049486	0.36951482	2.20913029
-0.72987252	0.37024266	2.20913458
-0.72898346	0.37162432	2.20914245
-0.72817075	0.37270254	2.20914865
-0.72658312	0.37511495	2.20916224
-0.72580838	0.37644860	2.20916939
-0.72495657	0.38458443	2.20920753
-0.72178078	0.39428329	2.20925665
-0.71926612	0.39782196	2.20927668
-0.71748769	0.40383467	2.20930672
-0.71615314	0.41039893	2.20933867
-0.71469277	0.41283223	2.20935202
-0.71170819	0.41649348	2.20937347
-0.70962507	0.42290467	2.20940590
-0.70923102	0.42434958	2.20941305
-0.70695841	0.42461121	2.20941806
-0.70606935	0.42599291	2.20942569
-0.70529431	0.42976379	2.20944405
-0.70266473	0.43903711	2.20949006
-0.69922155	0.45426452	2.20956445
-0.54614103	0.53473383	2.21018147
-0.53833234	0.53300339	2.21018648
-0.53492934	0.53304845	2.21019244
-0.53400260	0.53173745	2.21018791
-0.52897429	0.53231490	2.21019888
-0.52634597	0.53183901	2.21020103
-0.52228272	0.53154504	2.21020651
-0.51950234	0.52923703	2.21020079
-0.51547718	0.52919805	2.21020722
-0.51451230	0.52844477	2.21020532
-0.51099545	0.52610004	2.21020079
-0.50674176	0.52615643	2.21020794
-0.50415146	0.52593547	2.21021128
-0.50156122	0.52571446	2.21021461
-0.49471709	0.52636254	2.21022892
-0.49305367	0.52663988	2.21023297
-0.48721281	0.52667087	2.21024275
-0.48624790	0.52591759	2.21024084
-0.48380983	0.52671599	2.21024847
-0.48218441	0.52724826	2.21025372
-0.48052111	0.52671313	2.21025395
-0.47487050	0.52720630	2.21026564
-0.47360104	0.52603877	2.21026230
-0.47228032	0.52617276	2.21026516
-0.47112519	0.52495772	2.21026158
-0.46776032	0.52444506	2.21026492
-0.46660525	0.52241749	2.21025777
-0.46405318	0.52163929	2.21025848
-0.46076444	0.52163637	2.21026373
-0.45913917	0.52135605	2.21026516
-0.45724753	0.51929170	2.21025896
-0.45051807	0.51745439	2.21026206
-0.44711524	0.51668692	2.21026421
-0.44386470	0.51612675	2.21026707
-0.44100830	0.51249701	2.21025538
-0.43945938	0.51110125	2.21025157
-0.43702134	0.51108754	2.21025562
-0.43590432	0.50931484	2.21024942
-0.43512982	0.50902319	2.21024942
-0.43284413	0.50921589	2.21025419
-0.43222222	0.50669432	2.21024370
-0.43059757	0.50153935	2.21022320
-0.42785522	0.49948633	2.21021843
-0.42677626	0.49796844	2.21021342
-0.42369121	0.49605882	2.21020985
-0.42295536	0.49114752	2.21018887
-0.42117789	0.48984832	2.21018600
-0.41943842	0.48961598	2.21018791
-0.41758502	0.48618123	2.21017551
-0.41344562	0.48619017	2.21018243
-0.41333148	0.48542556	2.21017909
-0.41019508	0.48562953	2.21018529
-0.40900213	0.48172235	2.21016955
-0.40807530	0.48122388	2.21016884
-0.40138364	0.48126614	2.21018004
-0.39867938	0.47946790	2.21017647
-0.39434978	0.47738996	2.21017432
-0.38648969	0.47777295	2.21018910
-0.38440770	0.47605950	2.21018481
-0.38327742	0.47584248	2.21018577
-0.38204616	0.47411770	2.21018004
-0.38147557	0.46948212	2.21016002
-0.37795904	0.46470070	2.21014428
-0.37535614	0.46197337	2.21013618
-0.37307063	0.46054137	2.21013355
-0.37163597	0.45909804	2.21012950
-0.37026525	0.45804751	2.21012688
-0.37021428	0.45691106	2.21012187
-0.36786580	0.45503831	2.21011734
-0.36784014	0.45165035	2.21010208
-0.36605060	0.45104635	2.21010232
-0.36394233	0.45081964	2.21010494
-0.36379012	0.44980013	2.21010041
-0.36253399	0.44707751	2.21009040
-0.36205107	0.44631851	2.21008778
-0.36153123	0.44444409	2.21008015
-0.36035013	0.44227850	2.21007228
-0.36000776	0.43998474	2.21006250
-0.35886452	0.43969870	2.21006298
-0.35878897	0.43512699	2.21004272
-0.35867518	0.43192452	2.21002841
-0.35697377	0.43113506	2.21002769
-0.35571745	0.42922390	2.21002102
-0.35508272	0.42500809	2.21000314
-0.35493058	0.42398867	2.20999885
-0.35302675	0.42343265	2.20999932
-0.35268435	0.42113888	2.20998955
-0.35229084	0.41933393	2.20998216
-0.35343441	0.40991801	2.20993781
-0.35460395	0.40145224	2.20989752
-0.35405821	0.39862782	2.20988584
-0.35271278	0.39613843	2.20987678
-0.35275111	0.39476812	2.20987058
-0.35290366	0.39253753	2.20986032
-0.35202807	0.39073834	2.20985365
-0.35148239	0.38791335	2.20984173
-0.34931105	0.38724643	2.20984221
-0.34861171	0.38669980	2.20984101
-0.34945175	0.37682185	2.20979500
-0.35289562	0.36317185	2.20972776
-0.35138527	0.35796887	2.20970678
-0.35092899	0.35328582	2.20968652
-0.34412372	0.34850150	2.20967603
-0.34334975	0.34414732	2.20965767
-0.34412548	0.33550173	2.20961738
-0.34295732	0.33421773	2.20961356
-0.34291968	0.33071297	2.20959783
-0.34206909	0.32991162	2.20959568
-0.34017780	0.32540989	2.20957851
-0.33987346	0.32337105	2.20956969
-0.33779180	0.31922027	2.20955443
-0.34019360	0.30516720	2.20948720
-0.33922884	0.30360126	2.20948172
-0.34000480	0.29333052	2.20943403
-0.33482519	0.28638917	2.20941138
-0.33308616	0.28209430	2.20939493
-0.33208358	0.27864888	2.20938087
-0.32941794	0.27304295	2.20936012
-0.32645950	0.26876548	2.20934558
-0.32320946	0.26414290	2.20933032
-0.32286721	0.26103652	2.20931673
-0.32282984	0.25590697	2.20929360
-0.31979612	0.25188398	2.20928049
-0.31801912	0.24733424	2.20926309
-0.31647024	0.24512634	2.20925570
-0.31495923	0.24479857	2.20925665
-0.31454080	0.24118245	2.20924091
-0.31325826	0.24075863	2.20924115
-0.31225556	0.23812574	2.20923090
-0.31206548	0.23685145	2.20922565
-0.31113881	0.23472774	2.20921755
-0.30866310	0.23202190	2.20920944
-0.30745673	0.23129517	2.20920825
-0.30691081	0.23009548	2.20920372
-0.30622548	0.22957039	2.20920229
-0.30503255	0.22566268	2.20918679
-0.30416903	0.22398034	2.20918059
-0.30401689	0.22296086	2.20917630
-0.30232853	0.22223985	2.20917583
-0.30074158	0.21977702	2.20916724
-0.30055162	0.21687803	2.20915461
-0.29772007	0.21505886	2.20915103
-0.29645050	0.21470392	2.20915151
-0.29609513	0.21234125	2.20914149
-0.29486385	0.21061593	2.20913577
-0.29412752	0.20895448	2.20912933
-0.29350543	0.20805770	2.20912647
-0.29238814	0.20791012	2.20912766
-0.29219794	0.20663586	2.20912218
-0.29110593	0.20504838	2.20911694
-0.29023021	0.20406172	2.20911384
-0.28849131	0.19976687	2.20909739
-0.28779328	0.19673559	2.20908475
-0.28760308	0.19546130	2.20907927
-0.28628248	0.19478258	2.20907855
-0.28586420	0.19035381	2.20905924
-0.28578833	0.18821943	2.20904970
-0.28401095	0.18610704	2.20904303
-0.28250062	0.18090406	2.20902228
-0.27951658	0.18050331	2.20902538
-0.27902222	0.17556480	2.20900393
-0.27747354	0.17173222	2.20898914
-0.27720714	0.17076027	2.20898509
-0.27607685	0.17054376	2.20898604
-0.27535385	0.16732606	2.20897269
-0.27520174	0.16630667	2.20896840
-0.27361465	0.16465652	2.20896363
-0.27004647	0.16442585	2.20896840
-0.26923391	0.16306672	2.20896363
-0.26909542	0.15724155	2.20893764
-0.26665771	0.15560275	2.20893431
-0.26340741	0.15260473	2.20892620
-0.26321745	0.14970580	2.20891333
-0.26217675	0.14681742	2.20890212
-0.26036155	0.14282554	2.20888710
-0.25637472	0.14060399	2.20888376
-0.25618452	0.13932967	2.20887828
-0.25563860	0.13812989	2.20887375
-0.25522000	0.13613907	2.20886540
-0.25444573	0.13341022	2.20885444
-0.25429416	0.12832811	2.20883179
-0.25263160	0.12210566	2.20880651
-0.25073987	0.12085393	2.20880389
-0.24896270	0.11711684	2.20879006
-0.24807414	0.11606121	2.20878673
-0.24783273	0.11527514	2.20878363
-0.24571268	0.11330682	2.20877814
-0.24378328	0.10936290	2.20876360
-0.24289459	0.10830674	2.20876026
-0.24142183	0.10660851	2.20875502
-0.24034312	0.10265329	2.20873904
-0.23953056	0.10210681	2.20873785
-0.23782979	0.09644219	2.20871520
-0.23423700	0.09277573	2.20870471
-0.23117700	0.09105200	2.20870185
-0.23113900	0.08998510	2.20869708
-0.22970419	0.08935386	2.20869660
-0.22962826	0.08803201	2.20869088
-0.22900620	0.08632255	2.20868421
-0.22936249	0.08218545	2.20866489
-0.22924836	0.08142084	2.20866156
-0.22777556	0.07972267	2.20865631
-0.22677316	0.07465202	2.20863509
-0.22662103	0.07363248	2.20863080
-0.22724390	0.06884268	2.20860815
-0.22132742	0.06511396	2.20860124
-0.21981636	0.06478560	2.20860219
-0.21877430	0.06438315	2.20860219
-0.21928406	0.05878031	2.20857596
-0.21835780	0.05421987	2.20855689
-0.21835813	0.05178195	2.20854592
-0.21758370	0.05067822	2.20854235
-0.21646711	0.04565558	2.20852137
-0.21569268	0.04455182	2.20851779
-0.21565481	0.04348439	2.20851302
-0.21472804	0.04217336	2.20850873
-0.21108373	0.04143295	2.20851135
-0.21074121	0.03995180	2.20850515
-0.21036133	0.03334054	2.20847607
-0.20873605	0.03306034	2.20847750
-0.20695861	0.03094843	2.20847082
-0.20518120	0.02964863	2.20846796
-0.20312415	0.02893311	2.20846820
-0.20262936	0.02643257	2.20845771
-0.20185508	0.02532884	2.20845389
-0.20083889	0.02506381	2.20845461
-0.20089036	0.02295029	2.20844483
-0.20011584	0.02265877	2.20844483
-0.20023023	0.02179864	2.20844078
-0.19860491	0.02070621	2.20843863
-0.19841480	0.01943183	2.20843315
-0.19724643	0.01896000	2.20843291
-0.19663766	0.01569477	2.20841908
-0.19652350	0.01493025	2.20841599
-0.19520307	0.01343891	2.20841146
-0.19489862	0.01221260	2.20840645
-0.19505113	0.00998211	2.20839596
-0.19312167	0.00685030	2.20838523
-0.19219503	0.00553980	2.20838070
-0.18975708	0.00471291	2.20838094
-0.18898264	0.00442135	2.20838094
-0.18469122	0.00097352	2.20837259
-0.18279991	-0.00190347	2.20836282
-0.18009558	-0.00451374	2.20835543
-0.17336632	-0.00716376	2.20835471
-0.17325217	-0.00792828	2.20835137
-0.16973543	-0.01189765	2.20833921
-0.16896093	-0.01218921	2.20833921
-0.16884682	-0.01295388	2.20833611
-0.16559640	-0.01432657	2.20833516
-0.16540627	-0.01641351	2.20832610
-0.16223201	-0.01808912	2.20832372
-0.15689938	-0.02036265	2.20832229
-0.15612486	-0.02065426	2.20832229
-0.15512186	-0.02084985	2.20832324
-0.14653896	-0.02530926	2.20831728
-0.14069816	-0.02609092	2.20832348
-0.13678727	-0.02699009	2.20832586
-0.13408285	-0.02797568	2.20832586
-0.12948658	-0.02858829	2.20833063
-0.12523296	-0.02934447	2.20833445
-0.12438248	-0.03095794	2.20832849
-0.10999614	-0.03188160	2.20834827
-0.09797174	-0.03248817	2.20836544
-0.07577634	-0.03189188	2.20840478
-0.06811944	-0.03016511	2.20842528
-0.05791019	-0.02678028	2.20845747
-0.05102769	-0.02394983	2.20848179
-0.04684988	-0.02175838	2.20849848
-0.04274817	-0.01905784	2.20851755
-0.02665770	-0.00045931	2.20862818
-0.01907569	0.01071432	2.20869112
-0.01109833	0.03389436	2.20880890
-0.00958641	0.04006648	2.20883918
-0.00818734	0.05675235	2.20891690
-0.00756395	0.06479213	2.20895410
-0.00861079	0.10440600	2.20913100
-0.01123075	0.15128824	2.20933819
-0.01211819	0.16128159	2.20938182
-0.01300605	0.16802508	2.20941091
-0.01366591	0.17242673	2.20942950
-0.01424953	0.17550597	2.20944262
-0.01497269	0.17791107	2.20945215
-0.01636849	0.18641150	2.20948815
-0.01748474	0.19387153	2.20952010
-0.01871553	0.19965878	2.20954418
-0.02033953	0.20887628	2.20958304
-0.02270079	0.21325533	2.20959878
-0.02281484	0.21401994	2.20960212
-0.02308130	0.21499136	2.20960593
-0.02381736	0.21827802	2.20961952
-0.02482012	0.22009884	2.20962620
-0.02593651	0.22674622	2.20965433
-0.02674863	0.23135528	2.20967388
-0.02752277	0.23408358	2.20968485
-0.02763689	0.23484819	2.20968795
-0.02848709	0.23889944	2.20970488
-0.02899499	0.23984437	2.20970845
-0.02984525	0.24308302	2.20972157
-0.03045435	0.24472350	2.20972800
-0.03061949	0.24581195	2.20973253
-0.03230654	0.25628227	2.20977712
-0.03404538	0.26138967	2.20979714
-0.03574619	0.26624179	2.20981622
-0.03799313	0.27148092	2.20983624
-0.03844940	0.27616453	2.20985651
-0.03922384	0.27645612	2.20985651
-0.04030248	0.28122401	2.20987630
-0.04107661	0.28476498	2.20989108
-0.04192641	0.29125354	2.20991874
-0.04211667	0.29252791	2.20992422
-0.04277679	0.29449221	2.20993209
-0.04466761	0.30224386	2.20996380
-0.04606436	0.30261970	2.20996332
-0.04640683	0.30410078	2.20996928
-0.04725701	0.30896413	2.20998979
-0.04752328	0.31074822	2.20999742
-0.04907215	0.31214401	2.21000123
-0.05058283	0.31572181	2.21001482
-0.05173774	0.31856200	2.21002579
-0.05239785	0.32052636	2.21003342
-0.05254987	0.32317048	2.21004510
-0.05277807	0.32469964	2.21005177
-0.05355231	0.32661596	2.21005917
-0.05417456	0.32751280	2.21006203
-0.05459244	0.33437887	2.21009231
-0.05617971	0.33440432	2.21008992
-0.05725784	0.34242210	2.21012425
-0.05822191	0.34886265	2.21015167
-0.06058354	0.34999180	2.21015286
-0.06077381	0.35126609	2.21015835
-0.06255083	0.35581577	2.21017599
-0.06343932	0.35768408	2.21018291
-0.06487413	0.35912740	2.21018696
-0.06627095	0.35950324	2.21018648
-0.06646101	0.36159018	2.21019554
-0.06680322	0.36550862	2.21021247
-0.06780560	0.36976674	2.21023011
-0.06854185	0.37142813	2.21023631
-0.06865610	0.37219280	2.21023965
-0.06877013	0.37295732	2.21024299
-0.06962056	0.37538391	2.21025252
-0.07047087	0.37862203	2.21026564
-0.07116912	0.38002914	2.21027088
-0.07143545	0.38181317	2.21027851
-0.07264124	0.38660192	2.21029806
-0.07313609	0.38747782	2.21030116
-0.07642421	0.39235538	2.21031785
-0.07665236	0.39469719	2.21032786
-0.07738872	0.39554605	2.21033049
-0.07855657	0.39926785	2.21034551
-0.07846649	0.40600109	2.21037602
-0.06428571	0.57397568	2.21115732
-0.12032752	0.69700801	2.21161938
-0.14428073	0.74639100	2.21180248
-0.14524558	0.74714422	2.21180415
-0.14779721	0.75117242	2.21181822
-0.15000632	0.75453198	2.21182966
-0.15312883	0.76075900	2.21185255
-0.15394133	0.76211751	2.21185732
-0.15531270	0.76474530	2.21186686
-0.15686157	0.76695269	2.21187425
-0.16963109	0.79371190	2.21197391
-0.17125615	0.79561692	2.21197987
-0.17392224	0.79797292	2.21198606
-0.17666426	0.80246323	2.21200180
-0.17921636	0.80324143	2.21200109
-0.18188207	0.80884743	2.21202183
-0.18617290	0.81554568	2.21204495
-0.18949926	0.81824076	2.21205163
-0.29097459	0.95740199	2.21251130
-0.29174906	0.95850575	2.21251488
-0.29069468	0.95961106	2.21252155
-0.29173547	0.96249932	2.21253300
-0.29169708	0.96468174	2.21254277
-0.29266167	0.96787238	2.21255565
-0.29441381	0.97061104	2.21256518
-0.29417214	0.97226274	2.21257305
-0.29470208	0.97353673	2.21257782
-0.29474005	0.97460419	2.21258259
-0.29524797	0.97554904	2.21258593
-0.29466361	0.97653174	2.21259141
-0.29508513	0.97837949	2.21259904
-0.29477841	0.97968578	2.21260548
-0.29570404	0.98185730	2.21261358
-0.29632592	0.98437881	2.21262407
-0.29636487	0.98539853	2.21262860
-0.29663020	0.98723042	2.21263647
-0.29810274	0.99055326	2.21264887
-0.29872477	0.99226272	2.21265554
-0.29848319	0.99310189	2.21265984
-0.29933357	0.99552846	2.21266937
-0.29936031	0.99724329	2.21267700
-0.30005857	0.99865031	2.21268225
-0.30029804	0.99953115	2.21268582
-0.30085701	1.00079989	2.21269059
-0.30076957	1.00175071	2.21269512
-0.30057907	1.00291419	2.21270061
-0.29984248	1.00369000	2.21270537
-0.29918194	1.00497556	2.21271229
-0.30114949	1.00836170	2.21272421
-0.30258402	1.01142979	2.21273565
-0.30170715	1.01211572	2.21274018
-0.30104566	1.01344931	2.21274734
-0.30241802	1.01602864	2.21275663
-0.30168146	1.01680446	2.21276140
-0.30353469	1.02105129	2.21277761
-0.30338216	1.02246928	2.21278429
-0.30319142	1.02525747	2.21279716
-0.30504471	1.02869165	2.21280956
-0.30467588	1.02950978	2.21281385
-0.30357152	1.03024340	2.21281886
-0.30430776	1.03190482	2.21282530
-0.30471346	1.03301466	2.21282959
-0.30345669	1.03435397	2.21283770
-0.30442110	1.03835666	2.21285415
-0.30452204	1.04067743	2.21286440
-0.30548665	1.04305553	2.21287346
-0.30633706	1.04548156	2.21288300
-0.30726367	1.04760528	2.21289110
-0.30787265	1.05005765	2.21290112
-0.30802381	1.05112505	2.21290588
-0.30728817	1.05185306	2.21291018
-0.30813849	1.05509162	2.21292353
-0.31014401	1.05954599	2.21294022
-0.31053752	1.06135082	2.21294785
-0.31065160	1.06211543	2.21295094
-0.31053731	1.06297565	2.21295500
-0.31082878	1.06413341	2.21295977
-0.31137466	1.06533253	2.21296430
-0.31263191	1.06800854	2.21297431
-0.31225100	1.06870985	2.21297812
-0.31251740	1.06968117	2.21298194
-0.31219965	1.07082319	2.21298766
-0.31156409	1.07229471	2.21299529
-0.31156391	1.07391942	2.21300268
-0.31179184	1.07788587	2.21302032
-0.31163931	1.07930386	2.21302700
-0.31345445	1.08410835	2.21304560
-0.31421572	1.08595574	2.21305275
-0.31438065	1.08866942	2.21306467
-0.31419012	1.08983231	2.21307015
-0.31378299	1.09202039	2.21308064
-0.31399822	1.09348059	2.21308684
-0.31500092	1.09611344	2.21309710
-0.31477237	1.09702206	2.21310163
-0.31261349	1.10048556	2.21312094
-0.31225765	1.10137284	2.21312547
-0.32832727	1.13957834	2.21327114
-0.32802248	1.14078939	2.21327710
-0.33087856	1.14604437	2.21329618
-0.33199567	1.14781713	2.21330214
-0.33541092	1.15271568	2.21331859
-0.33717546	1.15313375	2.21331763
-0.33887672	1.15473652	2.21332216
-0.34093392	1.15463924	2.21331811
-0.34286356	1.15695798	2.21332550
-0.34494543	1.16029668	2.21333718
-0.34931266	1.16506743	2.21335125
-0.35237241	1.16841567	2.21336150
-0.35414994	1.16971493	2.21336436
-0.35747620	1.17322266	2.21337461
-0.35886005	1.17352951	2.21337366
-0.36566532	1.17831445	2.21338391
-0.36833140	1.18066978	2.21339011
-0.44985715	1.33297920	2.21394229
-0.44900620	1.33461523	2.21395087
-0.44734228	1.33814251	2.21396971
-0.44668168	1.34024072	2.21398020
-0.44749400	1.34241176	2.21398878
-0.44586813	1.34619415	2.21400833
-0.44575387	1.34705400	2.21401238
-0.44609633	1.34853590	2.21401858
-0.44586742	1.35188127	2.21403408
-0.44431788	1.35454857	2.21404862
-0.44558698	1.35815287	2.21406293
-0.44453254	1.36007094	2.21407318
-0.44479889	1.36185479	2.21408081
-0.44479877	1.36266744	2.21408463
-0.44534475	1.36386728	2.21408892
-0.44516715	1.36509919	2.21409488
-0.44519198	1.36690974	2.21410298
-0.44511575	1.36802530	2.21410823
-0.44555920	1.37101460	2.21412086
-0.44567323	1.37259126	2.21412778
-0.44612998	1.37402487	2.21413350
-0.44552061	1.37482178	2.21413827
-0.44634587	1.37787461	2.21415067
-0.44535479	1.37860847	2.21415544
-0.44590071	1.37980819	2.21415997
-0.44582438	1.38092327	2.21416521
-0.44612876	1.38296211	2.21417379
-0.44586194	1.38524067	2.21418452
-0.44762576	1.39053345	2.21420550
-0.44711751	1.39202583	2.21421313
-0.44725761	1.39374101	2.21422052
-0.44930106	1.39926219	2.21424222
-0.45007518	1.40199113	2.21425319
-0.44937670	1.40302181	2.21425891
-0.44973218	1.40457189	2.21426535
-0.44983321	1.40608025	2.21427202
-0.44964266	1.40724325	2.21427751
-0.45102489	1.41166055	2.21429515
-0.45093557	1.41270638	2.21430016
-0.45051652	1.41396558	2.21430635
-0.45164627	1.41824460	2.21432400
-0.45239335	1.42169571	2.21433830
-0.45250756	1.42246008	2.21434140
-0.45179683	1.42418647	2.21435046
-0.45260906	1.42717028	2.21436262
-0.45279917	1.42925739	2.21437168
-0.45229104	1.42993712	2.21437550
-0.45325559	1.43312764	2.21438837
-0.45236632	1.43613410	2.21440339
-0.45235255	1.44175231	2.21442866
-0.46834922	1.46396327	2.21450257
-0.48033345	1.47329998	2.21452475
-0.51029718	1.49124110	2.21455598
-0.51710260	1.49440074	2.21455884
-0.52731156	1.49426532	2.21454144
-0.52916527	1.49445009	2.21453929
-0.53001612	1.49362636	2.21453404
-0.53071469	1.49259555	2.21452832
-0.53693616	1.49430060	2.21452570
-0.53952640	1.49452138	2.21452236
-0.54536748	1.49367797	2.21450877
-0.54865634	1.49286819	2.21449971
-0.55224955	1.49328494	2.21449566
-0.55565268	1.49242711	2.21448612
-0.55731618	1.49214959	2.21448207
-0.55909377	1.49182463	2.21447778
-0.56014830	1.48909426	2.21446371
-0.57019162	1.49030757	2.21445251
-0.57440710	1.49080896	2.21444774
-0.58121312	1.49071860	2.21443605
-0.58461595	1.49067354	2.21443033
-0.58809507	1.49113798	2.21442652
-0.59022880	1.48830080	2.21441031
-0.59648854	1.48863602	2.21440125
-0.59819001	1.48861337	2.21439838
-0.60337073	1.48743010	2.21438456
-0.60677373	1.48738503	2.21437860
-0.60932600	1.48735118	2.21437430
-0.61272895	1.48730600	2.21436834
-0.61698258	1.48724961	2.21436119
-0.62208676	1.48880696	2.21435976
-0.78471100	1.53228748	2.21428633
-0.82151967	1.54389381	2.21427751
-0.82743639	1.54599726	2.21427727
-0.83257854	1.54862165	2.21428061
-0.83435607	1.54992151	2.21428347
-0.83690792	1.55151248	2.21428633
-0.84297687	1.55544782	2.21429420
-0.84723037	1.55701685	2.21429420
-0.84974414	1.55916524	2.21429968
-0.85844105	1.56520152	2.21431255
-0.86845911	1.56866693	2.21431160
-0.86791265	1.57152915	2.21432543
-0.87120110	1.57315719	2.21432734
-0.87553072	1.57523525	2.21432948
-0.87560654	1.57655764	2.21433520
-0.88314861	1.57975340	2.21433711
-0.88496399	1.58212066	2.21434474
-0.88848090	1.58446479	2.21434951
-0.89110905	1.58575332	2.21435094
-0.89961606	1.58889043	2.21435118
-0.90120298	1.59054065	2.21435595
-0.90216792	1.59129381	2.21435761
-0.90209162	1.59240937	2.21436286
-0.90398324	1.59447324	2.21436906
-0.90904909	1.59740055	2.21437383
-0.91345441	1.60242605	2.21438932
-0.92536390	1.60795546	2.21439433
-0.92803013	1.61031079	2.21440053
-0.92969340	1.61084604	2.21440029
-0.93046802	1.61113763	2.21440029
-0.93058205	1.61190212	2.21440363
-0.93494976	1.61423516	2.21440697
-0.93665105	1.61502504	2.21440768
-0.93993962	1.61665273	2.21440959
-0.94090438	1.61740589	2.21441126
-0.94256771	1.61875391	2.21441460
-0.94925892	1.62114882	2.21441436
-0.95026195	1.62215710	2.21441722
-0.95196313	1.62375915	2.21442151
-0.95447707	1.62509513	2.21442342
-0.95629263	1.62664986	2.21442747
-0.95640671	1.62741446	2.21443081
-0.95892066	1.62875080	2.21443272
-0.96495175	1.63080633	2.21443200
-0.96665311	1.63159633	2.21443272
-0.97005588	1.63317585	2.21443415
-0.97408068	1.63484025	2.21443486
-0.97500759	1.63533878	2.21443558
-0.97515988	1.63635814	2.21444011
-0.97616273	1.63736629	2.21444297
-0.98045415	1.64000201	2.21444774
-0.98374265	1.64163017	2.21444964
-0.98393291	1.64290452	2.21445489
-0.99077636	1.64631844	2.21445894
-1.00179720	1.64997947	2.21445727
-1.00438738	1.65263772	2.21446490
-1.00952959	1.65445018	2.21446466
-1.01045644	1.65494871	2.21446538
-1.05843854	1.66798496	2.21444464
-1.10105097	1.67280507	2.21439576
-1.14977098	1.67694092	2.21433353
-1.15232313	1.67690706	2.21432924
-1.17699480	1.67495501	2.21427965
-1.20162868	1.67112303	2.21422148
-1.20506966	1.67052007	2.21421289
-1.21098697	1.66937351	2.21419811
-1.21520257	1.66825032	2.21418595
-1.23991323	1.66005278	2.21410799
-1.24575448	1.65758443	2.21408725
-1.25847828	1.65147305	2.21403861
-1.27019906	1.64516568	2.21399069
-1.30659354	1.62309432	2.21383071
-1.31343818	1.61838436	2.21379805
-1.33533216	1.59381270	2.21365094
-1.35282111	1.56340289	2.21348476
-1.35367191	1.56176639	2.21347594
