//X	Y	Z
-1.58884180	0.54553145	3.06775069
-1.59078300	0.50530541	3.06752563
-1.58954418	0.49869835	3.06748915
-1.58587706	0.47989774	3.06738615
-1.57989025	0.46591365	3.06731081
-1.57730126	0.46163130	3.06728792
-1.56752110	0.44594759	3.06720471
-1.56238079	0.44007450	3.06717420
-1.55039883	0.42835099	3.06711411
-1.54769146	0.42573732	3.06710076
-1.54421186	0.42283493	3.06708622
-1.53907037	0.41939819	3.06706929
-1.53129911	0.41467237	3.06704617
-1.51498389	0.40574247	3.06700349
-1.48513412	0.40075463	3.06698871
-1.47229636	0.39878893	3.06698346
-1.46800399	0.39858979	3.06698418
-1.46460116	0.39863515	3.06698585
-1.44847655	0.39991784	3.06700015
-1.44697034	0.40121919	3.06700802
-1.44526899	0.40124184	3.06700897
-1.44372380	0.40228742	3.06701541
-1.42380607	0.40105885	3.06701732
-1.42303324	0.40158159	3.06702042
-1.42052042	0.40187126	3.06702328
-1.41533732	0.40305257	3.06703210
-1.40841424	0.40318775	3.06703591
-1.40601861	0.40343291	3.06703830
-1.40512812	0.40481263	3.06704640
-1.39650369	0.40497106	3.06705093
-1.39306176	0.40476066	3.06705117
-1.38888693	0.40451640	3.06705165
-1.38710690	0.40483999	3.06705427
-1.38386035	0.40590817	3.06706166
-1.37353444	0.40608877	3.06706715
-1.37017059	0.40638989	3.06707025
-1.36595571	0.40751451	3.06707835
-1.36158478	0.40761626	3.06708097
-1.34963548	0.40833169	3.06709003
-1.34809041	0.40937710	3.06709671
-1.34468710	0.41023427	3.06710291
-1.33780360	0.40981340	3.06710362
-1.33699143	0.41089284	3.06710982
-1.33536816	0.41142690	3.06711364
-1.32755530	0.41131830	3.06711650
-1.31924224	0.41514677	3.06714129
-1.31065679	0.41556096	3.06714749
-1.30713654	0.41565090	3.06714940
-1.29700577	0.41711068	3.06716204
-1.29282999	0.41849113	3.06717157
-1.28497767	0.41893864	3.06717753
-1.28091908	0.42108619	3.06719112
-1.27820992	0.42172199	3.06719589
-1.27662623	0.42169952	3.06719637
-1.27565789	0.42175591	3.06719732
-1.27144337	0.42206830	3.06720090
-1.26649487	0.42397106	3.06721354
-1.26556575	0.42428315	3.06721568
-1.26293516	0.42461807	3.06721878
-1.26154661	0.42587417	3.06722641
-1.25717497	0.42678785	3.06723332
-1.24843347	0.42617911	3.06723380
-1.24758267	0.42619050	3.06723428
-1.24530363	0.42882681	3.06724977
-1.24104965	0.42969579	3.06725669
-1.23582804	0.42980832	3.06725955
-1.22724199	0.43103498	3.06727004
-1.22213745	0.43191528	3.06727719
-1.21788323	0.43359596	3.06728840
-1.21711063	0.43411887	3.06729174
-1.21633804	0.43464160	3.06729484
-1.21451902	0.43470943	3.06729603
-1.21111536	0.43637890	3.06730700
-1.20345831	0.43810564	3.06731987
-1.20009410	0.43921834	3.06732750
-1.19924295	0.44004208	3.06733251
-1.19672942	0.44114417	3.06733966
-1.19332635	0.44200188	3.06734610
-1.19077432	0.44203579	3.06734729
-1.18988407	0.44260329	3.06735086
-1.18137681	0.44352883	3.06735969
-1.17704487	0.44388628	3.06736350
-1.16958237	0.44770336	3.06738806
-1.16892636	0.44980568	3.06740022
-1.16122997	0.45208848	3.06741619
-1.15778816	0.45187807	3.06741643
-1.15248787	0.45229161	3.06742120
-1.15163732	0.45230293	3.06742167
-1.14920139	0.45472872	3.06743622
-1.14498615	0.45666522	3.06744885
-1.13887382	0.45815820	3.06745982
-1.13643849	0.45977169	3.06746984
-1.13489282	0.46162957	3.06748080
-1.13226223	0.46196449	3.06748390
-1.12885869	0.46363395	3.06749463
-1.12630606	0.46448016	3.06750059
-1.12557209	0.46607047	3.06750965
-1.12491703	0.46654868	3.06751275
-1.12131810	0.46693951	3.06751633
-1.12035000	0.46699607	3.06751704
-1.11853111	0.46706390	3.06751823
-1.11768031	0.46707511	3.06751871
-1.11354363	0.46871072	3.06752968
-1.11207592	0.47108001	3.06754351
-1.11021781	0.47089225	3.06754327
-1.10762680	0.47067046	3.06754327
-1.10507441	0.47151685	3.06754899
-1.10252190	0.47236252	3.06755471
-1.10000789	0.47427696	3.06756663
-1.09567559	0.47544628	3.06757498
-1.09494197	0.47622490	3.06757975
-1.09409094	0.47704846	3.06758451
-1.09053123	0.47769511	3.06758976
-1.08882964	0.47771776	3.06759071
-1.08716691	0.47880846	3.06759739
-1.08477020	0.48149014	3.06761336
-1.08427072	0.48380280	3.06762648
-1.08148372	0.48392659	3.06762838
-1.07881403	0.48400587	3.06763005
-1.07792389	0.48457325	3.06763363
-1.07363069	0.48599887	3.06764340
-1.07239699	0.48990256	3.06766582
-1.06694078	0.48929316	3.06766462
-1.06342006	0.49019551	3.06767130
-1.06005597	0.49130887	3.06767893
-1.05854917	0.49342245	3.06769133
-1.05611372	0.49503595	3.06770134
-1.05340528	0.49485874	3.06770158
-1.05166435	0.49543816	3.06770563
-1.04830015	0.49655145	3.06771326
-1.04644227	0.49636364	3.06771302
-1.04396772	0.49772090	3.06772161
-1.04238307	0.49932301	3.06773138
-1.03542054	0.50001478	3.06773829
-1.03225112	0.50321937	3.06775737
-1.02865267	0.50279832	3.06775665
-1.02540565	0.50467831	3.06776857
-1.02269697	0.50450176	3.06776881
-1.01929426	0.50454706	3.06777048
-1.01256597	0.50677395	3.06778598
-1.00742269	0.50658607	3.06778717
-1.00661063	0.50766492	3.06779337
-1.00324690	0.50796592	3.06779671
-0.99721396	0.50753379	3.06779671
-0.99292058	0.50895953	3.06780672
-0.99064136	0.51159537	3.06782222
-0.98367923	0.51147527	3.06782460
-0.97942579	0.51153195	3.06782675
-0.97432160	0.51159996	3.06782937
-0.96403474	0.51203680	3.06783628
-0.95885259	0.51159352	3.06783628
-0.95633948	0.51188308	3.06783891
-0.95471615	0.51241720	3.06784248
-0.95042324	0.51303041	3.06784797
-0.94264990	0.51236522	3.06784749
-0.94025391	0.51342213	3.06785440
-0.93511033	0.51404613	3.06786013
-0.93279243	0.51561451	3.06786990
-0.91964161	0.51322722	3.06786227
-0.91558331	0.51456243	3.06787157
-0.91032302	0.51360756	3.06786847
-0.90858221	0.51418692	3.06787252
-0.90777057	0.51445395	3.06787443
-0.90181530	0.51534551	3.06788206
-0.89926273	0.51619202	3.06788778
-0.89671069	0.51622593	3.06788898
-0.89496982	0.51680470	3.06789303
-0.89377546	0.52096397	3.06791687
-0.88750744	0.52062166	3.06791759
-0.88422132	0.52224648	3.06792808
-0.88070107	0.52233696	3.06793022
-0.87985033	0.52234834	3.06793046
-0.87683791	0.52495080	3.06794643
-0.87223232	0.52433026	3.06794500
-0.87037432	0.52414227	3.06794477
-0.86778319	0.52392060	3.06794453
-0.86457479	0.52686924	3.06796241
-0.86295104	0.52821511	3.06797075
-0.86128825	0.52930576	3.06797743
-0.85954785	0.52907270	3.06797695
-0.85262436	0.53002042	3.06798530
-0.84929878	0.53220177	3.06799889
-0.84338164	0.53497332	3.06801677
-0.84009558	0.53659815	3.06802726
-0.83475554	0.53838062	3.06803966
-0.83479375	0.54026055	3.06805015
-0.83383358	0.54595429	3.06808233
-0.83154452	0.54620218	3.06808472
-0.82721174	0.54818392	3.06809759
-0.82582217	0.55106413	3.06811428
-0.82214493	0.55175638	3.06811976
-0.81715524	0.55746460	3.06815362
-0.81673443	0.55947649	3.06816506
-0.81375003	0.56238282	3.06818247
-0.81263584	0.56299245	3.06818652
-0.81151062	0.56365085	3.06819057
-0.81073803	0.56417370	3.06819391
-0.81015968	0.56759906	3.06821322
-0.80895603	0.56855774	3.06821918
-0.80833995	0.56929111	3.06822348
-0.80833954	0.57010341	3.06822801
-0.80822158	0.57096046	3.06823277
-0.80319291	0.57641339	3.06826544
-0.80055940	0.58243358	3.06830001
-0.79696018	0.58363664	3.06830835
-0.79525834	0.58447170	3.06831384
-0.79460329	0.58494937	3.06831670
-0.79224467	0.58951068	3.06834316
-0.79108000	0.59072518	3.06835055
-0.78961235	0.59309387	3.06836438
-0.78872186	0.59447432	3.06837249
-0.78636408	0.59741104	3.06838989
-0.78454471	0.59829110	3.06839538
-0.78280181	0.60293102	3.06842208
-0.78109914	0.60539019	3.06843662
-0.77765602	0.60761631	3.06845045
-0.77610785	0.61434770	3.06848860
-0.77440518	0.61680686	3.06850314
-0.77192909	0.62141293	3.06852984
-0.77135205	0.62240255	3.06853557
-0.77115518	0.62437272	3.06854677
-0.76856411	0.62415099	3.06854653
-0.76778936	0.62873441	3.06857252
-0.76689917	0.62930232	3.06857610
-0.76446080	0.63660109	3.06861782
-0.76311111	0.63811302	3.06862688
-0.75966811	0.64033908	3.06864071
-0.75889373	0.64411074	3.06866217
-0.75788569	0.64553559	3.06867051
-0.75637782	0.65008569	3.06869650
-0.75455844	0.65096587	3.06870222
-0.75099701	0.65486133	3.06872535
-0.74940890	0.66296113	3.06877136
-0.74693489	0.66350651	3.06877542
-0.74527931	0.67185873	3.06882262
-0.74441767	0.67191815	3.06882334
-0.74372351	0.67213988	3.06882501
-0.73892868	0.67993909	3.06887054
-0.73869318	0.68084121	3.06887555
-0.73815525	0.68208653	3.06888294
-0.73772371	0.68333417	3.06888986
-0.73540455	0.68733907	3.06891322
-0.73478681	0.69132161	3.06893587
-0.73196018	0.69200206	3.06894088
-0.73106283	0.69460607	3.06895566
-0.73057026	0.69569468	3.06896210
-0.72975695	0.69921064	3.06898189
-0.72902334	0.69998908	3.06898665
-0.72607875	0.70152700	3.06899643
-0.72526628	0.70341820	3.06900740
-0.72472787	0.70547521	3.06901908
-0.72193986	0.70722377	3.06903005
-0.72132379	0.70795715	3.06903434
-0.71691257	0.71023965	3.06904912
-0.71621668	0.71371090	3.06906867
-0.71431929	0.71407902	3.06907153
-0.71374100	0.71750468	3.06909084
-0.71211600	0.72128755	3.06911278
-0.70932627	0.72628498	3.06914186
-0.70854986	0.73411769	3.06918573
-0.70777601	0.73707688	3.06920266
-0.70727623	0.74020219	3.06922030
-0.70618922	0.74273974	3.06923485
-0.70553362	0.74402964	3.06924224
-0.70375293	0.74597734	3.06925392
-0.70232522	0.74697828	3.06926012
-0.70034891	0.74845976	3.06926942
-0.69988894	0.75021589	3.06927919
-0.69694525	0.75012922	3.06928015
-0.69652355	0.75376576	3.06930065
-0.69478267	0.75434452	3.06930447
-0.69110370	0.75828564	3.06932807
-0.68801111	0.76443744	3.06936383
-0.67919064	0.76494133	3.06937051
-0.67845654	0.76653230	3.06937957
-0.67598212	0.76788998	3.06938815
-0.67246097	0.76960468	3.06939936
-0.67176604	0.77145123	3.06940985
-0.66820580	0.77291012	3.06941962
-0.66395068	0.77621567	3.06943989
-0.66074181	0.77997613	3.06946230
-0.65718168	0.78143501	3.06947207
-0.65474659	0.78223610	3.06947756
-0.64952493	0.78234935	3.06948042
-0.64612257	0.78158218	3.06947756
-0.63935608	0.78192860	3.06948256
-0.63870013	0.78403085	3.06949449
-0.63336086	0.78418869	3.06949759
-0.63266587	0.78603524	3.06950831
-0.62497026	0.78669387	3.06951523
-0.62257302	0.79018712	3.06953573
-0.62017661	0.79205644	3.06954741
-0.61576706	0.79109013	3.06954384
-0.61042869	0.78962386	3.06953788
-0.60547978	0.79233879	3.06955528
-0.59681708	0.79061681	3.06954956
-0.58916080	0.79071885	3.06955338
-0.58653063	0.79024136	3.06955194
-0.57632202	0.79118967	3.06956148
-0.57477671	0.79223520	3.06956816
-0.57133484	0.79202479	3.06956840
-0.56804961	0.79202491	3.06956983
-0.56363994	0.79105872	3.06956649
-0.55954307	0.79132646	3.06956959
-0.55614030	0.79137176	3.06957150
-0.55262041	0.79064989	3.06956887
-0.54832792	0.79045075	3.06956959
-0.54678309	0.79068410	3.06957173
-0.54407489	0.78969514	3.06956744
-0.54078913	0.79050756	3.06957340
-0.53293818	0.78851867	3.06956553
-0.53026903	0.78778547	3.06956267
-0.52184057	0.78759837	3.06956530
-0.37244767	0.71619993	3.06923246
-0.36797312	0.71061307	3.06920338
-0.36580205	0.71000397	3.06920075
-0.36514908	0.70642042	3.06918120
-0.36383331	0.70616388	3.06918025
-0.36398652	0.70357418	3.06916571
-0.36392117	0.69976586	3.06914449
-0.36376503	0.69874299	3.06913900
-0.36009151	0.69212472	3.06910372
-0.35901129	0.68166751	3.06904578
-0.35661659	0.68028796	3.06903911
-0.35519052	0.67803955	3.06902719
-0.35312000	0.67703342	3.06902266
-0.35321757	0.67302316	3.06900024
-0.35283151	0.67164272	3.06899261
-0.35128832	0.66862708	3.06897640
-0.35093704	0.66632557	3.06896377
-0.35070279	0.66479123	3.06895542
-0.35067102	0.66249895	3.06894255
-0.35151404	0.65603799	3.06890631
-0.34896365	0.65282321	3.06888938
-0.34876209	0.65195704	3.06888461
-0.34768435	0.64839739	3.06886530
-0.34788379	0.64155418	3.06882715
-0.34680223	0.63353354	3.06878281
-0.34506521	0.62680280	3.06874609
-0.34502867	0.62167406	3.06871748
-0.34483436	0.61877072	3.06870151
-0.34340876	0.61571050	3.06868505
-0.34220842	0.61017150	3.06865454
-0.34062496	0.60933673	3.06865072
-0.33970726	0.60878849	3.06864810
-0.33947304	0.60725415	3.06863952
-0.33834910	0.60547543	3.06863022
-0.33861426	0.60162830	3.06860852
-0.33811656	0.60069227	3.06860352
-0.33776608	0.59676665	3.06858182
-0.33564594	0.59474057	3.06857133
-0.33525643	0.59055865	3.06854820
-0.33506125	0.58928001	3.06854129
-0.33587670	0.58170354	3.06849861
-0.33510488	0.58060157	3.06849289
-0.33394319	0.57613063	3.06846833
-0.33309507	0.57126904	3.06844163
-0.33216795	0.56752002	3.06842113
-0.32961753	0.56430525	3.06840444
-0.32706630	0.56271458	3.06839657
-0.32591355	0.56225669	3.06839466
-0.32467127	0.56214726	3.06839442
-0.32439926	0.55792069	3.06837106
-0.32398131	0.55424738	3.06835079
-0.32386461	0.55266786	3.06834197
-0.32162946	0.54581350	3.06830478
-0.31845152	0.54419231	3.06829715
-0.31821901	0.53940928	3.06827068
-0.31748670	0.53775120	3.06826162
-0.31659785	0.53588271	3.06825161
-0.31586468	0.53584880	3.06825185
-0.31481838	0.53539383	3.06824970
-0.31454808	0.52791858	3.06820822
-0.31026703	0.52685905	3.06820416
-0.30922157	0.52477944	3.06819296
-0.30940950	0.51879668	3.06815958
-0.30685782	0.51801819	3.06815624
-0.30566645	0.51649237	3.06814837
-0.30554974	0.51491284	3.06813955
-0.30446571	0.51176512	3.06812239
-0.30326369	0.50947499	3.06811023
-0.30126020	0.50902843	3.06810856
-0.30102599	0.50749409	3.06810021
-0.30102766	0.50424528	3.06808209
-0.29901442	0.50140983	3.06806707
-0.29885826	0.50038695	3.06806159
-0.29654211	0.49870643	3.06805325
-0.29345328	0.49754870	3.06804800
-0.29375789	0.49314541	3.06802344
-0.29302517	0.49229917	3.06801891
-0.29027960	0.48780584	3.06799507
-0.29024139	0.48592597	3.06798458
-0.28873605	0.48560244	3.06798363
-0.28666553	0.48459655	3.06797886
-0.28589329	0.48430687	3.06797743
-0.28541297	0.48291105	3.06797004
-0.28468066	0.48125249	3.06796098
-0.28190544	0.47970396	3.06795359
-0.28201321	0.47727036	3.06794000
-0.28182900	0.47594374	3.06793261
-0.28146589	0.47531497	3.06792927
-0.28077209	0.47472453	3.06792641
-0.27976567	0.47290111	3.06791663
-0.27799731	0.47236431	3.06791449
-0.27756754	0.47036314	3.06790352
-0.27532893	0.47000629	3.06790233
-0.27551520	0.46727252	3.06788707
-0.27432334	0.46655846	3.06788373
-0.27450961	0.46382391	3.06786823
-0.27316171	0.46208745	3.06785917
-0.27283153	0.46131402	3.06785512
-0.27267540	0.46029109	3.06784940
-0.27228504	0.45773375	3.06783533
-0.27089718	0.45736575	3.06783390
-0.27037746	0.45652592	3.06782937
-0.27022180	0.45469064	3.06781936
-0.26937276	0.45145369	3.06780148
-0.26791871	0.44890141	3.06778789
-0.26695132	0.44733334	3.06777978
-0.26581678	0.44479024	3.06776595
-0.26500595	0.44343323	3.06775880
-0.26392365	0.43703723	3.06772351
-0.26237962	0.43564582	3.06771660
-0.26048517	0.43032908	3.06768775
-0.25870699	0.42740387	3.06767225
-0.25534490	0.42445600	3.06765723
-0.25372326	0.42174131	3.06764269
-0.25275588	0.42017323	3.06763458
-0.25263882	0.41940600	3.06763029
-0.25032303	0.41691321	3.06761742
-0.24927759	0.41483408	3.06760621
-0.24862376	0.41287512	3.06759548
-0.24785197	0.41177326	3.06758976
-0.24753924	0.41053987	3.06758308
-0.24738309	0.40951699	3.06757736
-0.24680734	0.40806955	3.06756949
-0.24332736	0.40597916	3.06755948
-0.24394466	0.40280890	3.06754160
-0.24317290	0.40170753	3.06753564
-0.24174771	0.39783496	3.06751466
-0.23957792	0.39478892	3.06749868
-0.23953971	0.39290851	3.06748819
-0.23815185	0.39254040	3.06748676
-0.23783916	0.39130700	3.06748009
-0.23714627	0.38909239	3.06746793
-0.23625696	0.38803571	3.06746244
-0.23366715	0.38537747	3.06744885
-0.23358949	0.38405365	3.06744146
-0.23274094	0.38000423	3.06741929
-0.23165849	0.37360787	3.06738400
-0.23019302	0.37191594	3.06737518
-0.23073232	0.36823475	3.06735444
-0.22899312	0.36556524	3.06734037
-0.22919086	0.36197031	3.06732035
-0.22810593	0.36044723	3.06731224
-0.22628780	0.35889095	3.06730437
-0.22397125	0.35802221	3.06730056
-0.22153881	0.35395044	3.06727886
-0.21956375	0.35299546	3.06727457
-0.21778594	0.34925783	3.06725430
-0.21434501	0.34742266	3.06724572
-0.21419010	0.34396321	3.06722641
-0.21353540	0.34362906	3.06722498
-0.21233469	0.33890235	3.06719899
-0.20990101	0.33726650	3.06719089
-0.20731108	0.33460838	3.06717730
-0.20375343	0.33119428	3.06715989
-0.20286405	0.33013755	3.06715441
-0.20112456	0.32828027	3.06714463
-0.19869164	0.32502031	3.06712770
-0.19629663	0.32445306	3.06712556
-0.19528973	0.32344145	3.06712031
-0.19432241	0.32187325	3.06711197
-0.19293459	0.32150525	3.06711054
-0.19262271	0.31864715	3.06709480
-0.18856657	0.31592172	3.06708121
-0.18833189	0.31519920	3.06707740
-0.18755965	0.31491023	3.06707621
-0.18613359	0.31266171	3.06706429
-0.18589978	0.31031507	3.06705117
-0.18334943	0.30710030	3.06703448
-0.17979045	0.30612260	3.06703043
-0.17534180	0.30490059	3.06702566
-0.17282967	0.30356616	3.06701922
-0.16792193	0.30247641	3.06701541
-0.16772678	0.30119771	3.06700826
-0.16586962	0.29938513	3.06699896
-0.16011170	0.29749417	3.06699109
-0.15910518	0.29567033	3.06698132
-0.15817645	0.29517031	3.06697893
-0.14274763	0.29298282	3.06697345
-0.13606009	0.29221594	3.06697202
-0.13509230	0.29146004	3.06696820
-0.13428147	0.29010302	3.06696105
-0.12561846	0.28919339	3.06695986
-0.11541048	0.28851700	3.06696033
-0.10427298	0.28896528	3.06696773
-0.09240057	0.29262829	3.06699347
-0.08996563	0.29342955	3.06699896
-0.07031774	0.30048811	3.06704688
-0.05972371	0.31020176	3.06710553
-0.05283636	0.31709093	3.06714702
-0.04703501	0.32306612	3.06718278
-0.03921760	0.33189172	3.06723547
-0.03442276	0.33969074	3.06728101
-0.03178960	0.34489858	3.06731129
-0.03063519	0.34768903	3.06732726
-0.02706959	0.35970682	3.06739593
-0.02621714	0.36296684	3.06741428
-0.02451147	0.37111145	3.06746054
-0.01885542	0.39922667	3.06761980
-0.01628179	0.42891192	3.06778622
-0.02056161	0.44170588	3.06785583
-0.02144930	0.44601142	3.06787944
-0.02267205	0.45064205	3.06790471
-0.02270724	0.45820773	3.06794691
-0.02286338	0.45923060	3.06795239
-0.02297881	0.46324611	3.06797481
-0.02321303	0.46478033	3.06798315
-0.02466030	0.46855694	3.06800365
-0.02469851	0.47043729	3.06801414
-0.02465817	0.47261798	3.06802630
-0.02469683	0.47368613	3.06803226
-0.02584916	0.47495624	3.06803870
-0.02570241	0.47713414	3.06805110
-0.02613216	0.47913474	3.06806207
-0.02628830	0.48015764	3.06806755
-0.02631375	0.48533496	3.06809640
-0.02631340	0.48614669	3.06810093
-0.02646953	0.48716962	3.06810665
-0.02638932	0.49071941	3.06812644
-0.02766991	0.49270862	3.06813693
-0.02812726	0.49582541	3.06815410
-0.02828339	0.49684832	3.06815982
-0.02871143	0.50209826	3.06818891
-0.02871067	0.50372243	3.06819797
-0.02971793	0.50392163	3.06819868
-0.02967800	0.50529063	3.06820631
-0.03022367	0.51049495	3.06823492
-0.03022239	0.51293147	3.06824851
-0.03053467	0.51497722	3.06825995
-0.03067939	0.51686049	3.06827021
-0.03107014	0.51860535	3.06827974
-0.03118727	0.51937264	3.06828403
-0.03130315	0.52257669	3.06830192
-0.03286447	0.52350718	3.06830645
-0.03288570	0.52503574	3.06831479
-0.03284547	0.52721655	3.06832719
-0.03286193	0.52838075	3.06833363
-0.03355574	0.52897072	3.06833649
-0.03386790	0.53101641	3.06834793
-0.03418018	0.53306222	3.06835914
-0.03409927	0.53823614	3.06838799
-0.03488159	0.54010171	3.06839800
-0.03510472	0.54168415	3.06840682
-0.03577015	0.54278266	3.06841254
-0.03541578	0.54616642	3.06843162
-0.03569921	0.54953313	3.06845021
-0.03589360	0.55243587	3.06846642
-0.03577513	0.55410516	3.06847572
-0.03581379	0.55517328	3.06848168
-0.03600686	0.56051302	3.06851125
-0.03646560	0.56119335	3.06851482
-0.03716863	0.56498402	3.06853580
-0.03835960	0.56732225	3.06854820
-0.03863322	0.56830001	3.06855369
-0.03855348	0.57103735	3.06856894
-0.03882717	0.57201564	3.06857419
-0.03979490	0.57277143	3.06857800
-0.04071224	0.57413143	3.06858516
-0.04070077	0.57499182	3.06858993
-0.03975084	0.58226162	3.06863093
-0.03986751	0.58384120	3.06863976
-0.04067748	0.58682287	3.06865597
-0.04016582	0.59162033	3.06868291
-0.04101525	0.59404540	3.06869602
-0.04183501	0.59941566	3.06872559
-0.04201828	0.60236710	3.06874204
-0.04391479	0.60362303	3.06874824
-0.04341466	0.60756004	3.06877041
-0.04394840	0.61443698	3.06880856
-0.04398578	0.61794162	3.06882787
-0.04603808	0.62103283	3.06884432
-0.04615471	0.62261230	3.06885314
-0.04627178	0.62337953	3.06885719
-0.04542501	0.62785184	3.06888270
-0.04704158	0.62854207	3.06888580
-0.04583059	0.63400984	3.06891680
-0.04575130	0.63593483	3.06892753
-0.04578948	0.63781470	3.06893802
-0.00000563	0.80438864	3.06988645
-0.01282349	0.85629845	3.07017016
-0.01707572	0.85867828	3.07018161
-0.14587119	0.97395986	3.07076812
-0.14629041	0.97519672	3.07077479
-0.14586999	0.97639686	3.07078171
-0.14903606	0.97969019	3.07079864
-0.14915314	0.98045737	3.07080293
-0.15163606	0.98392451	3.07082129
-0.15426454	0.98765075	3.07084084
-0.16215162	0.99558079	3.07088161
-0.16639191	0.99963343	3.07090235
-0.16713575	1.00043106	3.07090640
-0.17338973	1.00650680	3.07093763
-0.17884310	1.01280141	3.07097030
-0.18212631	1.01686192	3.07099152
-0.18406101	1.01999772	3.07100821
-0.18708065	1.02465701	3.07103276
-0.19419427	1.03473401	3.07108593
-0.20087859	1.04199815	3.07112336
-0.20103468	1.04302108	3.07112908
-0.20273478	1.04543531	3.07114172
-0.25630966	1.10233903	3.07143569
-0.25719815	1.10501993	3.07145023
-0.25735387	1.10685515	3.07146049
-0.26342204	1.11485291	3.07150221
-0.27038035	1.12228251	3.07154059
-0.27548158	1.12789977	3.07156968
-0.32310453	1.17919791	3.07183504
-0.32587388	1.18281901	3.07185388
-0.32727659	1.18512750	3.07186627
-0.32654294	1.18590593	3.07187080
-0.32812557	1.18836510	3.07188392
-0.32812467	1.18998909	3.07189298
-0.32909209	1.19155741	3.07190132
-0.33015496	1.19317651	3.07190990
-0.33158094	1.19542503	3.07192183
-0.33183727	1.19686270	3.07192969
-0.33113885	1.19838142	3.07193851
-0.33231759	1.20073164	3.07195091
-0.33124158	1.20322180	3.07196546
-0.33253437	1.20519912	3.07197571
-0.33286321	1.20593596	3.07197976
-0.33332780	1.20701671	3.07198548
-0.33221829	1.21046281	3.07200527
-0.33333504	1.21180546	3.07201219
-0.33353147	1.21312022	3.07201958
-0.33275673	1.21523094	3.07203174
-0.33319336	1.21600795	3.07203579
-0.33323196	1.21707547	3.07204175
-0.33396426	1.21873343	3.07205057
-0.33425021	1.21969986	3.07205582
-0.33387393	1.22070718	3.07206178
-0.33302280	1.22153020	3.07206655
-0.33531010	1.22453153	3.07208228
-0.33509797	1.22537374	3.07208705
-0.33285779	1.22826529	3.07210422
-0.33352306	1.22936380	3.07211018
-0.33403093	1.23187637	3.07212377
-0.33395201	1.23298907	3.07213020
-0.33286542	1.23471487	3.07214022
-0.33189678	1.23558378	3.07214546
-0.33201218	1.23959923	3.07216787
-0.33466274	1.24322939	3.07218695
-0.33446628	1.24438727	3.07219338
-0.33586431	1.24633193	3.07220364
-0.33594197	1.24765563	3.07221103
-0.33628309	1.24838054	3.07221484
-0.33640021	1.24914777	3.07221913
-0.33598524	1.25156009	3.07223272
-0.33668959	1.25291431	3.07223988
-0.33668238	1.25495088	3.07225132
-0.33710152	1.25618732	3.07225800
-0.33725768	1.25721025	3.07226372
-0.33717877	1.25832343	3.07226992
-0.33729503	1.26071477	3.07228327
-0.33826241	1.26228297	3.07229161
-0.33675617	1.26358414	3.07229948
-0.33710837	1.26426148	3.07230306
-0.33818650	1.26700878	3.07231784
-0.33721787	1.26787710	3.07232308
-0.33853233	1.27057064	3.07233763
-0.33774355	1.27158940	3.07234359
-0.33812368	1.27257061	3.07234883
-0.33896250	1.27423143	3.07235789
-0.33973432	1.27533340	3.07236362
-0.33677194	1.27814353	3.07238054
-0.33815810	1.28176045	3.07240009
-0.33754119	1.28411853	3.07241344
-0.33765829	1.28488564	3.07241774
-0.33757851	1.28762305	3.07243299
-0.33930543	1.29030454	3.07244730
-0.33910426	1.29109859	3.07245183
-0.33941108	1.29193223	3.07245636
-0.33956721	1.29295516	3.07246184
-0.33922523	1.29385424	3.07246709
-0.33998552	1.29581606	3.07247782
-0.33938056	1.29650128	3.07248187
-0.33992746	1.29926908	3.07249689
-0.34026858	1.29999447	3.07250094
-0.34049216	1.30076456	3.07250500
-0.34089440	1.30164957	3.07250977
-0.34112906	1.30237162	3.07251382
-0.34058046	1.30285263	3.07251668
-0.33891723	1.30475533	3.07252789
-0.33968773	1.30829358	3.07254744
-0.34002894	1.30901849	3.07255125
-0.34045911	1.31020737	3.07255769
-0.34003866	1.31140697	3.07256460
-0.34056857	1.31382334	3.07257771
-0.33975565	1.31652701	3.07259321
-0.34008577	1.31729984	3.07259750
-0.34019184	1.31811571	3.07260203
-0.34331799	1.32277751	3.07262659
-0.34327218	1.32374644	3.07263207
-0.34125638	1.32578397	3.07264423
-0.34198871	1.32744193	3.07265306
-0.34206638	1.32876575	3.07266045
-0.34311184	1.33084536	3.07267165
-0.34495705	1.33433008	3.07269025
-0.34562227	1.33542871	3.07269597
-0.34647173	1.33785379	3.07270932
-0.34640306	1.34054303	3.07272434
-0.34708530	1.34199333	3.07273197
-0.34743747	1.34267092	3.07273555
-0.34651801	1.34537148	3.07275105
-0.35029843	1.35118032	3.07278180
-0.35227221	1.35457182	3.07279992
-0.35275888	1.35555577	3.07280517
-0.35339573	1.35716295	3.07281375
-0.35284716	1.35764384	3.07281685
-0.35296428	1.35841107	3.07282090
-0.35516164	1.36257267	3.07284331
-0.35517186	1.36414933	3.07285190
-0.35528770	1.36735296	3.07286978
-0.35625336	1.37217009	3.07289624
-0.35721987	1.37536240	3.07291365
-0.35961330	1.37917840	3.07293391
-0.36587623	1.38926673	3.07298732
-0.36819243	1.39094722	3.07299566
-0.36919925	1.39195871	3.07300091
-0.37198430	1.39589620	3.07302165
-0.37360719	1.39617372	3.07302237
-0.37696928	1.39912164	3.07303739
-0.37793666	1.40068984	3.07304573
-0.37924600	1.40135872	3.07304883
-0.38110313	1.40317130	3.07305813
-0.38292077	1.40553999	3.07307053
-0.38446516	1.40611863	3.07307315
-0.38717297	1.40791988	3.07308197
-0.38821927	1.40837479	3.07308412
-0.38960710	1.40874338	3.07308555
-0.39296830	1.41331530	3.07310963
-0.47541955	1.56327248	3.07390952
-0.47856691	1.56946290	3.07394266
-0.47868401	1.57022989	3.07394695
-0.47946644	1.57209563	3.07395697
-0.47856525	1.57271159	3.07396078
-0.47802722	1.57395625	3.07396793
-0.47733271	1.57499051	3.07397413
-0.47709683	1.57670498	3.07398367
-0.47744811	1.57900655	3.07399631
-0.47815248	1.58036077	3.07400370
-0.47776037	1.58105242	3.07400775
-0.47803366	1.58284259	3.07401752
-0.47888267	1.58608007	3.07403517
-0.48000655	1.58785868	3.07404470
-0.47945797	1.58833981	3.07404757
-0.47983646	1.59009671	3.07405710
-0.47951740	1.59174776	3.07406664
-0.47971770	1.59257829	3.07407117
-0.48000365	1.59354401	3.07407641
-0.48025399	1.59458232	3.07408190
-0.47974443	1.59531856	3.07408643
-0.47840112	1.59641850	3.07409310
-0.47681642	1.59802067	3.07410264
-0.47750336	1.59983540	3.07411242
-0.47761962	1.60222673	3.07412577
-0.47750166	1.60308361	3.07413054
-0.47785255	1.60619736	3.07414770
-0.47734258	1.60774660	3.07415676
-0.47904226	1.61097229	3.07417393
-0.47965708	1.61267543	3.07418323
-0.47942120	1.61438990	3.07419276
-0.47896171	1.61533439	3.07419825
-0.47931385	1.61601114	3.07420182
-0.48209846	1.62076044	3.07422709
-0.48276377	1.62185872	3.07423306
-0.48237166	1.62255049	3.07423687
-0.48282990	1.62404287	3.07424521
-0.48306456	1.62476504	3.07424903
-0.48327667	1.62639546	3.07425809
-0.48302382	1.62775803	3.07426572
-0.48327541	1.62883246	3.07427168
-0.48240221	1.62975168	3.07427716
-0.48270863	1.63139749	3.07428622
-0.48313415	1.63222218	3.07429051
-0.48314902	1.63416255	3.07430148
-0.48259532	1.63509154	3.07430673
-0.48338282	1.63650918	3.07431436
-0.48295721	1.63815725	3.07432365
-0.48283249	1.64023852	3.07433534
-0.48310620	1.64121687	3.07434082
-0.48090583	1.64274001	3.07435012
-0.48403159	1.64821398	3.07437944
-0.48445034	1.65026331	3.07439065
-0.48387331	1.65125227	3.07439637
-0.48487887	1.65470040	3.07441521
-0.48511270	1.65704703	3.07442808
-0.48611909	1.65887094	3.07443786
-0.48774028	1.66239750	3.07445669
-0.48885274	1.66503668	3.07447100
-0.48896986	1.66580379	3.07447529
-0.48900846	1.66687179	3.07448125
-0.48967332	1.66878259	3.07449150
-0.49032721	1.67074156	3.07450223
-0.49063987	1.67197502	3.07450891
-0.49156785	1.67409921	3.07452035
-0.49241683	1.67733669	3.07453799
-0.50163746	1.69354951	3.07462430
-0.50197858	1.69427443	3.07462835
-0.50187135	1.69589567	3.07463741
-0.50417513	1.70006132	3.07465959
-0.50462657	1.70277762	3.07467461
-0.50283438	1.70558560	3.07469106
-0.51776642	1.72628200	3.07479978
-0.55735415	1.75319541	3.07493258
-0.56581998	1.75688756	3.07494950
-0.56926221	1.75628567	3.07494450
-0.57088506	1.75656402	3.07494545
-0.58205956	1.76043260	3.07496214
-0.58631217	1.76200008	3.07496905
-0.59072179	1.76296639	3.07497239
-0.59671485	1.76476741	3.07498002
-0.59841710	1.76312017	3.07497001
-0.59926778	1.76310873	3.07496953
-0.60081220	1.76368809	3.07497215
-0.60235739	1.76264238	3.07496572
-0.60502660	1.76337552	3.07496858
-0.61724734	1.76769924	3.07498741
-0.62749261	1.77187967	3.07500625
-0.63344628	1.77423739	3.07501674
-0.70799047	1.80119729	3.07513452
-0.83233255	1.85168624	3.07536173
-0.84249896	1.85697997	3.07538676
-0.85282230	1.86167240	3.07540846
-0.85958713	1.86457491	3.07542157
-0.86059397	1.86558640	3.07542682
-0.86987096	1.86982322	3.07544637
-0.87091732	1.87027836	3.07544851
-0.87261826	1.87106800	3.07545209
-0.87323350	1.87195873	3.07545686
-0.87601936	1.87427139	3.07546854
-0.87609702	1.87559533	3.07547593
-0.88290042	1.87956524	3.07549500
-0.88630235	1.88114464	3.07550240
-0.88881463	1.88247907	3.07550883
-0.89496332	1.88611495	3.07552624
-0.89666432	1.88690448	3.07553005
-0.89840436	1.88794994	3.07553506
-0.90358490	1.89164233	3.07555342
-0.91220683	1.89635682	3.07557583
-0.91990006	1.90057170	3.07559609
-0.92759359	1.90397429	3.07561159
-0.93099558	1.90555310	3.07561898
-0.97213149	1.92573571	3.07571363
-1.00286937	1.93421686	3.07574749
-1.05263519	1.94368267	3.07577848
-1.05773914	1.94442701	3.07578039
-1.09953773	1.94951200	3.07579041
-1.10212874	1.94973397	3.07579064
-1.12246656	1.95057464	3.07578635
-1.16678536	1.94156265	3.07571697
-1.17869651	1.93896770	3.07569718
-1.18890595	1.93639517	3.07567835
-1.21338689	1.92341745	3.07559538
-1.22866464	1.91483593	3.07554078
-1.24719191	1.89950037	3.07544732
-1.25311148	1.89185596	3.07540202
-1.25612521	1.88681686	3.07537270
-1.26305461	1.87449813	3.07530093
-1.27226412	1.85791874	3.07520461
-1.28273499	1.83773994	3.07508755
-1.30424023	1.74987817	3.07458830
-1.30428076	1.74688506	3.07457161
-1.30501568	1.74366999	3.07455349
-1.30521381	1.73926330	3.07452869
-1.30359304	1.73492408	3.07450533
-1.30474877	1.72969711	3.07447577
-1.30474925	1.72888470	3.07447124
-1.30378306	1.72487998	3.07444930
-1.30305052	1.72403431	3.07444477
-1.30293405	1.72164249	3.07443166
-1.30285728	1.71869469	3.07441521
-1.30054152	1.71620226	3.07440233
-1.29988682	1.71586752	3.07440066
-1.30030859	1.71223092	3.07438016
-1.29868698	1.70951676	3.07436585
-1.29849219	1.70742583	3.07435417
-1.29772127	1.70469975	3.07433939
-1.29694915	1.70441008	3.07433820
-1.29606056	1.70172930	3.07432342
-1.29532778	1.70088363	3.07431912
-1.29598713	1.69228363	3.07427096
-1.29409313	1.68615460	3.07423759
-1.29173756	1.68503022	3.07423234
-1.29154277	1.68293989	3.07422066
-1.28984344	1.67890131	3.07419896
-1.28775299	1.67393017	3.07417226
-1.28346300	1.66885829	3.07414579
-1.27147806	1.66281950	3.07411742
-1.26935709	1.66241813	3.07411599
-1.26544607	1.66076314	3.07410860
-1.25466275	1.65782762	3.07409692
-1.22805846	1.65420747	3.07408834
-1.22632051	1.64910150	3.07406068
-1.22531354	1.64808989	3.07405543
-1.21998584	1.64738774	3.07405376
-1.21848142	1.64544034	3.07404351
-1.20947886	1.63808370	3.07400656
-1.20441747	1.63109791	3.07396984
-1.18843102	1.62785077	3.07395864
-1.18865299	1.62009895	3.07391524
-1.18442845	1.61883533	3.07391024
-1.18319714	1.61867785	3.07390976
-1.18131709	1.61858594	3.07391000
-1.17547977	1.61862016	3.07391286
-1.16564345	1.62339807	3.07394385
-1.15995681	1.61394477	3.07389355
-1.14176381	1.62193131	3.07394600
-1.14118767	1.62129641	3.07394266
-1.13971031	1.62127662	3.07394314
-1.12950444	1.61653960	3.07392120
-1.11106777	1.58695173	3.07376432
-1.07309592	1.59519243	3.07382679
-1.06849027	1.59457207	3.07382536
-1.06698525	1.59343672	3.07381964
-1.06195962	1.59320366	3.07382059
-1.05256712	1.58495092	3.07377863
-1.04340434	1.58716643	3.07379508
-1.03980851	1.58187175	3.07376719
-1.03752410	1.57318568	3.07371974
-1.03153014	1.57300937	3.07372141
-1.02511621	1.57322073	3.07372522
-1.01356030	1.57080734	3.07371688
-1.01178384	1.56463337	3.07368326
-1.00753033	1.56468987	3.07368541
-1.00501049	1.55690598	3.07364321
-1.00060165	1.55431485	3.07363057
-0.99213630	1.54981101	3.07360911
-0.98861766	1.54665267	3.07359314
-0.97852772	1.54511929	3.07358909
-0.97493064	1.54226136	3.07357454
-0.97071737	1.54013729	3.07356453
-0.96743250	1.53932548	3.07356143
-0.96229017	1.53751302	3.07355356
-0.95378494	1.53437757	3.07353997
-0.95188844	1.53312159	3.07353377
-0.94794852	1.53278756	3.07353354
-0.94334406	1.52973032	3.07351851
-0.94055867	1.52660584	3.07350230
-0.93031299	1.52323735	3.07348800
-0.92710704	1.52131236	3.07347870
-0.92235583	1.52043295	3.07347584
-0.92212170	1.51889873	3.07346749
-0.91921955	1.51419473	3.07344246
-0.91566193	1.51078057	3.07342505
-0.90515274	1.50801039	3.07341409
-0.90193707	1.50369716	3.07339144
-0.89629656	1.50176108	3.07338309
-0.89475214	1.50118244	3.07338047
-0.89509583	1.49703431	3.07335734
-0.89416707	1.49653423	3.07335496
-0.88933784	1.49514341	3.07334924
-0.88601404	1.49407601	3.07334471
-0.88403934	1.49230862	3.07333589
-0.88384420	1.49102998	3.07332873
-0.88033575	1.48944783	3.07332134
-0.87286657	1.48519111	3.07330108
-0.87151819	1.48426640	3.07329631
-0.87020880	1.48359752	3.07329321
-0.87009168	1.48283029	3.07328916
-0.86823463	1.48101830	3.07327986
-0.86552644	1.48002934	3.07327533
-0.86564475	1.47835958	3.07326603
-0.91858882	1.31432509	3.07232857
-0.92373210	1.31451297	3.07232738
-0.92845482	1.31590033	3.07233310
-0.93150717	1.31192935	3.07230949
-0.93235826	1.31110561	3.07230449
-0.93854904	1.30931175	3.07229185
-0.93916595	1.30695379	3.07227850
-0.94338167	1.30420506	3.07226133
-0.94957203	1.30322349	3.07225323
-0.95386535	1.30179846	3.07224345
-0.96221995	1.29335225	3.07219267
-0.96883196	1.28873420	3.07216406
-0.97320342	1.28782070	3.07215691
-0.97989273	1.28533816	3.07214022
-0.98201460	1.28411591	3.07213259
-0.98755020	1.28279960	3.07212281
-0.99865007	1.27965927	3.07210040
-0.99996156	1.27626705	3.07208085
-1.00004077	1.27434194	3.07207012
-1.00684834	1.27019072	3.07204413
-1.01307952	1.26621556	3.07201910
-1.01454663	1.26465857	3.07200980
-1.01721811	1.26133108	3.07199001
-1.02151179	1.25909376	3.07197571
-1.02742934	1.25550985	3.07195330
-1.02986515	1.25308406	3.07193875
-1.03141117	1.25041425	3.07192302
-1.03303540	1.24825561	3.07191038
-1.03481603	1.24630797	3.07189870
-1.03651786	1.24547291	3.07189322
-1.03744745	1.24434888	3.07188654
-1.03814197	1.24331450	3.07188058
-1.03782976	1.24126887	3.07186937
-1.04057872	1.23926473	3.07185698
-1.04340577	1.23777199	3.07184744
-1.04413939	1.23699343	3.07184267
-1.04503000	1.23561358	3.07183456
-1.04665494	1.23183072	3.07181287
-1.04758418	1.23151851	3.07181072
-1.04754555	1.23045039	3.07180476
-1.04816294	1.22728062	3.07178688
-1.04788995	1.22467804	3.07177234
-1.05164623	1.22287381	3.07176065
-1.05307651	1.21699977	3.07172728
-1.05400693	1.21425116	3.07171154
-1.05474174	1.21103609	3.07169342
-1.05563354	1.20721936	3.07167172
-1.05636811	1.20481682	3.07165813
-1.05733669	1.20394790	3.07165265
-1.05710304	1.20160174	3.07163978
-1.05811059	1.20098865	3.07163596
-1.05764210	1.19791996	3.07161903
-1.05892396	1.19747281	3.07161593
-1.05914915	1.19499445	3.07160211
-1.05895400	1.19371593	3.07159495
-1.06058836	1.19313371	3.07159114
-1.06035411	1.19159937	3.07158256
-1.06061852	1.18937635	3.07157016
-1.06403267	1.18847072	3.07156348
-1.06484604	1.18495464	3.07154369
-1.06550324	1.18041599	3.07151794
-1.06615961	1.17750180	3.07150149
-1.06677699	1.17433155	3.07148361
-1.06701243	1.17342949	3.07147837
-1.06774652	1.17183900	3.07146931
-1.06786609	1.16773283	3.07144618
-1.06802344	1.16631913	3.07143831
-1.06751645	1.16218233	3.07141542
-1.06751859	1.15812171	3.07139277
-1.06728435	1.15658736	3.07138443
-1.06868410	1.15528262	3.07137656
-1.06713200	1.14825451	3.07133794
-1.06849229	1.14750636	3.07133317
-1.06798601	1.14174545	3.07130146
-1.06837809	1.14105403	3.07129741
-1.06814396	1.13951945	3.07128882
-1.06838024	1.13699329	3.07127476
-1.06849813	1.13613582	3.07126975
-1.06907570	1.13433444	3.07125950
-1.06872427	1.13203287	3.07124686
-1.06903839	1.13082981	3.07123995
-1.06961751	1.12577963	3.07121158
-1.06961787	1.12496781	3.07120705
-1.06942308	1.12287688	3.07119560
-1.06958091	1.12065089	3.07118297
-1.06934679	1.11911654	3.07117462
-1.06922960	1.11834931	3.07117033
-1.06908453	1.11727846	3.07116461
-1.06888938	1.11599994	3.07115746
-1.06857705	1.11395407	3.07114625
-1.06931067	1.11317551	3.07114148
-1.06907642	1.11164117	3.07113314
-1.06854045	1.10882533	3.07111764
-1.06858039	1.10745633	3.07111001
-1.06881595	1.10655415	3.07110476
-1.06800687	1.10194826	3.07107949
-1.06781173	1.10066974	3.07107258
-1.06772327	1.09858155	3.07106090
-1.06781399	1.09579611	3.07104540
-1.06776452	1.09477663	3.07103968
-1.06715131	1.08982468	3.07101226
-1.06715214	1.08819997	3.07100320
-1.06703544	1.08662105	3.07099438
-1.06680167	1.08427441	3.07098150
-1.06699824	1.08311641	3.07097507
-1.06761456	1.08157074	3.07096601
-1.06680679	1.07452786	3.07092714
-1.06657267	1.07299352	3.07091880
-1.06637788	1.07090271	3.07090712
-1.06614351	1.06936812	3.07089877
-1.06637990	1.06684208	3.07088447
-1.06638122	1.06440544	3.07087088
-1.06002581	1.02751124	3.07066798
-1.06014407	1.02584195	3.07065868
-1.06010544	1.02477396	3.07065272
-1.06014657	1.02096915	3.07063150
-1.06002951	1.02020192	3.07062721
-1.05894804	1.01218116	3.07058311
-1.05968273	1.00896621	3.07056475
-1.05960691	1.00439358	3.07053924
-1.06045961	1.00032103	3.07051635
-1.06131196	0.99706095	3.07049775
-1.06050456	0.98920614	3.07045436
-1.05965734	0.98271984	3.07041860
-1.05950105	0.98169696	3.07041287
-1.05845821	0.97474432	3.07037449
-1.05857742	0.97145081	3.07035613
-1.05857921	0.96820211	3.07033801
-1.05745816	0.96073800	3.07029700
-1.05842686	0.95986909	3.07029176
-1.05827117	0.95803386	3.07028151
-1.05927956	0.95579672	3.07026863
-1.05912566	0.95071316	3.07024026
-1.05920458	0.94959992	3.07023406
-1.06005561	0.94877678	3.07022905
-1.05958974	0.94083458	3.07018495
-1.06063724	0.93885309	3.07017350
-1.06190968	0.93520552	3.07015276
-1.06245828	0.93472463	3.07014966
-1.06280112	0.93220121	3.07013559
-1.06493402	0.93093032	3.07012749
-1.06574738	0.92741442	3.07010746
-1.06628573	0.92535728	3.07009578
-1.06709921	0.92184138	3.07007599
-1.06961417	0.91749108	3.07005048
-1.07027018	0.91538870	3.07003856
-1.07177782	0.91165102	3.07001710
-1.07375360	0.91098201	3.07001257
-1.07576859	0.91056800	3.07000923
-1.07595515	0.90702164	3.06998944
-1.07889926	0.90629619	3.06998420
-1.07951617	0.90393811	3.06997061
-1.08295894	0.90252435	3.06996131
-1.08497465	0.90048635	3.06994915
-1.08566964	0.89864033	3.06993842
-1.08822262	0.89698166	3.06992817
-1.08914328	0.89184463	3.06989908
-1.09162831	0.89125097	3.06989455
-1.09208858	0.88868254	3.06988025
-1.09398651	0.88750190	3.06987286
-1.09456348	0.88651288	3.06986690
-1.10257447	0.88221478	3.06983948
-1.10412097	0.87873274	3.06981945
-1.10934317	0.87780726	3.06981206
-1.11138809	0.87363654	3.06978798
-1.11359954	0.87206531	3.06977820
-1.11463690	0.86850762	3.06975794
-1.11475480	0.86765015	3.06975293
-1.11677015	0.86642444	3.06974530
-1.11770022	0.86448812	3.06973410
-1.11827803	0.86187482	3.06971931
-1.11885512	0.86088526	3.06971359
-1.12187779	0.85985935	3.06970644
-1.12450874	0.85871220	3.06969905
-1.12520409	0.85605377	3.06968379
-1.12659311	0.85398531	3.06967163
-1.12720931	0.85325146	3.06966734
-1.13003671	0.85094690	3.06965327
-1.13158154	0.85071373	3.06965137
-1.14403999	0.85007399	3.06964231
-1.14600861	0.84214306	3.06959724
-1.15200293	0.84150761	3.06959105
-1.15409636	0.84079337	3.06958604
-1.16094136	0.84014606	3.06957960
-1.16426682	0.83796465	3.06956601
-1.17014754	0.83006454	3.06951928
-1.17185092	0.82598054	3.06949592
-1.17687833	0.82296467	3.06947684
-1.18279409	0.82262975	3.06947231
-1.19130242	0.82007992	3.06945443
-1.19288743	0.81766540	3.06944036
-1.19892132	0.81647336	3.06943107
-1.20994127	0.81607032	3.06942391
-1.21087086	0.81494635	3.06941724
-1.21245563	0.81334412	3.06940770
-1.21384513	0.81046343	3.06939101
-1.22193205	0.81073785	3.06938910
-1.22359478	0.80964720	3.06938219
-1.22474968	0.80604434	3.06936169
-1.22896409	0.80573201	3.06935811
-1.23028612	0.80310404	3.06934285
-1.23187101	0.80150187	3.06933331
-1.23543036	0.80166757	3.06933260
-1.23600769	0.79986620	3.06932235
-1.24211991	0.79837334	3.06931138
-1.24934864	0.79220963	3.06927371
-1.25476623	0.79175037	3.06926894
-1.25654626	0.79142737	3.06926632
-1.27019596	0.79231369	3.06926537
-1.27773428	0.79306918	3.06926608
-1.27789211	0.79084325	3.06925368
-1.27959430	0.78919649	3.06924391
-1.28458440	0.78267550	3.06920528
-1.28702092	0.77862597	3.06918168
-1.29019022	0.77542168	3.06916237
-1.29331946	0.77439868	3.06915522
-1.29378986	0.77340615	3.06914949
-1.29424942	0.77246225	3.06914401
-1.29587317	0.77111584	3.06913590
-1.30152643	0.76975501	3.06912589
-1.31421006	0.76663655	3.06910300
-1.32697213	0.76321781	3.06907821
-1.33548045	0.76066804	3.06906033
-1.33914757	0.75840020	3.06904626
-1.34305942	0.75843048	3.06904459
-1.34909284	0.75805026	3.06903982
-1.35330713	0.75773793	3.06903625
-1.35825765	0.75177395	3.06900096
-1.35918701	0.75146186	3.06899881
-1.35980332	0.74991620	3.06898975
-1.36348021	0.75003678	3.06898904
-1.36397970	0.74772394	3.06897593
-1.36649346	0.74580956	3.06896400
-1.36827338	0.74548590	3.06896138
-1.37005377	0.74435061	3.06895447
-1.37280226	0.74315870	3.06894660
-1.37446499	0.74206799	3.06893969
-1.37786913	0.73958623	3.06892443
-1.38107729	0.73745000	3.06891108
-1.40509260	0.73678720	3.06889701
-1.40806723	0.73149180	3.06886601
-1.41677022	0.73103309	3.06885982
-1.42345953	0.72855109	3.06884289
-1.42527878	0.72767091	3.06883740
-1.42767549	0.72498989	3.06882119
-1.43104064	0.72225189	3.06880450
-1.43533397	0.72082675	3.06879473
-1.44133222	0.71288139	3.06874776
-1.44357204	0.71080160	3.06873536
-1.44535184	0.71047807	3.06873274
-1.45165920	0.71026373	3.06872869
-1.45214677	0.70962322	3.06872487
-1.45556140	0.70790559	3.06871390
-1.45981574	0.70622420	3.06870270
-1.46054888	0.70625818	3.06870246
-1.46403098	0.70428783	3.06869006
-1.46588886	0.70447564	3.06869030
-1.46704221	0.70412171	3.06868792
-1.47010338	0.70416331	3.06868672
-1.47196138	0.70435119	3.06868696
-1.47710598	0.70210242	3.06867218
-1.48136020	0.70042157	3.06866097
-1.48363853	0.69941002	3.06865430
-1.48506677	0.69759727	3.06864357
-1.48684657	0.69727373	3.06864095
-1.48765874	0.69619429	3.06863451
-1.48951709	0.69557035	3.06863022
-1.49291980	0.69552505	3.06862855
-1.49814105	0.69622421	3.06863022
-1.49914873	0.69561112	3.06862640
-1.50421393	0.69528735	3.06862235
-1.50854683	0.69330567	3.06860948
-1.51051378	0.68862355	3.06858253
-1.51310563	0.68722111	3.06857347
-1.51411343	0.68660796	3.06856966
-1.51465178	0.68455088	3.06855798
-1.52107835	0.68104315	3.06853557
-1.52351475	0.67780495	3.06851649
-1.52521765	0.67453349	3.06849742
-1.52606928	0.67289805	3.06848812
-1.52680326	0.67130709	3.06847882
-1.52769434	0.66911507	3.06846619
-1.52896726	0.66465527	3.06844091
-1.53365135	0.66497463	3.06844044
-1.53535390	0.66251552	3.06842613
-1.53735948	0.65890121	3.06840515
-1.54216123	0.65917599	3.06840444
-1.54440188	0.65547210	3.06838298
-1.54726791	0.65423501	3.06837463
-1.54885173	0.65425754	3.06837416
-1.54978132	0.65313298	3.06836748
-1.55024135	0.65137672	3.06835747
-1.55217779	0.65126431	3.06835604
-1.55279458	0.64890623	3.06834269
-1.55384219	0.64692473	3.06833100
-1.55651176	0.64684558	3.06832957
-1.55801976	0.64229560	3.06830359
-1.55901623	0.64173096	3.06830001
-1.56049538	0.63850129	3.06828117
-1.56160915	0.63870382	3.06828189
-1.56339121	0.63431966	3.06825662
-1.56416368	0.63379681	3.06825352
-1.56470215	0.63173974	3.06824183
-1.56645465	0.63030005	3.06823301
-1.56729496	0.62871265	3.06822371
-1.56873548	0.62441480	3.06819916
-1.57042623	0.62362850	3.06819391
-1.57143474	0.62139124	3.06818104
-1.57414591	0.61669469	3.06815362
-1.57778800	0.60843736	3.06810617
-1.57840478	0.60607934	3.06809282
-1.58212936	0.59021151	3.06800270
-1.58474433	0.57697797	3.06792760
