//X	Y	Z
0.24038319	0.44768542	2.07819867
0.24136466	0.45655257	2.07818127
0.24448775	0.50339168	2.07809043
0.23940578	0.54954696	2.07800245
0.23815283	0.55295694	2.07799625
0.23773840	0.55472666	2.07799292
0.23669143	0.55884588	2.07798505
0.23285046	0.57704461	2.07795095
0.22649631	0.59803021	2.07791185
0.22489554	0.60154748	2.07790542
0.22388180	0.60498786	2.07789898
0.22209844	0.60566229	2.07789803
0.22129223	0.60845286	2.07789278
0.21965931	0.61142933	2.07788754
0.21889624	0.61314082	2.07788444
0.21690187	0.62072754	2.07787013
0.21628191	0.62117827	2.07786942
0.21583477	0.62271225	2.07786655
0.21444239	0.62436026	2.07786369
0.21381049	0.62610006	2.07786059
0.21267955	0.62686419	2.07785940
0.21178694	0.62718844	2.07785892
0.21143945	0.62807059	2.07785726
0.21092723	0.62990826	2.07785392
0.21027362	0.63056779	2.07785273
0.20962046	0.63308215	2.07784796
0.20933570	0.63424456	2.07784581
0.20855245	0.63628644	2.07784200
0.20700659	0.63942993	2.07783628
0.20597175	0.64195538	2.07783175
0.20513386	0.64329076	2.07782936
0.20475203	0.64391136	2.07782817
0.20416552	0.64445847	2.07782722
0.20367524	0.64599162	2.07782435
0.20291308	0.64756358	2.07782149
0.20209575	0.64903891	2.07781887
0.20109564	0.65013623	2.07781696
0.17052448	0.82033753	2.07749557
0.17044482	0.82481325	2.07748699
0.17094408	0.82548398	2.07748556
0.17164856	0.82777852	2.07748103
0.17079751	0.83192724	2.07747316
0.17081842	0.83284223	2.07747149
0.17161116	0.83347464	2.07747006
0.17125051	0.83609009	2.07746506
0.17135841	0.83717203	2.07746291
0.17208534	0.83824760	2.07746077
0.17213902	0.83939815	2.07745838
0.17274651	0.84084600	2.07745552
0.17289735	0.84223378	2.07745290
0.17321174	0.84311020	2.07745099
0.17374367	0.84401679	2.07744908
0.17307810	0.84704506	2.07744360
0.17281538	0.84898299	2.07743979
0.17247668	0.85098916	2.07743597
0.17259425	0.85336041	2.07743144
0.17140424	0.85982031	2.07741928
0.17150122	0.86066687	2.07741761
0.17153096	0.86409074	2.07741094
0.17068946	0.86952883	2.07740068
0.17043805	0.87139720	2.07739711
0.16990188	0.87550783	2.07738924
0.17029208	0.87662095	2.07738709
0.16975628	0.88073170	2.07737923
0.16894782	0.88549078	2.07737041
0.16029344	0.91461551	2.07731605
0.15058219	0.93433154	2.07728028
0.14148575	0.94637573	2.07725906
0.13531759	0.95325363	2.07724714
0.11603488	0.96830738	2.07722235
0.10810705	0.97389150	2.07721329
0.10303972	0.97719103	2.07720804
0.09973394	0.97904080	2.07720518
0.09715693	0.98030221	2.07720327
0.09640698	0.98028046	2.07720351
0.09530898	0.98067057	2.07720304
0.09399349	0.98133570	2.07720208
0.09004618	0.98363572	2.07719851
0.08862159	0.98443842	2.07719731
0.08774120	0.98455352	2.07719707
0.08545801	0.98547173	2.07719588
0.08401193	0.98627394	2.07719469
0.08202220	0.98715365	2.07719350
0.08110870	0.98764288	2.07719278
0.07909720	0.98852229	2.07719135
0.07840162	0.98873663	2.07719111
0.07169291	0.99189425	2.07718658
0.06995336	0.99273491	2.07718539
0.06834447	0.99313343	2.07718492
0.06593107	0.99388385	2.07718396
0.06488709	0.99451017	2.07718301
0.06362616	0.99480176	2.07718277
0.06183261	0.99510127	2.07718253
0.06081045	0.99542320	2.07718205
0.05899558	0.99649745	2.07718039
0.05815820	0.99691826	2.07717991
0.05738655	0.99720085	2.07717943
0.05610416	0.99718714	2.07717991
0.05499435	0.99717665	2.07718015
0.05339710	0.99797601	2.07717896
0.05232023	0.99789631	2.07717919
0.05071118	0.99859977	2.07717824
0.04891752	0.99889946	2.07717800
0.04730864	0.99929804	2.07717776
0.04621079	0.99938321	2.07717776
0.04568986	0.99871212	2.07717919
0.04342806	0.99993563	2.07717729
0.04271112	0.99953985	2.07717824
0.04175489	0.99941850	2.07717872
0.04068982	0.99973953	2.07717824
0.03865571	1.00106287	2.07717609
0.03766652	1.00131547	2.07717586
0.03587285	1.00161505	2.07717562
0.03448166	1.00173891	2.07717586
0.03290562	1.00206828	2.07717538
0.03151421	1.00219214	2.07717562
0.03054704	1.00183547	2.07717657
0.02931888	1.00205767	2.07717633
0.02846013	1.00217342	2.07717633
0.02774265	1.00238740	2.07717609
0.02664492	1.00247264	2.07717609
0.02371030	1.00424147	2.07717323
-0.14744082	1.02727044	2.07716656
-0.14813651	1.02748466	2.07716632
-0.15003917	1.02822673	2.07716537
-0.15055045	1.02884495	2.07716417
-0.15215948	1.02954841	2.07716322
-0.15290961	1.02983141	2.07716298
-0.15521440	1.03044438	2.07716227
-0.15601906	1.03110099	2.07716107
-0.15800886	1.03167593	2.07716036
-0.16148761	1.03274727	2.07715917
-0.16214010	1.03326726	2.07715821
-0.16345575	1.03362751	2.07715797
-0.16398861	1.03424525	2.07715678
-0.16543454	1.03474259	2.07715607
-0.16669574	1.03533900	2.07715535
-0.16778366	1.03610396	2.07715416
-0.17006706	1.03732681	2.07715225
-0.17040436	1.03827918	2.07715034
-0.17228547	1.03932619	2.07714891
-0.17467842	1.04160130	2.07714486
-0.17663531	1.04210722	2.07714438
-0.17891884	1.04363501	2.07714200
-0.18028924	1.04467380	2.07714033
-0.18136603	1.04567409	2.07713866
-0.18263839	1.04603505	2.07713819
-0.18401951	1.04653358	2.07713747
-0.18482405	1.04688537	2.07713699
-0.18472621	1.04759252	2.07713556
-0.18534653	1.04865289	2.07713366
-0.18636923	1.04988956	2.07713151
-0.18726104	1.05037904	2.07713079
-0.18788110	1.05113482	2.07712960
-0.18892506	1.05206585	2.07712793
-0.19120824	1.05267930	2.07712722
-0.19171968	1.05360222	2.07712555
-0.19303548	1.05457211	2.07712412
-0.19480801	1.05548191	2.07712269
-0.19465700	1.05686951	2.07711983
-0.19789645	1.05766630	2.07711911
-0.19850613	1.05849206	2.07711768
-0.19924513	1.05870557	2.07711744
-0.19971402	1.06054389	2.07711387
-0.20234579	1.06248379	2.07711077
-0.20666221	1.06458592	2.07710767
-0.20788161	1.06593227	2.07710528
-0.20959917	1.06724346	2.07710314
-0.20946953	1.06832576	2.07710099
-0.21111199	1.06970811	2.07709885
-0.21209249	1.07138968	2.07709575
-0.21207115	1.07307982	2.07709241
-0.21389805	1.07405818	2.07709098
-0.21522462	1.07448792	2.07709050
-0.21594299	1.07622600	2.07708740
-0.21632405	1.07701206	2.07708597
-0.21677066	1.07763147	2.07708478
-0.21784703	1.07802224	2.07708430
-0.21771757	1.07940936	2.07708144
-0.21828349	1.08009636	2.07708025
-0.21910009	1.08173704	2.07707739
-0.22072084	1.08311975	2.07707500
-0.22249351	1.08433425	2.07707310
-0.22250530	1.08531857	2.07707119
-0.22420201	1.08676946	2.07706881
-0.22562650	1.08757210	2.07706761
-0.22576857	1.08838832	2.07706594
-0.22865981	1.08954835	2.07706451
-0.22880259	1.09050417	2.07706261
-0.22835812	1.09185338	2.07705998
-0.22969443	1.09237850	2.07705927
-0.23142436	1.09389877	2.07705665
-0.23188227	1.09489262	2.07705474
-0.23237234	1.09612095	2.07705259
-0.23280701	1.09683621	2.07705116
-0.23289457	1.09758377	2.07704997
-0.23453654	1.09835625	2.07704878
-0.23552659	1.09982848	2.07704616
-0.23613603	1.10034919	2.07704520
-0.23576793	1.10207164	2.07704186
-0.23649693	1.10296488	2.07704020
-0.23783427	1.10362947	2.07703924
-0.23745517	1.10511684	2.07703638
-0.23879290	1.10608649	2.07703471
-0.23981503	1.10671318	2.07703376
-0.24062064	1.10750937	2.07703233
-0.24114254	1.10836244	2.07703090
-0.24143688	1.10992503	2.07702804
-0.24198174	1.11152709	2.07702494
-0.24307069	1.11304116	2.07702231
-0.24336401	1.11385453	2.07702088
-0.24376826	1.11461437	2.07701945
-0.24595359	1.11623955	2.07701683
-0.24571446	1.11704504	2.07701516
-0.24579111	1.11833286	2.07701278
-0.24756384	1.11924267	2.07701135
-0.24808775	1.11990452	2.07701015
-0.24845770	1.12062097	2.07700896
-0.24920820	1.12151372	2.07700729
-0.24944711	1.12225842	2.07700586
-0.25030777	1.12326276	2.07700419
-0.25040603	1.12424517	2.07700229
-0.25086290	1.12479472	2.07700133
-0.25163418	1.12554765	2.07700014
-0.25135341	1.12632775	2.07699847
-0.25210455	1.12735999	2.07699656
-0.25261623	1.12797832	2.07699561
-0.25311649	1.12913656	2.07699347
-0.25274804	1.13024938	2.07699132
-0.25280318	1.13153744	2.07698870
-0.25428253	1.13224339	2.07698774
-0.25521779	1.13303709	2.07698631
-0.25499386	1.13399982	2.07698441
-0.25489604	1.13470697	2.07698321
-0.25540727	1.13532519	2.07698202
-0.25614825	1.13612235	2.07698059
-0.25584015	1.13684130	2.07697916
-0.25550774	1.13858104	2.07697582
-0.25672668	1.13962245	2.07697415
-0.25705355	1.14033985	2.07697272
-0.25751078	1.14119422	2.07697129
-0.25738072	1.14197147	2.07696962
-0.25776204	1.14306235	2.07696772
-0.25808886	1.14377975	2.07696629
-0.25916547	1.14447510	2.07696533
-0.25900298	1.14518356	2.07696390
-0.25890616	1.14633512	2.07696152
-0.26028809	1.14805305	2.07695866
-0.26136467	1.14905322	2.07695699
-0.26083332	1.15026462	2.07695436
-0.26116121	1.15173125	2.07695174
-0.26291126	1.15280652	2.07695007
-0.26311943	1.15437090	2.07694697
-0.26365224	1.15498853	2.07694602
-0.26331621	1.15617025	2.07694364
-0.26375234	1.15733004	2.07694149
-0.26437202	1.15778077	2.07694077
-0.26427528	1.15862751	2.07693911
-0.26467806	1.15971804	2.07693696
-0.26460248	1.16056406	2.07693529
-0.26517984	1.16193032	2.07693291
-0.26619110	1.16248751	2.07693195
-0.26575720	1.16329646	2.07693028
-0.26546431	1.16417253	2.07692862
-0.26615128	1.16628611	2.07692480
-0.26685899	1.16809416	2.07692146
-0.26762119	1.16966605	2.07691860
-0.26838371	1.17154312	2.07691503
-0.26953626	1.17230678	2.07691383
-0.26925468	1.17325246	2.07691193
-0.27135420	1.17548907	2.07690811
-0.27219233	1.17682457	2.07690573
-0.27326924	1.17812967	2.07690334
-0.27429146	1.17906117	2.07690191
-0.27489078	1.18042707	2.07689929
-0.27484837	1.18164742	2.07689691
-0.27546847	1.18270779	2.07689500
-0.27505729	1.18473577	2.07689118
-0.27753803	1.18775868	2.07688594
-0.27778932	1.18932211	2.07688284
-0.27990997	1.19125342	2.07687950
-0.27951998	1.19236660	2.07687736
-0.28037885	1.19309187	2.07687616
-0.28121707	1.19442725	2.07687378
-0.28210956	1.19583166	2.07687116
-0.28294730	1.19716692	2.07686877
-0.28386101	1.19826579	2.07686687
-0.28456837	1.19915938	2.07686543
-0.28409111	1.20013463	2.07686353
-0.28439677	1.20176685	2.07686043
-0.28512642	1.20357466	2.07685709
-0.28577936	1.20470417	2.07685494
-0.28616107	1.20579517	2.07685304
-0.28764045	1.20758092	2.07684994
-0.29070738	1.20976591	2.07684636
-0.29130557	1.21021700	2.07684565
-0.29179564	1.21144521	2.07684326
-0.29204687	1.21270406	2.07684088
-0.29337507	1.21557260	2.07683563
-0.29520220	1.21716082	2.07683301
-0.29591027	1.21866417	2.07683039
-0.29637924	1.22050261	2.07682681
-0.29780382	1.22161007	2.07682514
-0.29849988	1.22212923	2.07682419
-0.30046898	1.22483838	2.07681942
-0.30024222	1.22615767	2.07681680
-0.30159128	1.22780645	2.07681394
-0.30247211	1.22883606	2.07681203
-0.30302835	1.23050761	2.07680893
-0.30426890	1.23232400	2.07680583
-0.30618325	1.23435462	2.07680225
-0.30629236	1.23510194	2.07680082
-0.31741732	1.24239826	2.07678938
-0.32536662	1.24737215	2.07678151
-0.32933486	1.24875736	2.07677960
-0.35540003	1.25161076	2.07677984
-0.35627970	1.25111628	2.07678103
-0.36205018	1.24998760	2.07678437
-0.36573392	1.24943519	2.07678628
-0.36730975	1.24915504	2.07678723
-0.37364554	1.24840808	2.07679009
-0.37368757	1.24688292	2.07679296
-0.37595907	1.24681711	2.07679367
-0.37658793	1.24506402	2.07679725
-0.37792453	1.24481416	2.07679796
-0.37813050	1.24410498	2.07679939
-0.38235837	1.24393511	2.07680058
-0.38430268	1.24284697	2.07680321
-0.38684452	1.24176574	2.07680583
-0.38865912	1.24145520	2.07680678
-0.38950568	1.23997700	2.07680988
-0.39073381	1.23989463	2.07681012
-0.39234105	1.23785436	2.07681441
-0.39640567	1.23747849	2.07681608
-0.39668688	1.23561811	2.07681990
-0.39732781	1.23515403	2.07682085
-0.40117514	1.23511291	2.07682180
-0.40189129	1.23380232	2.07682443
-0.40354273	1.23298085	2.07682633
-0.40449846	1.23224974	2.07682800
-0.40620393	1.23119211	2.07683039
-0.40633351	1.23041439	2.07683206
-0.41194114	1.22968912	2.07683468
-0.41396138	1.22836459	2.07683754
-0.41451466	1.22715282	2.07683992
-0.41603574	1.22649884	2.07684159
-0.41860014	1.22555685	2.07684398
-0.41880614	1.22484791	2.07684541
-0.41908765	1.22390223	2.07684731
-0.42171818	1.22401285	2.07684755
-0.42283717	1.22379291	2.07684827
-0.42373881	1.22299325	2.07685018
-0.42491215	1.22284186	2.07685065
-0.42752007	1.22220397	2.07685232
-0.42865035	1.22174871	2.07685351
-0.43099707	1.22083664	2.07685590
-0.53824627	1.22633481	2.07686877
-0.64293343	1.21281242	2.07691789
-0.77207476	1.20177054	2.07696772
-0.77271652	1.20252573	2.07696629
-0.77392375	1.20335817	2.07696509
-0.77512050	1.20456553	2.07696295
-0.77667516	1.20489538	2.07696271
-0.77817506	1.20515656	2.07696247
-0.78004456	1.20521975	2.07696271
-0.78994530	1.20446265	2.07696652
-0.79554307	1.20472169	2.07696724
-0.79835874	1.20503855	2.07696724
-0.79968655	1.20760202	2.07696247
-0.80033952	1.20842683	2.07696104
-0.80224174	1.20855927	2.07696128
-0.80359083	1.20990324	2.07695889
-0.80378735	1.21109295	2.07695675
-0.81312358	1.21086860	2.07695913
-0.81381923	1.21138775	2.07695842
-0.81487465	1.21238840	2.07695675
-0.81584233	1.21325111	2.07695508
-0.81908172	1.21374321	2.07695484
-0.82127768	1.21391392	2.07695508
-0.82147485	1.21601844	2.07695103
-0.82284468	1.21644735	2.07695055
-0.82429051	1.21663976	2.07695055
-0.84477830	1.21770954	2.07695293
-0.84644467	1.21782017	2.07695317
-0.84850979	1.21815848	2.07695293
-0.85011882	1.21855712	2.07695246
-0.85039175	1.22012043	2.07694960
-0.85292327	1.22018909	2.07695007
-0.85360938	1.22061288	2.07694936
-0.85553223	1.22060502	2.07694983
-0.85583854	1.22207189	2.07694697
-0.85598063	1.22288811	2.07694554
-0.85758972	1.22328687	2.07694507
-0.85773206	1.22471297	2.07694221
-0.85883027	1.22510314	2.07694173
-0.86153710	1.22558713	2.07694149
-0.86342770	1.22564971	2.07694173
-0.86389518	1.22643411	2.07694030
-0.86515760	1.22747469	2.07693863
-0.86586434	1.22822881	2.07693744
-0.86847329	1.22864485	2.07693720
-0.86859375	1.22946155	2.07693553
-0.86873579	1.23027802	2.07693410
-0.86977959	1.23059940	2.07693362
-0.87072617	1.23176742	2.07693148
-0.87267154	1.23189890	2.07693172
-0.87271643	1.23356175	2.07692862
-0.87477070	1.23383057	2.07692838
-0.87619501	1.23432839	2.07692790
-0.87718427	1.23488569	2.07692695
-0.87901133	1.23586440	2.07692552
-0.88113099	1.23627138	2.07692528
-0.88230538	1.23733974	2.07692337
-0.88400215	1.23848605	2.07692146
-0.88454628	1.23917317	2.07692027
-0.88498151	1.24002790	2.07691884
-0.88594973	1.24089074	2.07691741
-0.88670015	1.24147868	2.07691646
-0.88755912	1.24189913	2.07691574
-0.88853890	1.24374604	2.07691240
-0.89223510	1.24478769	2.07691121
-0.89424658	1.24566698	2.07691002
-0.89528996	1.24598825	2.07690954
-0.89640015	1.24766755	2.07690668
-0.89840251	1.25075078	2.07690096
-0.90268523	1.25125933	2.07690096
-0.90685898	1.25163054	2.07690120
-0.91143531	1.25217772	2.07690120
-0.91288072	1.25236988	2.07690120
-0.91326195	1.25315595	2.07689977
-0.91710937	1.25341952	2.07690001
-0.91956562	1.25355947	2.07690024
-0.92045748	1.25404894	2.07689953
-0.92209977	1.25512671	2.07689786
-0.92316461	1.25514269	2.07689810
-0.92411113	1.25600600	2.07689667
-0.92649150	1.25638247	2.07689643
-0.92698121	1.25700104	2.07689524
-0.93035060	1.25732505	2.07689548
-0.93128544	1.25750923	2.07689524
-0.93298221	1.25865555	2.07689333
-0.93378675	1.25931191	2.07689238
-0.93790621	1.25961447	2.07689261
-0.93879873	1.26071382	2.07689071
-0.94093978	1.26112056	2.07689047
-0.94254929	1.26182413	2.07688951
-0.94357151	1.26245070	2.07688856
-0.94534379	1.26366508	2.07688642
-0.95147467	1.26454234	2.07688618
-0.95310485	1.26463556	2.07688642
-0.95335579	1.26589417	2.07688403
-0.95817083	1.26610601	2.07688451
-0.96192110	1.26691151	2.07688379
-0.96230233	1.26769745	2.07688236
-0.96920419	1.26824725	2.07688284
-0.97161770	1.26899767	2.07688189
-0.97509587	1.26945925	2.07688189
-0.97780305	1.27024817	2.07688093
-0.97871643	1.27073741	2.07688022
-0.98050988	1.27103710	2.07687998
-1.01060605	1.27253079	2.07688379
-1.01443231	1.27279484	2.07688403
-1.01763785	1.27230310	2.07688570
-1.02132177	1.27144599	2.07688832
-1.05073595	1.26330042	2.07691050
-1.07917869	1.25018942	2.07694197
-1.08018887	1.24952710	2.07694340
-1.10230041	1.22963691	2.07698655
-1.11717856	1.21539593	2.07701731
-1.13266635	1.17766929	2.07709360
-1.13982260	1.15713513	2.07713461
-1.14218318	1.14710271	2.07715464
-1.14824688	1.10732889	2.07723260
-1.14775681	1.10610044	2.07723475
-1.14765739	1.10497832	2.07723689
-1.14722157	1.10320914	2.07724023
-1.14813077	1.09868121	2.07724929
-1.14739895	1.09490466	2.07725644
-1.14645159	1.09251738	2.07726073
-1.14553797	1.09141850	2.07726264
-1.14547122	1.08945107	2.07726645
-1.14512277	1.08873415	2.07726765
-1.14508951	1.08775055	2.07726955
-1.14827251	1.07396674	2.07729697
-1.14773679	1.06985605	2.07730460
-1.14783978	1.06500232	2.07731414
-1.15081918	1.05220675	2.07733941
-1.14933968	1.05072582	2.07734203
-1.14844799	1.05023599	2.07734275
-1.14792430	1.04741454	2.07734799
-1.14621663	1.04680836	2.07734871
-1.14601970	1.04531360	2.07735157
-1.14656103	1.04281282	2.07735658
-1.14684248	1.04156244	2.07735896
-1.14693892	1.04010606	2.07736182
-1.14720881	1.03817618	2.07736564
-1.14897239	1.02921700	2.07738328
-1.14780736	1.02685940	2.07738757
-1.14766490	1.02573812	2.07738972
-1.14709938	1.02505112	2.07739091
-1.14792955	1.02158666	2.07739782
-1.14972818	1.01496994	2.07741094
-1.14892364	1.01461816	2.07741141
-1.14887905	1.01386976	2.07741284
-1.14856350	1.01322222	2.07741404
-1.14855146	1.01162839	2.07741714
-1.14979720	1.00683308	2.07742667
-1.14893746	1.00580287	2.07742858
-1.14820898	1.00551939	2.07742882
-1.14854419	1.00311828	2.07743359
-1.14964819	0.99811637	2.07744336
-1.14921212	0.99634725	2.07744670
-1.15002477	0.99358034	2.07745218
-1.15064156	0.99023342	2.07745886
-1.15023839	0.98883814	2.07746148
-1.14991188	0.98812091	2.07746267
-1.14989877	0.98561239	2.07746768
-1.15009201	0.98269963	2.07747316
-1.15018868	0.98124343	2.07747602
-1.15107548	0.97657633	2.07748532
-1.15035748	0.97544795	2.07748723
-1.15234089	0.96903700	2.07750010
-1.15130663	0.96712136	2.07750368
-1.15126240	0.96559787	2.07750654
-1.15158713	0.96434665	2.07750893
-1.15338504	0.95681524	2.07752395
-1.15339446	0.95552588	2.07752633
-1.15297008	0.95443588	2.07752848
-1.15457344	0.94876325	2.07753968
-1.15452731	0.94588077	2.07754517
-1.15463543	0.94479883	2.07754731
-1.15464413	0.94229007	2.07755208
-1.15476167	0.94022357	2.07755613
-1.15611577	0.93465137	2.07756734
-1.15607011	0.93129861	2.07757378
-1.15578628	0.93044120	2.07757521
-1.15647972	0.92760688	2.07758093
-1.15616345	0.92681968	2.07758236
-1.15685725	0.92429018	2.07758737
-1.15780056	0.92166054	2.07759261
-1.15903568	0.91771036	2.07760048
-1.15877283	0.91438758	2.07760692
-1.15903270	0.91344231	2.07760882
-1.15857589	0.91289282	2.07760978
-1.15904152	0.91093361	2.07761359
-1.15805137	0.90946144	2.07761621
-1.15847325	0.90766823	2.07761979
-1.15929639	0.90452683	2.07762599
-1.16158533	0.89836335	2.07763839
-1.16179121	0.89734936	2.07764030
-1.16028976	0.89664376	2.07764149
-1.16220999	0.89159298	2.07765150
-1.16265440	0.89024371	2.07765436
-1.16385770	0.88636398	2.07766199
-1.16402972	0.88436615	2.07766581
-1.16483104	0.88061541	2.07767344
-1.16822445	0.87144458	2.07769179
-1.16868794	0.86643660	2.07770157
-1.16926229	0.86430997	2.07770562
-1.17036855	0.86158156	2.07771134
-1.18391478	0.82829654	2.07777834
-1.23744345	0.70058578	2.07803631
-1.23796332	0.69839025	2.07804084
-1.23814762	0.69768155	2.07804227
-1.23885179	0.69508213	2.07804728
-1.23987067	0.69160628	2.07805419
-1.24053288	0.69083679	2.07805586
-1.24120593	0.69030237	2.07805705
-1.24299395	0.68345082	2.07807064
-1.24576509	0.67125088	2.07809472
-1.24708629	0.66621906	2.07810473
-1.24880564	0.65604115	2.07812476
-1.24994290	0.63826042	2.07815933
-1.25012410	0.63405871	2.07816744
-1.24962163	0.63093179	2.07817340
-1.24819434	0.61409318	2.07820559
-1.24748635	0.61198026	2.07820940
-1.24709272	0.60929549	2.07821441
-1.24648130	0.60603112	2.07822061
-1.24377918	0.59832597	2.07823491
-1.24323440	0.59672403	2.07823801
-1.23224545	0.42420423	2.07856822
-1.23281980	0.42238241	2.07857180
-1.23282862	0.41956884	2.07857728
-1.23297977	0.41848612	2.07857919
-1.23347819	0.41690069	2.07858253
-1.23392236	0.41494179	2.07858634
-1.23471487	0.41369981	2.07858896
-1.23464811	0.41173241	2.07859278
-1.23469043	0.41051221	2.07859492
-1.23537338	0.40852287	2.07859898
-1.23549116	0.40676123	2.07860255
-1.23597765	0.40358210	2.07860875
-1.23683619	0.40339285	2.07860923
-1.23762834	0.40184593	2.07861233
-1.23598886	0.36604801	2.07868099
-1.23515081	0.36501741	2.07868290
-1.23455155	0.36304194	2.07868648
-1.23435509	0.36215687	2.07868814
-1.23362541	0.36034915	2.07869148
-1.23310208	0.35874677	2.07869458
-1.23261225	0.35751849	2.07869673
-1.23152316	0.35461962	2.07870221
-1.20811796	0.18580025	2.07902241
-1.20763671	0.18175840	2.07903004
-1.20733953	0.17731246	2.07903862
-1.20769632	0.17521572	2.07904267
-1.20775008	0.17406505	2.07904506
-1.20814002	0.17264712	2.07904768
-1.20764577	0.16670644	2.07905912
-1.20816612	0.16573027	2.07906103
-1.20904279	0.16113320	2.07907009
-1.20906389	0.16021830	2.07907200
-1.20860338	0.15556625	2.07908082
-1.20833981	0.15210402	2.07908750
-1.20858729	0.14926013	2.07909298
-1.20907378	0.14638570	2.07909870
-1.20922506	0.14499819	2.07910132
-1.20937586	0.14361048	2.07910395
-1.20962346	0.14076653	2.07910967
-1.20988345	0.13982120	2.07911158
-1.20974982	0.13588649	2.07911897
-1.20963705	0.13134140	2.07912779
-1.20926452	0.12774178	2.07913470
-1.20916462	0.12479076	2.07914019
-1.20947886	0.12391418	2.07914209
-1.20912731	0.11939955	2.07915068
-1.20920241	0.11855325	2.07915235
-1.20940793	0.11753920	2.07915425
-1.20928681	0.11550304	2.07915831
-1.20941317	0.11062300	2.07916760
-1.20854616	0.10047296	2.07918692
-1.20858860	0.09925276	2.07918930
-1.20859766	0.09735367	2.07919312
-1.20853043	0.09508139	2.07919741
-1.20829999	0.09229806	2.07920265
-1.20828760	0.09070420	2.07920575
-1.20782721	0.08574730	2.07921529
-1.20820475	0.08273545	2.07922125
-1.20821023	0.07612416	2.07923388
-1.20803046	0.06961173	2.07924652
-1.20812750	0.06815547	2.07924914
-1.20643187	0.05507588	2.07927418
-1.20466018	0.04253739	2.07929778
-1.20292258	0.03098291	2.07931972
-1.20233214	0.02710819	2.07932711
-1.20015013	0.01720768	2.07934570
-1.19242978	-0.01264757	2.07940149
-1.19168854	-0.01543927	2.07940674
-1.19067514	-0.01857477	2.07941270
-1.19016349	-0.01949781	2.07941437
-1.18811512	-0.02576828	2.07942581
-1.18614233	-0.03197068	2.07943749
-1.18324375	-0.04117042	2.07945442
-1.18186069	-0.04441261	2.07946038
-1.18111968	-0.04659474	2.07946444
-1.13064432	-0.21053940	2.07976961
-1.12341821	-0.23445392	2.07981396
-1.10749781	-0.27023691	2.07987952
-1.10446048	-0.27615052	2.07989025
-1.09104061	-0.29850197	2.07993031
-1.08603418	-0.30681986	2.07994533
-1.08176911	-0.31234604	2.07995510
-1.06796253	-0.32917708	2.07998443
-1.05841339	-0.33705825	2.07999754
-1.05233359	-0.34196907	2.08000565
-1.03779411	-0.35186213	2.08002162
-1.03428161	-0.35391748	2.08002472
-1.02541065	-0.35656691	2.08002782
-1.01092982	-0.36076438	2.08003283
-0.98903859	-0.36355168	2.08003330
-0.97939920	-0.36268586	2.08002949
-0.97790009	-0.36142284	2.08002687
-0.97783613	-0.35989732	2.08002377
-0.97530460	-0.35919100	2.08002186
-0.97460926	-0.35879546	2.08002090
-0.97472948	-0.35689902	2.08001733
-0.97226322	-0.35635924	2.08001566
-0.95727813	-0.35327446	2.08000660
-0.95095444	-0.35123873	2.08000112
-0.94882530	-0.35005164	2.07999849
-0.94531655	-0.34830892	2.07999420
-0.94339335	-0.34752613	2.07999229
-0.94273096	-0.34675682	2.07999086
-0.94174236	-0.34609503	2.07998919
-0.94106859	-0.34569985	2.07998824
-0.93942845	-0.34480882	2.07998633
-0.93809223	-0.34425402	2.07998490
-0.93742979	-0.34378952	2.07998395
-0.93720251	-0.34247023	2.07998133
-0.93452930	-0.34197044	2.07997966
-0.93207377	-0.34089088	2.07997704
-0.93113959	-0.34046519	2.07997608
-0.93045557	-0.33969527	2.07997441
-0.92783564	-0.33926636	2.07997298
-0.92582631	-0.33848190	2.07997108
-0.92370856	-0.33692044	2.07996750
-0.92307782	-0.33652633	2.07996678
-0.92177451	-0.33590227	2.07996511
-0.91963369	-0.33539444	2.07996368
-0.91899276	-0.33493030	2.07996273
-0.91726506	-0.33448201	2.07996154
-0.91571116	-0.33420217	2.07996058
-0.91354847	-0.33369404	2.07995915
-0.91229951	-0.33300138	2.07995749
-0.91085404	-0.33258420	2.07995629
-0.91000682	-0.33232534	2.07995582
-0.90896338	-0.33203709	2.07995486
-0.90455151	-0.33115840	2.07995224
-0.90345407	-0.33063406	2.07995105
-0.90094370	-0.33023298	2.07994962
-0.88582218	-0.32795691	2.07994199
-0.88307303	-0.32752538	2.07994056
-0.88262820	-0.32678586	2.07993913
-0.87896603	-0.32592916	2.07993650
-0.87704259	-0.32545131	2.07993531
-0.87615216	-0.32519162	2.07993460
-0.87534803	-0.32493371	2.07993388
-0.86940342	-0.32408053	2.07993078
-0.86448115	-0.32276613	2.07992721
-0.86075366	-0.32204753	2.07992506
-0.86000460	-0.32158136	2.07992411
-0.85909200	-0.32085133	2.07992244
-0.85823345	-0.32066202	2.07992172
-0.85670108	-0.32038260	2.07992101
-0.85586476	-0.32005423	2.07992005
-0.85443103	-0.31956732	2.07991886
-0.85208386	-0.31896019	2.07991719
-0.85076880	-0.31871068	2.07991648
-0.84807396	-0.31790566	2.07991433
-0.84381443	-0.31658548	2.07991076
-0.84285831	-0.31585461	2.07990909
-0.84186965	-0.31519276	2.07990766
-0.83994663	-0.31471479	2.07990646
-0.83754510	-0.31417620	2.07990479
-0.83527398	-0.31380540	2.07990360
-0.83461159	-0.31303591	2.07990193
-0.83215588	-0.31226128	2.07989979
-0.83162397	-0.31135488	2.07989812
-0.82999390	-0.31114340	2.07989717
-0.82819110	-0.30954385	2.07989383
-0.82624644	-0.30876070	2.07989192
-0.82496458	-0.30783230	2.07988977
-0.82446539	-0.30716151	2.07988834
-0.82332462	-0.30663639	2.07988715
-0.82219422	-0.30648595	2.07988667
-0.82009768	-0.30583954	2.07988477
-0.82009816	-0.30492485	2.07988310
-0.81689233	-0.30443317	2.07988143
-0.81668669	-0.30341917	2.07987952
-0.81346965	-0.30299711	2.07987785
-0.81235075	-0.30247217	2.07987666
-0.81060213	-0.30110896	2.07987356
-0.80867904	-0.30032605	2.07987165
-0.80779928	-0.29952675	2.07986999
-0.80636513	-0.29934472	2.07986927
-0.80537695	-0.29807317	2.07986665
-0.80279142	-0.29652113	2.07986307
-0.80106407	-0.29576766	2.07986116
-0.80056494	-0.29509699	2.07985997
-0.79976070	-0.29483902	2.07985926
-0.79708773	-0.29372966	2.07985640
-0.79546911	-0.29314369	2.07985497
-0.79396981	-0.29218537	2.07985282
-0.79341620	-0.29158336	2.07985163
-0.79213417	-0.29095995	2.07984996
-0.79085177	-0.29064131	2.07984924
-0.78987467	-0.28960502	2.07984686
-0.78754956	-0.28869325	2.07984471
-0.78576756	-0.28831363	2.07984352
-0.78523576	-0.28710228	2.07984114
-0.78401971	-0.28603578	2.07983875
-0.78310692	-0.28561038	2.07983780
-0.78191191	-0.28515381	2.07983661
-0.78017366	-0.28416532	2.07983422
-0.77925080	-0.28306037	2.07983208
-0.77807742	-0.28260422	2.07983088
-0.77690399	-0.28214818	2.07982969
-0.77554584	-0.28189784	2.07982898
-0.77481782	-0.28126669	2.07982755
-0.77437305	-0.28052723	2.07982612
-0.77330828	-0.27993363	2.07982469
-0.77270019	-0.27940041	2.07982349
-0.77155972	-0.27887511	2.07982230
-0.76991850	-0.27842838	2.07982087
-0.76736557	-0.27711195	2.07981777
-0.76672471	-0.27664775	2.07981682
-0.76510650	-0.27545214	2.07981420
-0.76270485	-0.27521849	2.07981324
-0.76164114	-0.27340543	2.07980943
-0.75867474	-0.27233452	2.07980680
-0.75846893	-0.27162528	2.07980537
-0.75726247	-0.27154320	2.07980490
-0.75558937	-0.27102607	2.07980347
-0.75490564	-0.26995146	2.07980132
-0.75382984	-0.26942730	2.07980013
-0.75223315	-0.26823223	2.07979751
-0.75115907	-0.26634920	2.07979345
-0.75006151	-0.26612961	2.07979298
-0.74923605	-0.26556653	2.07979155
-0.74680179	-0.26479226	2.07978964
-0.74603069	-0.26416034	2.07978821
-0.74531382	-0.26376444	2.07978725
-0.74421620	-0.26354492	2.07978654
-0.74328184	-0.26311904	2.07978559
-0.74238056	-0.26231933	2.07978392
-0.74096811	-0.26152813	2.07978201
-0.73798048	-0.26015174	2.07977867
-0.73800403	-0.25848842	2.07977557
-0.73661298	-0.25800246	2.07977438
-0.73605931	-0.25740045	2.07977295
-0.73455966	-0.25705189	2.07977200
-0.73319018	-0.25687116	2.07977128
-0.73047441	-0.25545597	2.07976794
-0.72995377	-0.25417519	2.07976532
-0.72926992	-0.25340527	2.07976389
-0.72738957	-0.25323308	2.07976294
-0.72603178	-0.25237304	2.07976103
-0.72418427	-0.25213170	2.07976031
-0.72371805	-0.25078213	2.07975745
-0.72262043	-0.25056249	2.07975674
-0.72115386	-0.24984008	2.07975507
-0.71931815	-0.24861449	2.07975245
-0.71892774	-0.24780619	2.07975078
-0.71793908	-0.24744916	2.07974982
-0.71627593	-0.24730688	2.07974911
-0.71471214	-0.24604255	2.07974648
-0.71206027	-0.24584800	2.07974553
-0.71202940	-0.24394864	2.07974172
-0.70990998	-0.24374610	2.07974100
-0.70846462	-0.24363369	2.07974029
-0.70783532	-0.24249017	2.07973790
-0.70444518	-0.24128973	2.07973504
-0.70381582	-0.24045122	2.07973313
-0.70260972	-0.23975939	2.07973170
-0.70108831	-0.23971528	2.07973123
-0.69901395	-0.23784977	2.07972717
-0.69602621	-0.23647344	2.07972383
-0.69439614	-0.23626196	2.07972312
-0.69416916	-0.23494262	2.07972050
-0.69332182	-0.23437911	2.07971907
-0.69287723	-0.23333472	2.07971716
-0.69175828	-0.23280996	2.07971573
-0.69055188	-0.23272783	2.07971549
-0.68734652	-0.23162651	2.07971263
-0.68647772	-0.23106241	2.07971120
-0.68472767	-0.23075318	2.07971025
-0.68232632	-0.23021448	2.07970881
-0.68217510	-0.22913176	2.07970667
-0.68143678	-0.22843069	2.07970500
-0.67907828	-0.22819769	2.07970405
-0.67850363	-0.22668076	2.07970119
-0.67486286	-0.22643405	2.07969975
-0.67450547	-0.22494709	2.07969689
-0.67306000	-0.22483462	2.07969642
-0.67239755	-0.22437006	2.07969522
-0.67148453	-0.22424948	2.07969475
-0.66886556	-0.22368109	2.07969308
-0.66769218	-0.22322500	2.07969213
-0.66512781	-0.22258776	2.07969022
-0.66279268	-0.22069156	2.07968616
-0.66116267	-0.22048002	2.07968521
-0.66095680	-0.21977079	2.07968378
-0.65959907	-0.21891087	2.07968187
-0.65815341	-0.21879852	2.07968140
-0.65654474	-0.21889228	2.07968116
-0.65595824	-0.21835935	2.07967997
-0.65496933	-0.21830732	2.07967973
-0.65476352	-0.21759802	2.07967830
-0.65214485	-0.21672469	2.07967615
-0.64990675	-0.21567506	2.07967353
-0.64884222	-0.21508157	2.07967210
-0.64821279	-0.21424288	2.07967043
-0.64644104	-0.21423799	2.07966995
-0.64508307	-0.21337819	2.07966805
-0.64414871	-0.21295238	2.07966709
-0.64008391	-0.21288127	2.07966614
-0.63892233	-0.21144104	2.07966304
-0.63637936	-0.21110904	2.07966185
-0.63480347	-0.21082878	2.07966089
-0.63317335	-0.21092206	2.07966065
-0.63264120	-0.21032065	2.07965946
-0.63128316	-0.20976543	2.07965803
-0.62968600	-0.20918000	2.07965660
-0.62866420	-0.20919698	2.07965636
-0.62783849	-0.20893857	2.07965565
-0.58302367	-0.21385053	2.07965541
-0.57823008	-0.21436757	2.07965517
-0.57255620	-0.21499979	2.07965517
-0.57034004	-0.21364582	2.07965207
-0.56727612	-0.21233776	2.07964897
-0.56641996	-0.20987508	2.07964396
-0.56623667	-0.20794678	2.07964015
-0.40133047	-0.20503268	2.07959843
-0.39039633	-0.20574713	2.07959723
-0.38917822	-0.20634431	2.07959819
-0.38869965	-0.20719811	2.07959962
-0.38623196	-0.20740756	2.07959962
-0.38504660	-0.20824051	2.07960081
-0.38432917	-0.20875922	2.07960176
-0.38354635	-0.20880646	2.07960176
-0.38230598	-0.21031791	2.07960439
-0.37800193	-0.21052116	2.07960367
-0.37672868	-0.21240658	2.07960701
-0.37260911	-0.21301374	2.07960749
-0.37116328	-0.21320629	2.07960749
-0.37052178	-0.21365657	2.07960820
-0.37036788	-0.21545711	2.07961154
-0.36819318	-0.21684748	2.07961392
-0.36436698	-0.21741638	2.07961416
-0.36334464	-0.21804303	2.07961512
-0.36296353	-0.21882907	2.07961655
-0.36192000	-0.21915042	2.07961679
-0.36108226	-0.22018105	2.07961869
-0.35922158	-0.22275293	2.07962322
-0.35038400	-0.22441864	2.07962441
-0.34906778	-0.22569343	2.07962656
-0.34231752	-0.22671637	2.07962704
-0.34178475	-0.22733408	2.07962823
-0.33736894	-0.23086298	2.07963395
-0.33536875	-0.23167282	2.07963514
-0.33398741	-0.23247623	2.07963634
-0.33254141	-0.23297355	2.07963705
-0.32932353	-0.23407567	2.07963848
-0.32806209	-0.23467201	2.07963943
-0.32540953	-0.23569688	2.07964063
-0.32039791	-0.23679391	2.07964182
-0.31732190	-0.23738450	2.07964230
-0.31423381	-0.23895943	2.07964468
-0.30984229	-0.23960543	2.07964492
-0.30665743	-0.24002874	2.07964492
-0.30545062	-0.24055630	2.07964563
-0.30247122	-0.24229863	2.07964849
-0.29930750	-0.24333200	2.07964969
-0.29243541	-0.24700081	2.07965517
-0.28313261	-0.24640226	2.07965207
-0.27360207	-0.24509427	2.07964754
-0.27276462	-0.24551517	2.07964802
-0.27097121	-0.24581468	2.07964826
-0.26986119	-0.24749374	2.07965136
-0.26801312	-0.24786216	2.07965159
-0.26526392	-0.24743080	2.07965016
-0.26493704	-0.24814796	2.07965136
-0.26129586	-0.24851102	2.07965136
-0.25651419	-0.24804398	2.07964945
-0.25468731	-0.24902251	2.07965088
-0.25054687	-0.24840987	2.07964873
-0.24437416	-0.24776173	2.07964611
-0.24327639	-0.24784705	2.07964611
-0.24025491	-0.24775937	2.07964516
-0.23129955	-0.24735856	2.07964253
-0.23036505	-0.24723768	2.07964206
-0.22715916	-0.24674606	2.07964039
-0.22552910	-0.24653447	2.07963967
-0.22224727	-0.24611121	2.07963800
-0.22144291	-0.24615806	2.07963800
-0.22069302	-0.24613628	2.07963777
-0.21569350	-0.24624896	2.07963681
-0.21259642	-0.24561989	2.07963514
-0.20151272	-0.24281269	2.07962728
-0.19014725	-0.23936456	2.07961798
-0.16706920	-0.23135605	2.07959747
-0.15784506	-0.22750124	2.07958794
-0.13761631	-0.21758285	2.07956457
-0.11867356	-0.20327067	2.07953262
-0.11165778	-0.19704169	2.07951903
-0.07701466	-0.16473719	2.07944918
-0.07587473	-0.16329744	2.07944632
-0.05524431	-0.13389412	2.07938504
-0.04307684	-0.11506656	2.07934594
-0.03917032	-0.10756809	2.07933068
-0.03002927	-0.08865517	2.07929230
-0.02953058	-0.08706981	2.07928896
-0.02932492	-0.08636063	2.07928753
-0.02877161	-0.08514896	2.07928514
-0.02808852	-0.08315960	2.07928109
-0.02806780	-0.08163497	2.07927823
-0.02791679	-0.08024743	2.07927561
-0.02755997	-0.07815054	2.07927132
-0.02748461	-0.07730439	2.07926989
-0.02698591	-0.07571906	2.07926655
-0.02685646	-0.07463664	2.07926440
-0.02577766	-0.07231715	2.07925987
-0.02537207	-0.06920132	2.07925367
-0.02550922	-0.06825331	2.07925200
-0.02490682	-0.06663230	2.07924867
-0.02497835	-0.06582248	2.07924700
-0.02440362	-0.06461039	2.07924461
-0.02417606	-0.06390092	2.07924318
-0.02397027	-0.06319165	2.07924175
-0.02341702	-0.06197986	2.07923937
-0.02308155	-0.06018841	2.07923579
-0.02303298	-0.05886459	2.07923317
-0.02232841	-0.05687490	2.07922935
-0.02232399	-0.05613345	2.07922792
-0.02198800	-0.05525646	2.07922602
-0.02189124	-0.05410495	2.07922387
-0.02144659	-0.05306062	2.07922173
-0.02086536	-0.05174497	2.07921910
-0.02092671	-0.05086511	2.07921743
-0.02096015	-0.04988143	2.07921553
-0.02061802	-0.04890090	2.07921338
-0.01988046	-0.04698035	2.07920957
-0.01978370	-0.04582885	2.07920742
-0.01965396	-0.04474658	2.07920527
-0.01960531	-0.04336873	2.07920265
-0.01943377	-0.04261625	2.07920122
-0.01898297	-0.04146829	2.07919884
-0.01883190	-0.04008070	2.07919621
-0.01844192	-0.03866276	2.07919335
-0.01866644	-0.03757679	2.07919121
-0.01760768	-0.03559083	2.07918715
-0.01807636	-0.03405726	2.07918429
-0.01761534	-0.03248036	2.07918119
-0.01744821	-0.03138947	2.07917905
-0.01759039	-0.03026825	2.07917690
-0.01727622	-0.02908695	2.07917452
-0.01675577	-0.02780598	2.07917190
-0.01643622	-0.02710256	2.07917047
-0.01542253	-0.02375838	2.07916379
-0.01514146	-0.02189809	2.07916021
-0.01575005	-0.02151686	2.07915974
-0.01535960	-0.02070862	2.07915807
-0.01499081	-0.01990080	2.07915640
0.00451333	0.01718298	2.07908058
0.00370860	0.01783958	2.07907939
0.00717964	0.02588794	2.07906318
0.04365404	0.18541519	2.07874751
0.04831517	0.20231660	2.07871389
0.05007525	0.20330550	2.07871175
0.05169312	0.20511079	2.07870793
0.05327763	0.20759496	2.07870269
0.05432086	0.20788328	2.07870197
0.05540639	0.20939179	2.07869887
0.05615629	0.20941360	2.07869864
0.05673110	0.21093053	2.07869554
0.05902313	0.21252114	2.07869196
0.06139997	0.21624738	2.07868433
0.06176882	0.21705525	2.07868266
0.06347437	0.21811296	2.07868028
0.06605993	0.21966508	2.07867670
0.06813449	0.22122578	2.07867312
0.06887229	0.22253661	2.07867050
0.07041451	0.22380054	2.07866764
0.07259835	0.22461401	2.07866573
0.07530181	0.22792786	2.07865858
0.07629949	0.23048878	2.07865357
0.07873335	0.23156793	2.07865095
0.07951415	0.23348919	2.07864714
0.08048162	0.23323616	2.07864738
0.08162167	0.23467594	2.07864428
0.08284929	0.23536815	2.07864261
0.08358721	0.23667896	2.07863998
0.08444373	0.23853198	2.07863617
0.08519343	0.23885866	2.07863545
0.08647531	0.23978704	2.07863331
0.08768159	0.24017395	2.07863235
0.08869170	0.24114101	2.07863021
0.08952711	0.24238388	2.07862759
0.09058160	0.24260265	2.07862711
0.09115659	0.24350992	2.07862520
0.09203649	0.24400444	2.07862401
0.09293762	0.24510907	2.07862163
0.09370920	0.24543609	2.07862091
0.09550197	0.24635592	2.07861876
0.09696832	0.24738331	2.07861638
0.09840174	0.24878474	2.07861328
0.09966040	0.25076669	2.07860923
0.10038876	0.25078815	2.07860899
0.10126871	0.25128263	2.07860804
0.10302879	0.25227156	2.07860565
0.10438640	0.25343645	2.07860303
0.10571100	0.25497532	2.07859993
0.10619873	0.25602049	2.07859778
0.10711163	0.25614101	2.07859731
0.10767663	0.25667346	2.07859612
0.10865387	0.25770968	2.07859397
0.10935894	0.25908968	2.07859111
0.11012015	0.25904191	2.07859111
0.11148763	0.26088643	2.07858706
0.11261775	0.26164654	2.07858539
0.11359505	0.26237801	2.07858372
0.11418146	0.26291090	2.07858276
0.11469204	0.26351210	2.07858133
0.11566965	0.26393861	2.07858038
0.11691830	0.26554576	2.07857704
0.11796184	0.26522440	2.07857728
0.11926468	0.26706767	2.07857347
0.11986107	0.26828027	2.07857108
0.12070780	0.26945364	2.07856870
0.12176250	0.26936746	2.07856846
0.12301140	0.27036500	2.07856631
0.12412999	0.27149945	2.07856393
0.12563936	0.27313733	2.07856035
0.12744215	0.27443197	2.07855749
0.12866956	0.27542910	2.07855535
0.12922308	0.27633595	2.07855344
0.13027591	0.27791357	2.07855010
0.13148183	0.27860540	2.07854867
0.13209012	0.27913862	2.07854748
0.13390380	0.28097346	2.07854342
0.13565202	0.28264171	2.07853985
0.13647744	0.28320497	2.07853866
0.13724844	0.28414181	2.07853675
0.13794371	0.28453720	2.07853580
0.13928971	0.28638133	2.07853198
0.14182076	0.28830701	2.07852769
0.14267963	0.28788656	2.07852817
0.14453593	0.29063678	2.07852244
0.14622954	0.29267859	2.07851815
0.14734828	0.29350829	2.07851648
0.14817362	0.29437634	2.07851458
0.14949802	0.29622012	2.07851076
0.15230167	0.29688758	2.07850885
0.15414630	0.30031705	2.07850170
0.15554664	0.30209243	2.07849813
0.15677404	0.30308947	2.07849574
0.15794794	0.30293581	2.07849598
0.16105336	0.30637863	2.07848859
0.16394083	0.31070602	2.07847953
0.16463618	0.31110150	2.07847857
0.16511385	0.31177187	2.07847714
0.16649264	0.31354684	2.07847357
0.16853392	0.31609112	2.07846808
0.17118306	0.31916890	2.07846165
0.17246510	0.31979233	2.07846022
0.17471194	0.32304591	2.07845330
0.17694947	0.32501003	2.07844901
0.18022735	0.33014578	2.07843852
0.18296376	0.33308560	2.07843232
0.18452716	0.33495963	2.07842827
0.18513501	0.33579773	2.07842660
0.18566714	0.33639938	2.07842517
0.18800165	0.33921021	2.07841921
0.18951049	0.34145778	2.07841468
0.19059601	0.34296632	2.07841158
0.19274589	0.34537327	2.07840633
0.19416767	0.34745395	2.07840204
0.19491737	0.34778064	2.07840133
0.19581813	0.34949496	2.07839775
0.19677405	0.35022587	2.07839608
0.19767539	0.35102558	2.07839441
0.20056261	0.35565794	2.07838488
0.20170254	0.35709777	2.07838178
0.20468700	0.36227185	2.07837129
0.21253295	0.37628517	2.07834244
0.21345532	0.37799987	2.07833886
0.21926092	0.38885900	2.07831669
0.22058509	0.39100760	2.07831216
0.22362347	0.39672267	2.07830048
0.22460020	0.39836866	2.07829714
0.22692217	0.40307814	2.07828760
0.23560789	0.42677489	2.07823992
0.23675637	0.43072352	2.07823205
0.23740622	0.43339160	2.07822680
