//X	Y	Z
-0.18862851	-0.09145130	3.36517286
-0.17027113	-0.07790836	3.36462903
-0.16485111	-0.07385612	3.36446786
-0.09918415	-0.01791999	3.36242580
-0.09778602	-0.01644853	3.36237884
-0.08459540	-0.00187396	3.36192560
-0.07675789	0.00782517	3.36164284
-0.06480534	0.02398511	3.36119413
-0.05667512	0.03536172	3.36088395
-0.01947272	0.10112095	3.35928798
-0.01862912	0.10304010	3.35924625
-0.01819940	0.10497630	3.35921264
-0.01962784	0.11935705	3.35905600
-0.02015129	0.12281044	3.35902190
-0.02542174	0.15185522	3.35875344
-0.02579522	0.15286160	3.35874796
-0.03877786	0.18629816	3.35857821
-0.04940921	0.20522678	3.35854793
-0.07975787	0.24779439	3.35860968
-0.09820366	0.27036297	3.35868955
-0.10347222	0.27657655	3.35871553
-0.23966239	0.38331982	3.36007857
-0.23980919	0.38380614	3.36007524
-0.24055363	0.38497013	3.36007524
-0.24060521	0.38610455	3.36006165
-0.24108003	0.38688910	3.36006117
-0.24009557	0.38837758	3.36002207
-0.24167962	0.39005750	3.36003232
-0.24246950	0.39192969	3.36002398
-0.24282512	0.39239854	3.36002517
-0.24354790	0.39344749	3.36002612
-0.24390607	0.39476514	3.36001635
-0.24475777	0.39576292	3.36002064
-0.24538878	0.39666688	3.36002183
-0.24533646	0.39717439	3.36001420
-0.24889682	0.40043616	3.36004376
-0.26571649	0.40965331	3.36026311
-0.27417463	0.41229588	3.36039925
-0.29811803	0.41945633	3.36078858
-0.39779541	0.44271481	3.36249352
-0.40023839	0.44216427	3.36254978
-0.45284194	0.39661890	3.36419487
-0.45307779	0.39640149	3.36420250
-0.45699930	0.39240065	3.36433291
-0.47941440	0.36839741	3.36509323
-0.54163527	0.20696023	3.36842608
-0.54236221	0.20557415	3.36845851
-0.54257065	0.20518607	3.36846781
-0.54320580	0.20365496	3.36850023
-0.54355508	0.20369759	3.36850667
-0.54505765	0.20041418	3.36857915
-0.54540098	0.20003051	3.36859107
-0.54560351	0.19958684	3.36860085
-0.54605412	0.19940758	3.36861229
-0.54655707	0.19872084	3.36863112
-0.54697418	0.19794470	3.36864972
-0.54725301	0.19758666	3.36865997
-0.54799813	0.19710872	3.36868095
-0.54877394	0.19600832	3.36871076
-0.54929209	0.19501030	3.36873412
-0.54987496	0.19398671	3.36875892
-0.55039597	0.19383749	3.36877131
-0.55131602	0.19237462	3.36880875
-0.55148160	0.19212714	3.36881518
-0.55185568	0.19149162	3.36883092
-0.55224794	0.19139361	3.36884022
-0.55253315	0.19146180	3.36884499
-0.55343759	0.19031021	3.36887813
-0.55389154	0.18933779	3.36889982
-0.55414897	0.18923536	3.36890626
-0.55438507	0.18901792	3.36891389
-0.55524075	0.18758067	3.36894941
-0.55565763	0.18680453	3.36896801
-0.55588776	0.18653145	3.36897612
-0.55638456	0.18541847	3.36900043
-0.55661470	0.18514535	3.36900854
-0.55689967	0.18521364	3.36901331
-0.55786598	0.18318757	3.36905885
-0.55831051	0.18258208	3.36907578
-0.55857730	0.18211275	3.36908722
-0.55923039	0.18111920	3.36911297
-0.55970591	0.18026179	3.36913371
-0.56041116	0.17876071	3.36916733
-0.56085926	0.17773271	3.36918950
-0.56132525	0.17724222	3.36920524
-0.56171149	0.17708859	3.36921501
-0.56268382	0.17511818	3.36925983
-0.56353933	0.17368093	3.36929560
-0.56393725	0.17289728	3.36931372
-0.56464040	0.17165935	3.36934376
-0.56565553	0.16954833	3.36939144
-0.56621075	0.16835409	3.36941814
-0.56640017	0.16795853	3.36942697
-0.56697464	0.16677177	3.36945391
-0.56727254	0.16647691	3.36946368
-0.56753933	0.16600758	3.36947513
-0.56778145	0.16584578	3.36948204
-0.56809735	0.16566214	3.36949062
-0.56867063	0.16500542	3.36951065
-0.56955367	0.16373876	3.36954474
-0.56983864	0.16380699	3.36954951
-0.57006276	0.16347830	3.36955833
-0.57029867	0.16326085	3.36956596
-0.57109267	0.16269793	3.36958909
-0.57184350	0.16227566	3.36960959
-0.57212871	0.16234386	3.36961460
-0.57263160	0.16165711	3.36963344
-0.57284003	0.16126904	3.36964273
-0.57392836	0.16040748	3.36967564
-0.57470417	0.15930706	3.36970544
-0.57504153	0.15886778	3.36971807
-0.57614243	0.15684617	3.36976624
-0.57642752	0.15691440	3.36977100
-0.57728302	0.15547714	3.36980677
-0.57790267	0.15425725	3.36983490
-0.57811129	0.15386921	3.36984420
-0.57838416	0.15345553	3.36985493
-0.57882267	0.15279438	3.36987233
-0.57931626	0.15247452	3.36988640
-0.57981920	0.15178779	3.36990523
-0.58073902	0.15032490	3.36994267
-0.58202392	0.14859338	3.36999083
-0.58239818	0.14795783	3.37000656
-0.58442253	0.14368021	3.37010241
-0.58839190	0.13381994	3.37030935
-0.59013134	0.12947409	3.37040043
-0.59067452	0.12779795	3.37043285
-0.59256577	0.11821952	3.37059450
-0.59413600	0.10712722	3.37076902
-0.59429288	0.10560475	3.37079191
-0.59451735	0.10326348	3.37082648
-0.59435427	0.09694329	3.37090468
-0.59385431	0.08904983	3.37099648
-0.59251565	0.07899857	3.37109900
-0.58946240	0.06593981	3.37120605
-0.58363098	0.04582073	3.37134814
-0.57863146	0.03145823	3.37143278
-0.57431775	0.02109481	3.37147951
-0.57378811	0.01996903	3.37148333
-0.57207006	0.01664278	3.37149167
-0.56682652	0.00736786	3.37150598
-0.56064129	-0.00130042	3.37149310
-0.55404860	-0.00918885	3.37146235
-0.55047977	-0.01335502	3.37144423
-0.54964978	-0.01423782	3.37143898
-0.54349124	-0.02072291	3.37139869
-0.53062415	-0.02640563	3.37121320
-0.52721965	-0.02790608	3.37116408
-0.51990461	-0.03106895	3.37105775
-0.51707602	-0.03200669	3.37101293
-0.51678520	-0.03213054	3.37100863
-0.51633453	-0.03195131	3.37099719
-0.51323646	-0.03326851	3.37095189
-0.51137286	-0.03294843	3.37091017
-0.51100212	-0.03310604	3.37090492
-0.51036769	-0.03321686	3.37089348
-0.50959516	-0.03290959	3.37087393
-0.50708848	-0.03397536	3.37083721
-0.50644475	-0.03371929	3.37082100
-0.50589639	-0.03374071	3.37081027
-0.50476217	-0.03395793	3.37079024
-0.50406343	-0.03404313	3.37077737
-0.50267196	-0.03415793	3.37075090
-0.50216627	-0.03431997	3.37074280
-0.50153214	-0.03443078	3.37073135
-0.50132340	-0.03404272	3.37072229
-0.49978521	-0.03464381	3.37069893
-0.49952769	-0.03454138	3.37069249
-0.49835080	-0.03461799	3.37066984
-0.49793717	-0.03463501	3.37066174
-0.49702376	-0.03475837	3.37064505
-0.49665895	-0.03448974	3.37063408
-0.49629399	-0.03459173	3.37062812
-0.49417621	-0.03533301	3.37059522
-0.49369830	-0.03495377	3.37058067
-0.49327844	-0.03502637	3.37057304
-0.49262258	-0.03525221	3.37056279
-0.49245709	-0.03500476	3.37055635
-0.49216598	-0.03512859	3.37055206
-0.49190843	-0.03502616	3.37054563
-0.49088186	-0.03540961	3.37052989
-0.49010333	-0.03515796	3.37051105
-0.48966205	-0.03534560	3.37050438
-0.48949039	-0.03515378	3.37049866
-0.48691583	-0.03614205	3.37045956
-0.48553634	-0.03614560	3.37043190
-0.48488414	-0.03605268	3.37041759
-0.48432249	-0.03602596	3.37040591
-0.48340315	-0.03620500	3.37038970
-0.48199368	-0.03685730	3.37036967
-0.48054838	-0.03704648	3.37034321
-0.47848299	-0.03792459	3.37031293
-0.47769222	-0.03815484	3.37030005
-0.47615397	-0.03875595	3.37027669
-0.47375464	-0.03998794	3.37024426
-0.47316316	-0.04023939	3.37023568
-0.47246432	-0.04032459	3.37022281
-0.47189432	-0.04046101	3.37021303
-0.47008649	-0.04144160	3.37018943
-0.31880009	-0.12425070	3.36821389
-0.31431988	-0.12604958	3.36814713
-0.30849391	-0.12688445	3.36804056
-0.30494168	-0.12722927	3.36797357
-0.29573205	-0.12743706	3.36779118
-0.28918871	-0.12725276	3.36765718
-0.28596109	-0.12687683	3.36758733
-0.28230450	-0.12620665	3.36750507
-0.27906162	-0.12551947	3.36743116
-0.27716106	-0.12500313	3.36738610
-0.26019844	-0.11955497	3.36697483
-0.22060679	-0.10630147	3.36600757
-0.21899138	-0.10571696	3.36596751
-0.21731159	-0.10510682	3.36592579
-0.21195644	-0.10272212	3.36578751
-0.19234084	-0.09342211	3.36527300
