//X	Y	Z
-1.31505954	0.30776995	4.49110699
-1.31131458	0.30446744	4.49108791
-1.29950476	0.29522732	4.49103117
-1.29093206	0.29058748	4.49099731
-1.28574455	0.28793958	4.49097729
-1.28214514	0.28625131	4.49096346
-1.27756047	0.28494221	4.49094915
-1.27589130	0.28459200	4.49094439
-1.27509987	0.28437388	4.49094200
-1.27291429	0.28355390	4.49093485
-1.26705635	0.28153959	4.49091530
-1.26518822	0.28123561	4.49091053
-1.26230717	0.28025943	4.49090099
-1.26004553	0.27964455	4.49089384
-1.25213742	0.27735007	4.49086905
-1.25171006	0.27801183	4.49087048
-1.24711812	0.27684504	4.49085665
-1.24550200	0.27929097	4.49086189
-1.24480128	0.27951109	4.49086094
-1.24362171	0.27953321	4.49085855
-1.24060273	0.27865511	4.49084902
-1.23420703	0.27755260	4.49083138
-1.23160625	0.27684808	4.49082375
-1.22852397	0.27658391	4.49081612
-1.22603393	0.27658433	4.49081087
-1.22293711	0.27660406	4.49080420
-1.22035646	0.27709368	4.49080038
-1.21997607	0.27811894	4.49080324
-1.21831417	0.27762640	4.49079800
-1.21771431	0.27750418	4.49079609
-1.21703124	0.27772900	4.49079561
-1.21520257	0.27793086	4.49079227
-1.21214211	0.27723995	4.49078321
-1.21139741	0.27738568	4.49078226
-1.21073925	0.27840078	4.49078417
-1.20834732	0.27776933	4.49077702
-1.20338941	0.27734345	4.49076509
-1.19436228	0.27509579	4.49073792
-1.18737841	0.27329785	4.49071693
-1.18652844	0.27421719	4.49071836
-1.18469989	0.27441862	4.49071503
-1.17572236	0.27189612	4.49068737
-1.17258155	0.27276933	4.49068356
-1.17208290	0.27323201	4.49068403
-1.16861451	0.27251464	4.49067450
-1.16690397	0.27327901	4.49067307
-1.16279364	0.27167201	4.49065924
-1.15992498	0.27107683	4.49065065
-1.15713799	0.27175498	4.49064732
-1.15447569	0.27097136	4.49063873
-1.15320003	0.27093196	4.49063587
-1.15253437	0.27208906	4.49063873
-1.15129364	0.27295905	4.49063873
-1.14625716	0.27247611	4.49062634
-1.14423251	0.27394101	4.49062729
-1.14261031	0.27395391	4.49062347
-1.14116776	0.27460894	4.49062300
-1.14002979	0.27444351	4.49061966
-1.13877892	0.27519396	4.49061966
-1.13792896	0.27611324	4.49062109
-1.13723600	0.27621859	4.49061966
-1.13650906	0.27729645	4.49062204
-1.13577151	0.27729994	4.49062061
-1.13233232	0.27601385	4.49060869
-1.13022685	0.27808785	4.49061108
-1.12925136	0.27858654	4.49061108
-1.12762427	0.27900374	4.49060869
-1.12614691	0.27874896	4.49060488
-1.12464607	0.28054100	4.49060774
-1.12387943	0.28111309	4.49060774
-1.12132084	0.28117594	4.49060249
-1.11951542	0.28378841	4.49060774
-1.11889386	0.28409243	4.49060726
-1.11773932	0.28583178	4.49061108
-1.11604106	0.28604990	4.49060822
-1.11459851	0.28670490	4.49060726
-1.11307263	0.28770673	4.49060726
-1.11134195	0.28727710	4.49060202
-1.11022711	0.28952217	4.49060726
-1.10857403	0.29172423	4.49061155
-1.10563767	0.29402927	4.49061298
-1.10425675	0.29476339	4.49061251
-1.09850061	0.29704386	4.49060774
-1.09462237	0.29792038	4.49060249
-1.09136462	0.30106786	4.49060631
-1.09049535	0.30267507	4.49061012
-1.08893764	0.30398396	4.49061108
-1.08746350	0.30494571	4.49061108
-1.08650446	0.30446744	4.49060774
-1.08575964	0.30461323	4.49060631
-1.08496404	0.30575395	4.49060869
-1.08417225	0.30553591	4.49060631
-1.08330941	0.30511910	4.49060297
-1.08233643	0.30587971	4.49060345
-1.07851672	0.30561891	4.49059439
-1.07535088	0.30570188	4.49058771
-1.07232273	0.30565917	4.49058104
-1.04906988	0.29373220	4.49049091
-1.04333675	0.29118353	4.49046993
-1.04043579	0.28994060	4.49045944
-1.03811288	0.28924629	4.49045229
-1.03237236	0.28683996	4.49043179
-1.01557600	0.27869725	4.49036837
-1.01231229	0.27941141	4.49036360
-1.00602734	0.28981033	4.49038553
-1.00327253	0.29113632	4.49038410
-1.00228751	0.29244316	4.49038649
-1.00111771	0.29258454	4.49038458
-0.99935061	0.29286551	4.49038172
-0.99871677	0.29371580	4.49038315
-0.99815416	0.29383746	4.49038267
-0.99518681	0.29291931	4.49037313
-0.99331939	0.29449761	4.49037457
-0.99153209	0.29358450	4.49036741
-0.99016142	0.29539314	4.49037075
-0.98823786	0.29651529	4.49037027
-0.98670828	0.29627374	4.49036646
-0.98544002	0.29609206	4.49036312
-0.98422587	0.29613182	4.49036074
-0.98359680	0.29657826	4.49036074
-0.98188812	0.29572186	4.49035406
-0.97890383	0.29482606	4.49034500
-0.97626907	0.29509413	4.49034023
-0.97571605	0.29533580	4.49033976
-0.97311354	0.29625162	4.49033737
-0.97052264	0.29566672	4.49032974
-0.96943134	0.29586515	4.49032831
-0.96746516	0.29619268	4.49032497
-0.96679658	0.29613325	4.49032354
-0.96422327	0.29648051	4.49031925
-0.96357971	0.29721120	4.49032021
-0.96096683	0.29705295	4.49031401
-0.95765615	0.29740363	4.49030828
-0.95704180	0.29756570	4.49030733
-0.95514739	0.29904687	4.49030828
-0.95238227	0.29929867	4.49030352
-0.95012945	0.30137840	4.49030542
-0.94323450	0.30071136	4.49028873
-0.94057047	0.30154815	4.49028587
-0.93730670	0.30226263	4.49028111
-0.93460721	0.30479187	4.49028397
-0.93144041	0.30389303	4.49027443
-0.92529225	0.31135628	4.49028635
-0.91944605	0.31418073	4.49028349
-0.91393501	0.31938076	4.49028969
-0.89127535	0.31946927	4.49024153
-0.88396651	0.32175466	4.49023342
-0.88059729	0.32324266	4.49023151
-0.87816882	0.32332224	4.49022627
-0.86815631	0.33580777	4.49024725
-0.86398447	0.33412153	4.49023294
-0.86243778	0.33297470	4.49022579
-0.85947669	0.33448952	4.49022436
-0.85363537	0.33691013	4.49022007
-0.84998673	0.34000835	4.49022293
-0.84208763	0.33595139	4.49019241
-0.83862782	0.33792892	4.49019146
-0.83657116	0.33784547	4.49018669
-0.83611631	0.33745518	4.49018478
-0.83269292	0.33872202	4.49018145
-0.83065802	0.33911240	4.49017859
-0.82934576	0.33978337	4.49017811
-0.82290334	0.34648451	4.49018717
-0.81746429	0.34204155	4.49016047
-0.81445932	0.34440911	4.49016190
-0.81146044	0.34379768	4.49015331
-0.80869108	0.34540799	4.49015284
-0.79605424	0.34936690	4.49013948
-0.79079789	0.34678182	4.49011946
-0.77762479	0.36345816	4.49014807
-0.77367055	0.36453956	4.49014330
-0.77134877	0.36668214	4.49014568
-0.76765335	0.36941689	4.49014711
-0.74441296	0.39028871	4.49016809
-0.72836745	0.39522979	4.49015093
-0.72523087	0.39474413	4.49014235
-0.71598125	0.38920504	4.49010372
-0.70953995	0.38609138	4.49007940
-0.70490241	0.38739774	4.49007416
-0.70154059	0.38874370	4.49007130
-0.69165260	0.39435524	4.49006939
-0.68886006	0.39355528	4.49006081
-0.68562549	0.39370111	4.49005413
-0.68196815	0.39410478	4.49004793
-0.67382634	0.39635929	4.49003792
-0.67190707	0.39705029	4.49003649
-0.66998774	0.39774132	4.49003458
-0.66853654	0.39570144	4.49002457
-0.66545731	0.39665365	4.49002123
-0.66336799	0.39682290	4.49001741
-0.66283458	0.39637586	4.49001455
-0.66214108	0.39552629	4.49001026
-0.66058761	0.39547673	4.49000692
-0.65993363	0.39513296	4.49000406
-0.65900445	0.39504090	4.49000216
-0.65726095	0.39327517	4.48999214
-0.65670806	0.39351636	4.48999166
-0.65464991	0.39149618	4.48998070
-0.65399581	0.39115277	4.48997784
-0.65259725	0.39095438	4.48997450
-0.65183234	0.38990608	4.48996925
-0.65086102	0.38904661	4.48996401
-0.64932477	0.38897431	4.48996067
-0.64837527	0.38768822	4.48995447
-0.64752960	0.38724864	4.48995113
-0.64618689	0.38565171	4.48994255
-0.64475167	0.38616437	4.48994112
-0.64397466	0.38566229	4.48993778
-0.64345098	0.38533482	4.48993587
-0.64153588	0.38466731	4.48992920
-0.64028388	0.38258088	4.48991966
-0.63904464	0.38183081	4.48991442
-0.63783050	0.38187060	4.48991203
-0.63726723	0.38103732	4.48990774
-0.63579410	0.37942410	4.48989916
-0.63474679	0.37876952	4.48989487
-0.63410008	0.37828338	4.48989153
-0.63252902	0.37730163	4.48988485
-0.63189685	0.37653160	4.48988104
-0.63114488	0.37681931	4.48988056
-0.62917012	0.37445194	4.48986816
-0.62845457	0.37402901	4.48986530
-0.62690967	0.37126210	4.48985243
-0.62583303	0.37117621	4.48985004
-0.62469190	0.36979428	4.48984289
-0.62411398	0.36924568	4.48983955
-0.62374252	0.36850822	4.48983622
-0.62286019	0.36877963	4.48983526
-0.62195778	0.36785701	4.48983049
-0.62164783	0.36719903	4.48982763
-0.61996108	0.36591634	4.48981953
-0.61945927	0.36516252	4.48981571
-0.61800635	0.36474299	4.48981142
-0.61730552	0.36403576	4.48980761
-0.61674219	0.36320278	4.48980331
-0.61613995	0.36281860	4.48980093
-0.61472774	0.36032996	4.48978949
-0.61326629	0.35721552	4.48977566
-0.61234915	0.35657761	4.48977137
-0.61143637	0.35458046	4.48976278
-0.61041093	0.35349953	4.48975706
-0.60997063	0.35282490	4.48975372
-0.60949075	0.35164475	4.48974848
-0.60847253	0.35042152	4.48974228
-0.60772473	0.34935072	4.48973703
-0.60677540	0.34806466	4.48973083
-0.60616106	0.34822667	4.48972988
-0.60413194	0.34563819	4.48971653
-0.60326904	0.34522137	4.48971367
-0.60217172	0.34298643	4.48970366
-0.60156465	0.34300652	4.48970222
-0.60015732	0.34011361	4.48968935
-0.59862280	0.33842087	4.48968029
-0.59758270	0.33762425	4.48967552
-0.59657186	0.33625871	4.48966885
-0.59542149	0.33571216	4.48966455
-0.59452087	0.33409685	4.48965693
-0.59353733	0.33285558	4.48965073
-0.59237921	0.33242384	4.48964691
-0.59197360	0.33173150	4.48964357
-0.59025228	0.33046687	4.48963547
-0.58888441	0.32807973	4.48962450
-0.58776832	0.32748798	4.48962021
-0.58684814	0.32563323	4.48961163
-0.58580810	0.32483625	4.48960686
-0.58325529	0.32192063	4.48959160
-0.58202660	0.32224441	4.48959017
-0.58048475	0.32069397	4.48958158
-0.57948840	0.31904441	4.48957348
-0.57744479	0.31673986	4.48956156
-0.53679746	0.14920270	4.48890495
-0.53381002	0.06882966	4.48862505
-0.53516769	0.06568530	4.48861742
-0.54118913	0.05944955	4.48860931
-0.54704547	0.05228731	4.48859739
-0.55000949	0.04657710	4.48858404
-0.55007696	0.04367730	4.48857450
-0.55057013	0.04173657	4.48856878
-0.54948312	0.04057616	4.48856258
-0.55174935	0.03537515	4.48854971
-0.55158114	0.03323260	4.48854208
-0.55093312	0.02991000	4.48852968
-0.55116153	0.02929476	4.48852777
-0.54945040	0.02817681	4.48852062
-0.55000758	0.02657670	4.48851633
-0.54917073	0.02437517	4.48850679
-0.54901302	0.02330679	4.48850298
-0.54762584	0.02160794	4.48849440
-0.54666185	0.02060613	4.48848867
-0.54523987	0.01799792	4.48847675
-0.54285395	0.01438755	4.48845959
-0.54251909	0.01293942	4.48845387
-0.54140282	0.01234764	4.48844957
-0.53926128	0.01067460	4.48843908
-0.53611606	0.00749436	4.48842144
-0.53539807	0.00680950	4.48841763
-0.53285086	0.00537199	4.48840761
-0.52251542	0.00058234	4.48836899
-0.51514971	-0.00302756	4.48834085
-0.51104188	-0.00437301	4.48832750
-0.50045514	-0.00554612	4.48830128
-0.46747461	-0.00511968	4.48823214
-0.45907888	-0.00399467	4.48821783
-0.42026886	0.00276342	4.48815823
-0.40733796	0.00861686	4.48815012
-0.39027694	0.01800811	4.48814583
-0.38451731	0.02170193	4.48814583
-0.38202873	0.02453890	4.48815012
-0.37843129	0.02664211	4.48814964
-0.37469196	0.03022981	4.48815393
-0.37076825	0.03357941	4.48815680
-0.36275017	0.03787494	4.48815441
-0.36211380	0.03846332	4.48815536
-0.35666841	0.04145628	4.48815346
-0.35331684	0.04387674	4.48815489
-0.35308126	0.04463398	4.48815680
-0.35112551	0.04603565	4.48815727
-0.34953073	0.04710066	4.48815775
-0.34786299	0.04958701	4.48816252
-0.34809273	0.05180871	4.48817062
-0.34657410	0.05266854	4.48817015
-0.34529421	0.05398768	4.48817205
-0.34445143	0.05476496	4.48817301
-0.34395826	0.05670571	4.48817825
-0.34281597	0.05789909	4.48818016
-0.34018248	0.06100413	4.48818493
-0.34050518	0.06207085	4.48818922
-0.32261795	0.07126239	4.48818207
-0.31901324	0.07350752	4.48818207
-0.31883308	0.07732317	4.48819494
-0.31826562	0.07784870	4.48819542
-0.31737903	0.07947895	4.48819923
-0.31716675	0.08264640	4.48820925
-0.31654495	0.08295083	4.48820925
-0.31656995	0.08374062	4.48821163
-0.31573460	0.08437562	4.48821211
-0.31542760	0.08493409	4.48821354
-0.31519938	0.08554894	4.48821497
-0.31436390	0.08618426	4.48821545
-0.31338841	0.08668298	4.48821497
-0.31202275	0.08901504	4.48822021
-0.30911589	0.09075108	4.48821974
-0.30753875	0.09274819	4.48822308
-0.30675033	0.09374660	4.48822498
-0.30597639	0.09446105	4.48822546
-0.30540887	0.09498659	4.48822594
-0.24001291	0.12561452	4.48819065
-0.23951244	0.12769765	4.48819637
-0.24022934	0.13095751	4.48820925
-0.23611790	0.13285318	4.48820686
-0.23422173	0.13502702	4.48821020
-0.23449707	0.13570297	4.48821306
-0.23259783	0.13666070	4.48821211
-0.23079419	0.13765234	4.48821163
-0.22636867	0.14024860	4.48821115
-0.22571039	0.14126322	4.48821306
-0.21904603	0.14470023	4.48821068
-0.21664080	0.14719000	4.48821402
-0.21425757	0.14925340	4.48821592
-0.21175447	0.15237471	4.48822117
-0.21252677	0.15869293	4.48824406
-0.21360472	0.16161573	4.48825645
-0.21274242	0.16215354	4.48825645
-0.21069595	0.16404477	4.48825836
-0.20985314	0.16482204	4.48825932
-0.20850271	0.16782439	4.48826694
-0.20792079	0.16956165	4.48827124
-0.20808583	0.17048770	4.48827505
-0.20504606	0.17194584	4.48827314
-0.20396781	0.17347994	4.48827648
-0.20364144	0.17472669	4.48827982
-0.20344836	0.17627853	4.48828459
-0.20390633	0.17788532	4.48829126
-0.20428219	0.18267587	4.48830843
-0.20253527	0.18415093	4.48830938
-0.20178330	0.18443862	4.48830891
-0.20188436	0.18502367	4.48831129
-0.20122439	0.18765908	4.48831844
-0.20231092	0.19327646	4.48833990
-0.20116693	0.19609037	4.48834705
-0.20162046	0.19812822	4.48835516
-0.20065472	0.19874689	4.48835516
-0.20096487	0.20033228	4.48836136
-0.20098796	0.20181510	4.48836613
-0.20100138	0.20410612	4.48837423
-0.20051250	0.20468834	4.48837519
-0.19846602	0.20657957	4.48837709
-0.19816467	0.20861611	4.48838329
-0.19863446	0.21506140	4.48840618
-0.19505896	0.21673831	4.48840427
-0.19171734	0.22376251	4.48842096
-0.19232711	0.22941625	4.48844147
-0.19149162	0.23005152	4.48844194
-0.19093877	0.23029274	4.48844147
-0.19084074	0.23092425	4.48844337
-0.18988964	0.23125854	4.48844242
-0.18976243	0.23245835	4.48844624
-0.18852630	0.23292482	4.48844528
-0.18762942	0.23348024	4.48844528
-0.18734996	0.23509052	4.48845005
-0.18739088	0.23843327	4.48846149
-0.18746105	0.24120700	4.48847151
-0.18653490	0.24233145	4.48847294
-0.18087129	0.24791420	4.48848009
-0.18002144	0.25424537	4.48849964
-0.17940269	0.25576621	4.48850346
-0.17754263	0.25720224	4.48850441
-0.17503668	0.25820684	4.48850250
-0.17511790	0.25945282	4.48850679
-0.17461237	0.26008475	4.48850822
-0.17384772	0.26089153	4.48850918
-0.17315519	0.26102412	4.48850822
-0.17238863	0.26159614	4.48850822
-0.17046408	0.26266396	4.48850775
-0.16953591	0.26355365	4.48850918
-0.01047939	0.32937148	4.48839283
-0.00933698	0.32963723	4.48839140
-0.00798507	0.32980269	4.48838902
-0.00706075	0.32930669	4.48838520
-0.00570163	0.32961422	4.48838329
-0.00392422	0.32882103	4.48837709
-0.00353810	0.32836789	4.48837471
-0.00164790	0.32849056	4.48837090
-0.00098675	0.32828876	4.48836899
-0.00054637	0.32761446	4.48836565
0.00272468	0.32847095	4.48836136
0.00439942	0.32846984	4.48835802
0.00485435	0.32807988	4.48835564
0.00612019	0.32633224	4.48834705
0.00875886	0.32532933	4.48833799
0.01212928	0.32398048	4.48832607
0.01314349	0.32402813	4.48832417
0.01525992	0.32051587	4.48830795
0.01948763	0.32022864	4.48829794
0.01996750	0.31904846	4.48829269
0.02161168	0.31948808	4.48829079
0.02254213	0.31655884	4.48827887
0.02443354	0.31384462	4.48826551
0.02590364	0.31344748	4.48826075
0.02643758	0.31204584	4.48825502
0.02692483	0.31100810	4.48825026
0.02754962	0.31009570	4.48824596
0.02904449	0.30890882	4.48823881
0.02938683	0.30760252	4.48823357
0.03035082	0.30660084	4.48822832
0.03080150	0.30485198	4.48822117
0.03122716	0.30389336	4.48821688
0.03237253	0.30387029	4.48821449
0.03393623	0.30274588	4.48820734
0.03512864	0.30235937	4.48820353
0.03795345	0.30091158	4.48819256
0.03854585	0.30064690	4.48819065
0.03961104	0.29906017	4.48818254
0.04083245	0.29924196	4.48818064
0.04384604	0.29891491	4.48817301
0.04684494	0.29830354	4.48816490
0.04772867	0.29573801	4.48815393
0.09881496	0.29436684	4.48804045
0.10003650	0.29454863	4.48803806
0.10572872	0.29534262	4.48802900
0.10876125	0.29124653	4.48800850
0.16296366	0.31220415	4.48796368
0.18582073	0.32599980	4.48796177
0.19202679	0.33199820	4.48796892
0.19599435	0.33620083	4.48797464
0.20125079	0.34348497	4.48798847
0.20547873	0.35847878	4.48803043
0.23128700	0.45758200	4.48831224
0.23865065	0.49822223	4.48843479
0.23870176	0.49921718	4.48843765
0.23825294	0.51786780	4.48850203
0.23698789	0.52670228	4.48853493
0.23499863	0.53865409	4.48857975
0.23279279	0.54608011	4.48860979
0.17940909	0.67050487	4.48914719
0.15726233	0.72427368	4.48937702
0.15632623	0.72868103	4.48939419
0.15432811	0.73345858	4.48941469
0.15349141	0.73566020	4.48942375
0.15412031	0.73610657	4.48942423
0.15329090	0.73845059	4.48943377
0.15338889	0.73908210	4.48943567
0.15271173	0.74183643	4.48944664
0.15246750	0.74377376	4.48945379
0.15058208	0.74946725	4.48947716
0.14985788	0.75258470	4.48948908
0.14943218	0.75354367	4.48949337
0.14746471	0.75605309	4.48950624
0.14600036	0.75497174	4.48950577
0.14291656	0.75807285	4.48952246
0.14145935	0.75713348	4.48952246
0.14087427	0.75754017	4.48952532
0.13856575	0.75851852	4.48953342
0.13700211	0.75964284	4.48954058
0.13555217	0.75884593	4.48954105
0.13366205	0.75872314	4.48954487
0.13256791	0.75974137	4.48955059
0.13193884	0.75929523	4.48955011
0.13083728	0.76017129	4.48955584
0.12965232	0.76069987	4.48956013
0.12827130	0.75996602	4.48956060
0.12509820	0.75974071	4.48956633
0.12396745	0.76004815	4.48956966
0.12159736	0.76110590	4.48957872
0.11833365	0.76039141	4.48958302
-0.01539433	0.86770564	4.49023390
-0.01735457	0.87035733	4.49024677
-0.01836544	0.87172258	4.49025393
-0.01880566	0.87239730	4.49025679
-0.01932203	0.87286669	4.49025965
-0.01937143	0.87349206	4.49026203
-0.01967417	0.87429208	4.49026537
-0.02006024	0.87474519	4.49026775
-0.02071728	0.87630546	4.49027443
-0.02028256	0.87710929	4.49027634
-0.02084584	0.87794226	4.49028015
-0.02060289	0.87884188	4.49028254
-0.02189874	0.88007528	4.49028969
-0.02151327	0.88057667	4.49029064
-0.02133915	0.88141334	4.49029303
-0.02106644	0.88192666	4.49029398
-0.02107683	0.88300085	4.49029779
-0.02182708	0.88433349	4.49030399
-0.02201462	0.88578779	4.49030924
-0.02279416	0.88655174	4.49031353
-0.02232355	0.88902080	4.49032116
-0.02348166	0.89038026	4.49032831
-0.02437687	0.89144486	4.49033356
-0.02494021	0.89227778	4.49033785
-0.02531163	0.89301533	4.49034119
-0.02527518	0.89372599	4.49034309
-0.02589263	0.89478046	4.49034834
-0.02624951	0.89580226	4.49035263
-0.02778404	0.89749497	4.49036169
-0.02788506	0.89807999	4.49036360
-0.02983812	0.90087330	4.49037743
-0.03075091	0.90287042	4.49038601
-0.03219477	0.90505230	4.49039650
-0.07678440	0.95243442	4.49065304
-0.07485393	0.95648128	4.49066257
-0.07342216	0.95823771	4.49066544
-0.07248144	0.95964652	4.49066830
-0.07298322	0.96039999	4.49067211
-0.07396398	0.96227980	4.49068022
-0.07278035	0.96458769	4.49068594
-0.07252027	0.96550977	4.49068832
-0.07011573	0.96895421	4.49069500
-0.06978939	0.97020090	4.49069834
-0.06884874	0.97160935	4.49070120
-0.06879508	0.97234273	4.49070358
-0.06926227	0.97311419	4.49070740
-0.06891099	0.97357082	4.49070787
-0.06720111	0.97528970	4.49071026
-0.06654601	0.97752100	4.49071646
-0.06601262	0.97800165	4.49071693
-0.06500065	0.97921145	4.49071884
-0.06408916	0.98005146	4.49071980
-0.06453250	0.98194224	4.49072695
-0.06587833	0.98475569	4.49073935
-0.06520548	0.98605514	4.49074268
-0.06484982	0.98694283	4.49074459
-0.06515245	0.98774284	4.49074841
-0.06461725	0.98891658	4.49075127
-0.06358530	0.98985958	4.49075222
-0.06463320	0.99146914	4.49075985
-0.06309514	0.99301720	4.49076176
-0.06327540	0.99461353	4.49076748
-0.06198816	0.99607491	4.49076986
-0.06254420	0.99704987	4.49077415
-0.06225978	0.99813658	4.49077749
-0.06265335	0.99937487	4.49078226
-0.06211817	1.00054860	4.49078512
-0.06135689	1.00167131	4.49078751
-0.06117545	1.00265002	4.49079037
-0.06038463	1.00431418	4.49079418
-0.06058177	1.00496078	4.49079704
-0.06001437	1.00548613	4.49079752
-0.06119505	1.00737369	4.49080658
-0.06035489	1.00841248	4.49080801
-0.06018807	1.00910676	4.49081039
-0.05962802	1.01041782	4.49081326
-0.05896974	1.01143289	4.49081564
-0.05978446	1.01313353	4.49082327
-0.06061340	1.01452279	4.49082947
-0.05973406	1.01601076	4.49083281
-0.05954531	1.01713181	4.49083614
-0.06008439	1.01905692	4.49084377
-0.06028171	1.02063072	4.49084949
-0.06085290	1.02227628	4.49085665
-0.06158853	1.02389336	4.49086332
-0.06157453	1.02513218	4.49086761
-0.06125800	1.02649856	4.49087143
-0.05963165	1.02787006	4.49087286
-0.06078561	1.03058791	4.49088430
-0.06173506	1.03187406	4.49089098
-0.06093919	1.03301477	4.49089289
-0.06142388	1.03379095	4.49089670
-0.06121320	1.03533840	4.49090147
-0.06105623	1.03615236	4.49090385
-0.06018428	1.03749800	4.49090672
-0.06181514	1.04017961	4.49091911
-0.06124759	1.04070508	4.49092007
-0.06134871	1.04129004	4.49092197
-0.06191020	1.04374373	4.49093151
-0.06213434	1.04448712	4.49093485
-0.06250159	1.04658306	4.49094248
-0.06191949	1.04739285	4.49094391
-0.06303699	1.05082154	4.49095821
-0.06374338	1.05300725	4.49096727
-0.06369231	1.05400229	4.49097013
-0.06395116	1.05565524	4.49097633
-0.06471904	1.05791998	4.49098587
-0.06631653	1.06252885	4.49100494
-0.06717511	1.06430447	4.49101305
-0.06811722	1.06573260	4.49101973
-0.06801186	1.06650639	4.49102211
-0.07568596	1.07780671	4.49107695
-0.07807183	1.08141708	4.49109411
-0.07857358	1.08217084	4.49109793
-0.08157396	1.08561885	4.49111605
-0.08822725	1.09002221	4.49114513
-0.09774181	1.09516275	4.49118328
-0.10354380	1.09764862	4.49120378
-0.14594769	1.10730922	4.49132729
-0.16208796	1.11038935	4.49137211
-0.16763829	1.11107993	4.49138641
-0.33467814	1.12462997	4.49178934
-0.33599031	1.12395871	4.49179029
-0.34280777	1.12199402	4.49179792
-0.34290576	1.12136257	4.49179602
-0.34353477	1.12091649	4.49179602
-0.34849143	1.11943269	4.49180126
-0.34928727	1.11829245	4.49179935
-0.35257301	1.11715126	4.49180222
-0.35339379	1.11680067	4.49180269
-0.35900676	1.11499524	4.49180889
-0.35912669	1.11393738	4.49180555
-0.36042434	1.11355054	4.49180698
-0.36036509	1.11280537	4.49180412
-0.36270952	1.11211860	4.49180698
-0.36335319	1.11138785	4.49180603
-0.36424273	1.11097431	4.49180651
-0.36539242	1.10963893	4.49180412
-0.36696520	1.10900021	4.49180555
-0.36758691	1.10869622	4.49180555
-0.36857450	1.10765123	4.49180412
-0.36951336	1.10693550	4.49180365
-0.36948830	1.10614574	4.49180126
-0.37038529	1.10558987	4.49180126
-0.37075365	1.10511088	4.49180031
-0.37184972	1.10450864	4.49180079
-0.37208533	1.10375142	4.49179840
-0.37192273	1.10308683	4.49179602
-0.37292510	1.10268521	4.49179649
-0.37332308	1.10166478	4.49179411
-0.37406492	1.10122991	4.49179411
-0.37424201	1.10068226	4.49179268
-0.37454891	1.10012424	4.49179125
-0.37510175	1.09988308	4.49179173
-0.37638956	1.09937644	4.49179268
-0.37622702	1.09871197	4.49179029
-0.37701261	1.09742451	4.49178743
-0.37724131	1.09683681	4.49178600
-0.37714022	1.09625185	4.49178362
-0.37743008	1.09571576	4.49178267
-0.37839538	1.09506989	4.49178267
-0.37849385	1.09446561	4.49178076
-0.37919110	1.09392953	4.49178028
-0.37994361	1.09366858	4.49178123
-0.37980735	1.09214711	4.49177551
-0.38174164	1.09119892	4.49177647
-0.38241214	1.09056532	4.49177551
-0.38316363	1.08932257	4.49177313
-0.38274509	1.08729434	4.49176550
-0.38271275	1.08664656	4.49176311
-0.38440561	1.08587766	4.49176407
-0.38516232	1.08425820	4.49176025
-0.38818014	1.08322692	4.49176311
-0.38806117	1.08078241	4.49175453
-0.38990438	1.08029616	4.49175692
-0.38976374	1.07920539	4.49175262
-0.39071965	1.07846713	4.49175215
-0.39430261	1.07757592	4.49175692
-0.39426535	1.07640433	4.49175310
-0.39665413	1.07581925	4.49175596
-0.39763445	1.07491636	4.49175501
-0.39887059	1.07445025	4.49175596
-0.40163761	1.07350540	4.49175882
-0.42051318	1.06963587	4.49178600
-0.42429203	1.06655383	4.49178362
-0.42705405	1.06508553	4.49178457
-0.42835170	1.06469870	4.49178600
-0.43245089	1.06334913	4.49179029
-0.43451512	1.06239009	4.49179125
-0.53783762	1.04313159	4.49194670
-0.65665555	1.02577436	4.49214125
-0.65756845	1.02777112	4.49215031
-0.65801597	1.02830338	4.49215317
-0.66026294	1.02920270	4.49216080
-0.66064167	1.02979815	4.49216366
-0.66165984	1.03102136	4.49216986
-0.66404450	1.03179455	4.49217749
-0.67496836	1.02833843	4.49218941
-0.68515491	1.02488565	4.49219942
-0.78828049	0.96454901	4.49221468
-0.78575480	0.95093358	4.49216270
-0.78498685	0.94866872	4.49215364
-0.82574880	0.89419603	4.49205542
-0.83190638	0.88499761	4.49203730
-0.83204353	0.88391703	4.49203396
-0.83060020	0.88268971	4.49202681
-0.93389803	0.74394882	4.49177551
-0.93770117	0.73977476	4.49176979
-0.93847501	0.73906064	4.49176884
-0.93952668	0.73835677	4.49176884
-0.94071579	0.73752677	4.49176836
-0.94273382	0.73715889	4.49177170
-0.94340229	0.73721826	4.49177313
-0.94730115	0.73307860	4.49176741
-0.94866759	0.73262870	4.49176884
-0.95029879	0.73085302	4.49176598
-0.95114881	0.72993374	4.49176502
-0.95281649	0.72744739	4.49175978
-0.95395327	0.72477591	4.49175310
-0.95582736	0.72210103	4.49174833
-0.95601618	0.72097993	4.49174500
-0.95780689	0.71865225	4.49174070
-0.95798105	0.71781552	4.49173832
-0.95829695	0.71549463	4.49173117
-0.95905274	0.71382117	4.49172688
-0.95954943	0.71312380	4.49172544
-0.95972347	0.71228743	4.49172306
-0.96149659	0.70902723	4.49171591
-0.96172494	0.70841229	4.49171448
-0.96195740	0.70643866	4.49170828
-0.96302116	0.70518851	4.49170589
-0.96189457	0.70352226	4.49169827
-0.96220630	0.70256019	4.49169540
-0.96244192	0.70180297	4.49169350
-0.96265715	0.70075184	4.49169016
-0.96296883	0.69978982	4.49168777
-0.96312070	0.69752467	4.49168015
-0.96435130	0.69558012	4.49167633
-0.96342099	0.69450629	4.49167061
-0.96377772	0.69367272	4.49166870
-0.96335399	0.69294870	4.49166536
-0.96312988	0.69220519	4.49166203
-0.96426046	0.69065744	4.49165916
-0.96541190	0.68862933	4.49165487
-0.96781164	0.68558848	4.49164963
-0.96682513	0.68405843	4.49164248
-0.96660107	0.68331486	4.49163961
-0.96691281	0.68235290	4.49163675
-0.96712404	0.68176001	4.49163532
-0.96680677	0.68124402	4.49163294
-0.96705949	0.68046433	4.49163055
-0.96869075	0.67868865	4.49162817
-0.96832651	0.67780924	4.49162436
-0.96855485	0.67719400	4.49162292
-0.96895248	0.67614627	4.49162006
-0.96834230	0.67494988	4.49161482
-0.96843779	0.67405641	4.49161196
-0.96894383	0.67345178	4.49161100
-0.96865827	0.67262900	4.49160767
-0.97003615	0.67067838	4.49160385
-0.96902281	0.66905117	4.49159622
-0.96826774	0.66812241	4.49159145
-0.96908545	0.66655529	4.49158764
-0.96898919	0.66556644	4.49158430
-0.97007728	0.66415185	4.49158144
-0.96834123	0.66224372	4.49157143
-0.96770906	0.66147369	4.49156761
-0.96766645	0.65975130	4.49156141
-0.96770293	0.65904069	4.49155903
-0.96798235	0.65743041	4.49155426
-0.96858394	0.65593231	4.49155045
-0.96836150	0.65356863	4.49154186
-1.08984327	0.53366560	4.49139404
-1.09582520	0.53233588	4.49140215
-1.09866345	0.53066230	4.49140263
-1.10081828	0.52921408	4.49140215
-1.10141087	0.52947837	4.49140453
-1.10637009	0.53274155	4.49142599
-1.10952997	0.53563750	4.49144268
-1.11227119	0.53743279	4.49145460
-1.11517954	0.53853333	4.49146461
-1.11843610	0.53796118	4.49146986
-1.12508833	0.52965820	4.49145555
-1.16206503	0.48214680	4.49137306
-1.16284931	0.48250687	4.49137592
-1.16439247	0.48148227	4.49137592
-1.16551340	0.48167011	4.49137878
-1.16600478	0.48134974	4.49137878
-1.16679645	0.48156750	4.49138117
-1.16732001	0.48189500	4.49138355
-1.16892457	0.48094955	4.49138355
-1.16971612	0.48116755	4.49138594
-1.17056191	0.48160678	4.49138927
-1.17265356	0.48169985	4.49139404
-1.17442548	0.48101461	4.49139547
-1.17543757	0.47980487	4.49139357
-1.17686844	0.48065102	4.49139977
-1.17821300	0.48062751	4.49140263
-1.18013966	0.47979420	4.49140358
-1.18201506	0.47995621	4.49140835
-1.18382907	0.48003867	4.49141264
-1.18578064	0.47999549	4.49141645
-1.18703425	0.48046160	4.49142075
-1.19004810	0.48078868	4.49142838
-1.19294167	0.48217356	4.49143934
-1.19525743	0.48300985	4.49144697
-1.20014048	0.48647779	4.49146938
-1.20183456	0.48761821	4.49147654
-1.20304143	0.48772076	4.49147940
-1.20603323	0.48847416	4.49148846
-1.20903945	0.48894358	4.49149656
-1.21360075	0.48784208	4.49150276
-1.21420062	0.48796433	4.49150419
-1.21643162	0.48631099	4.49150324
-1.21830702	0.48647290	4.49150801
-1.22769928	0.47712845	4.49149609
-1.22931659	0.47841945	4.49150419
-1.23053086	0.47837973	4.49150658
-1.23226130	0.47880939	4.49151182
-1.23413670	0.47897142	4.49151611
-1.23520601	0.47919935	4.49151945
-1.23602688	0.47884876	4.49151993
-1.23722637	0.47909325	4.49152327
-1.23808932	0.47951007	4.49152660
-1.23935032	0.47983414	4.49153042
-1.24077833	0.47946349	4.49153233
-1.24206877	0.47921851	4.49153423
-1.24274445	0.47913596	4.49153519
-1.24452615	0.47857064	4.49153709
-1.24580181	0.47861004	4.49153996
-1.24642360	0.47830597	4.49154043
-1.24785876	0.47779328	4.49154139
-1.25062084	0.47632498	4.49154234
-1.25221550	0.47525999	4.49154234
-1.25367987	0.47417900	4.49154186
-1.25420356	0.47450614	4.49154377
-1.25721335	0.47173473	4.49154091
-1.25774693	0.47218144	4.49154377
-1.25941777	0.47091156	4.49154282
-1.26101077	0.47146729	4.49154806
-1.26252675	0.47034556	4.49154758
-1.26488900	0.47059074	4.49155331
-1.26656699	0.46917853	4.49155235
-1.26920176	0.46891040	4.49155712
-1.27027118	0.46913868	4.49155998
-1.27171373	0.46848369	4.49156094
-1.28441513	0.45595157	4.49154568
-1.28593206	0.45671219	4.49155140
-1.28745079	0.45585230	4.49155140
-1.29024780	0.45083642	4.49154043
-1.32375777	0.36408556	4.49131727
-1.32633746	0.35630172	4.49129629
-1.32671487	0.35406029	4.49128962
-1.32304931	0.32661879	4.49118805
-1.31984007	0.31768519	4.49115086
