//X	Y	Z
-0.82691073	0.90556848	4.70110226
-0.82774919	0.90427238	4.70108557
-0.82637548	0.90289223	4.70108700
-0.82718551	0.90150434	4.70106936
-0.82824433	0.90032190	4.70105171
-0.82894331	0.89957058	4.70103979
-0.82986724	0.89854944	4.70102406
-0.83207083	0.89604157	4.70098639
-0.84203780	0.88475490	4.70081520
-0.84216726	0.88258600	4.70079803
-0.84327573	0.88096678	4.70077610
-0.84448320	0.87847352	4.70074701
-0.84447587	0.87785298	4.70074224
-0.84782821	0.87405503	4.70068502
-0.84745497	0.87227684	4.70067453
-0.84752113	0.87169409	4.70066977
-0.84795892	0.87091827	4.70066023
-0.84873587	0.86982179	4.70064497
-0.84886807	0.86865646	4.70063543
-0.84928203	0.86740589	4.70062256
-0.84931970	0.86673123	4.70061684
-0.84932888	0.86596513	4.70061111
-0.85028577	0.86465305	4.70059299
-0.84992725	0.86411595	4.70059204
-0.84995759	0.86282110	4.70058203
-0.85121739	0.86089462	4.70055676
-0.85130000	0.86016643	4.70055056
-0.85092223	0.85877132	4.70054340
-0.85279119	0.85620099	4.70050812
-0.85175663	0.85449988	4.70050430
-0.85219157	0.85272038	4.70048714
-0.85187078	0.85150898	4.70048046
-0.85136533	0.85089612	4.70048046
-0.85166097	0.84966105	4.70046854
-0.85174346	0.84893292	4.70046234
-0.85072082	0.84746927	4.70046043
-0.85038340	0.84640372	4.70045519
-0.84889573	0.84465635	4.70045519
-0.84963977	0.84385085	4.70044279
-0.96285760	0.73510689	4.69864607
-0.96258163	0.73384166	4.69863892
-0.96583211	0.72991377	4.69858170
-0.96544522	0.72928464	4.69858027
-0.96485913	0.72801328	4.69857550
-0.96390569	0.72361255	4.69855070
-0.96498090	0.72228467	4.69853163
-0.96368623	0.71972132	4.69852352
-0.96307302	0.71739024	4.69851160
-0.96340871	0.71648479	4.69850159
-0.96342665	0.71537113	4.69849348
-0.96373010	0.71433789	4.69848299
-0.96333921	0.71367300	4.69848108
-0.96512592	0.71141201	4.69844866
-0.96524620	0.71000952	4.69843721
-0.96512175	0.70843709	4.69842672
-0.96454352	0.70736676	4.69842339
-0.96493304	0.70606023	4.69841051
-0.96605521	0.70329159	4.69837999
-0.96366382	0.69964588	4.69837332
-0.96324569	0.69792151	4.69836378
-0.96206039	0.69597900	4.69835949
-0.96159256	0.69469172	4.69835424
-0.96545082	0.69108748	4.69829369
-0.96516764	0.68920171	4.69828176
-1.07230306	0.55587113	4.69635391
-1.07519007	0.55514753	4.69632339
-1.07833374	0.55483109	4.69629383
-1.08219242	0.55697560	4.69627619
-1.08458781	0.55448973	4.69623709
-1.08517122	0.55475754	4.69623375
-1.08869588	0.55348182	4.69619370
-1.09231186	0.55406952	4.69616699
-1.09603882	0.55402118	4.69613409
-1.09685624	0.55325341	4.69612169
-1.09802759	0.55340636	4.69611263
-1.09960091	0.55207109	4.69608879
-1.10016048	0.55186373	4.69608259
-1.10151625	0.55141813	4.69606733
-1.10211158	0.55192369	4.69606590
-1.10347211	0.55109465	4.69604778
-1.10486102	0.55035788	4.69603062
-1.10624528	0.55000383	4.69601583
-1.10917902	0.54783946	4.69597387
-1.11683023	0.54066503	4.69585419
-1.12124753	0.53727293	4.69579029
-1.12302923	0.53581429	4.69576406
-1.12470031	0.53457236	4.69574022
-1.12766266	0.53250015	4.69569874
-1.12983596	0.53128672	4.69567108
-1.13474786	0.52730262	4.69559860
-1.13579166	0.52823734	4.69559669
-1.13799334	0.52711606	4.69556904
-1.14211023	0.52870005	4.69554520
-1.14458036	0.52822340	4.69552040
-1.15718889	0.54446119	4.69553280
-1.16028309	0.54458177	4.69550705
-1.16380906	0.54527724	4.69548178
-1.16523099	0.54424918	4.69546175
-1.19324696	0.51604420	4.69500732
-1.19440770	0.51499170	4.69498920
-1.19567811	0.51427054	4.69497299
-1.19634700	0.51481366	4.69497108
-1.19789183	0.51338637	4.69494724
-1.19878149	0.51362479	4.69494104
-1.20074177	0.51291823	4.69491911
-1.20202422	0.51243436	4.69490433
-1.20277560	0.51224971	4.69489622
-1.20487523	0.51099849	4.69486856
-1.20695877	0.50989270	4.69484234
-1.20869243	0.51084220	4.69483471
-1.21181798	0.50870025	4.69479132
-1.21317840	0.50787151	4.69477320
-1.21386814	0.50788575	4.69476748
-1.21510124	0.50783885	4.69475651
-1.21584058	0.50741673	4.69474697
-1.21710646	0.50707853	4.69473362
-1.21836782	0.50712389	4.69472265
-1.21924210	0.50653994	4.69471073
-1.21973550	0.50691533	4.69470930
-1.22153974	0.50689912	4.69469357
-1.22218919	0.50658458	4.69468546
-1.22276545	0.50623167	4.69467783
-1.22396064	0.50685924	4.69467258
-1.22517705	0.50695825	4.69466257
-1.22607970	0.50646615	4.69465113
-1.22791243	0.50654197	4.69463587
-1.22925186	0.50624168	4.69462204
-1.22983527	0.50650942	4.69461870
-1.23091650	0.50676990	4.69461155
-1.23230553	0.50603276	4.69459391
-1.23342276	0.50700581	4.69459152
-1.23408866	0.50654542	4.69458246
-1.23521042	0.50713515	4.69457722
-1.23590493	0.50676632	4.69456816
-1.23651683	0.50712609	4.69456577
-1.23907697	0.50654185	4.69453907
-1.24257755	0.50479126	4.69449568
-1.24365449	0.50543463	4.69449091
-1.24899554	0.50102186	4.69441175
-1.25401556	0.49875560	4.69435120
-1.25451815	0.49836490	4.69434404
-1.26123619	0.49297768	4.69424534
-1.26359868	0.49078307	4.69420862
-1.26478648	0.49079007	4.69419813
-1.26685321	0.48983008	4.69417334
-1.27451921	0.48389664	4.69406223
-1.27983642	0.47900894	4.69397926
-1.28408098	0.47645304	4.69392347
-1.28955984	0.47288206	4.69384909
-1.29356670	0.46502817	4.69375563
-1.29602861	0.45860124	4.69368601
-1.29778671	0.45330906	4.69363117
-1.30141783	0.43931508	4.69349480
-1.30604804	0.42001212	4.69330978
-1.30439436	0.32771510	4.69263220
-1.28914905	0.27727258	4.69238567
-1.23376012	0.24565166	4.69262838
-1.22348082	0.23997551	4.69267511
-1.21528172	0.23848730	4.69273472
-1.21014333	0.23783010	4.69277430
-1.20726371	0.23917437	4.69280958
-1.20350075	0.23851037	4.69283676
-1.20162308	0.23848879	4.69285297
-1.20067811	0.24003834	4.69287300
-1.19955158	0.23983210	4.69288111
-1.19562364	0.24062449	4.69292116
-1.19537759	0.24142236	4.69292927
-1.19469988	0.24164516	4.69293690
-1.19231200	0.24139363	4.69295549
-1.19208252	0.24204600	4.69296265
-1.18889856	0.24203300	4.69298983
-1.18622732	0.24325395	4.69302225
-1.18499899	0.24291736	4.69303036
-1.18347514	0.24381590	4.69305038
-1.18215990	0.24459118	4.69306755
-1.18174577	0.24584174	4.69308043
-1.18003607	0.24536729	4.69309187
-1.17871332	0.24552172	4.69310427
-1.17570460	0.24567646	4.69313145
-1.17543006	0.24638265	4.69313908
-1.17305434	0.24636865	4.69315958
-1.17215896	0.24748105	4.69317579
-1.17159939	0.24768806	4.69318199
-1.17087650	0.24796504	4.69319057
-1.16797566	0.24983770	4.69322968
-1.16706824	0.25071293	4.69324398
-1.16434002	0.25175023	4.69327545
-1.16261077	0.25377578	4.69330549
-1.16159415	0.25390053	4.69331551
-1.16075683	0.25422919	4.69332504
-1.15941024	0.25390846	4.69333458
-1.15877271	0.25446051	4.69334412
-1.15774488	0.25673866	4.69336987
-1.15467203	0.25608909	4.69339180
-1.15408421	0.25620437	4.69339800
-1.15341806	0.25666481	4.69340706
-1.15256763	0.25772333	4.69342232
-1.15140843	0.26074719	4.69345522
-1.15010154	0.26117539	4.69346952
-1.14914322	0.26345521	4.69349480
-1.14826441	0.26442206	4.69351006
-1.14688921	0.26400971	4.69351864
-1.14619422	0.26479721	4.69353056
-1.14418960	0.26513869	4.69355059
-1.14207315	0.26653540	4.69357920
-1.14110434	0.26761001	4.69359589
-1.13928342	0.26777202	4.69361258
-1.13863850	0.26770359	4.69361782
-1.13634968	0.26993644	4.69365454
-1.13570476	0.26986796	4.69365931
-1.13439381	0.27025986	4.69367361
-1.13291502	0.27110457	4.69369268
-1.12968135	0.27152857	4.69372416
-1.12895393	0.27218828	4.69373512
-1.12446356	0.27218446	4.69377422
-1.12174451	0.27245533	4.69379997
-1.12087297	0.27404276	4.69381905
-1.11789453	0.27290264	4.69383669
-1.11726165	0.27307174	4.69384336
-1.11508846	0.27428469	4.69387102
-1.11426640	0.27543530	4.69388676
-1.09475756	0.26954544	4.69401169
-1.09144151	0.27069765	4.69404936
-1.08845806	0.27329886	4.69409466
-1.08748460	0.27475670	4.69411373
-1.08604169	0.27631363	4.69413805
-1.08514142	0.27780941	4.69415712
-1.08369112	0.27874580	4.69417667
-1.08234727	0.27942905	4.69419336
-1.08202791	0.28018892	4.69420195
-1.08028507	0.28000593	4.69421577
-1.07957864	0.28013670	4.69422293
-1.07695699	0.28092054	4.69425106
-1.07608271	0.28150451	4.69426346
-1.07518721	0.28261718	4.69427919
-1.07172728	0.28133887	4.69429970
-1.06839907	0.28225362	4.69433546
-1.06611025	0.28448644	4.69437218
-1.06426096	0.28455648	4.69438839
-1.06343877	0.28570709	4.69440413
-1.06000876	0.28649217	4.69443989
-1.05686069	0.28719166	4.69447231
-1.05356288	0.28681147	4.69449806
-1.05040264	0.28727379	4.69452906
-1.04737473	0.28657046	4.69455004
-1.04442906	0.28849727	4.69459009
-1.04032683	0.28815439	4.69462299
-1.03769779	0.28831771	4.69464684
-1.03486609	0.28725368	4.69466352
-1.03109872	0.28697285	4.69469404
-1.03029788	0.28759459	4.69470549
-1.02884746	0.28853092	4.69472504
-1.02646434	0.28789645	4.69474125
-1.02528381	0.28850999	4.69475603
-1.02279425	0.28812853	4.69477463
-1.01921213	0.29593715	4.69486427
-1.01641631	0.29558542	4.69488573
-1.01580000	0.29560861	4.69489145
-1.01321578	0.29571816	4.69491434
-1.01012170	0.29559782	4.69494057
-1.00883198	0.29546079	4.69495058
-1.00816607	0.29592127	4.69495964
-1.00681472	0.29598358	4.69497204
-1.00556087	0.29655921	4.69498730
-1.00424254	0.29633060	4.69499683
-1.00133288	0.29561177	4.69501638
-0.99957049	0.29792857	4.69504929
-0.99718285	0.29767707	4.69506788
-0.99521977	0.29738000	4.69508266
-0.98226213	0.29188487	4.69515371
-0.97829658	0.29335195	4.69519901
-0.97520244	0.29323131	4.69522524
-0.97452462	0.29345411	4.69523287
-0.97270381	0.29361621	4.69524956
-0.97112119	0.29571787	4.69527912
-0.96810055	0.29563504	4.69530487
-0.96490693	0.29974672	4.69536304
-0.96380603	0.30198658	4.69538927
-0.95956624	0.30080146	4.69541740
-0.95741224	0.30287263	4.69545174
-0.95546848	0.30343357	4.69547272
-0.95201111	0.30945635	4.69554758
-0.94677258	0.30728272	4.69557667
-0.94498926	0.30677044	4.69558859
-0.94442981	0.30697739	4.69559479
-0.94301701	0.30723944	4.69560909
-0.94222355	0.30848172	4.69562531
-0.94033802	0.31119785	4.69566202
-0.93945450	0.31254783	4.69567966
-0.93765450	0.31553936	4.69571781
-0.93678021	0.31612295	4.69572973
-0.93537474	0.31700578	4.69574833
-0.93420327	0.31685299	4.69575739
-0.92986298	0.31457055	4.69577789
-0.92906213	0.31519225	4.69578934
-0.92700875	0.31836078	4.69583130
-0.92429239	0.31963563	4.69586420
-0.92343009	0.32045671	4.69587803
-0.92007017	0.32069525	4.69590855
-0.91822970	0.32335722	4.69594479
-0.91720116	0.32324475	4.69595289
-0.91546726	0.32565323	4.69598579
-0.91486263	0.32591444	4.69599295
-0.91235340	0.32803321	4.69603062
-0.91146392	0.32779482	4.69603634
-0.90954113	0.32782695	4.69605350
-0.90808487	0.33011439	4.69608307
-0.90750420	0.33085027	4.69609356
-0.90575683	0.33105025	4.69611025
-0.90336454	0.33118173	4.69613218
-0.90256828	0.33142015	4.69614077
-0.90083885	0.33344606	4.69617081
-0.89835668	0.33368516	4.69619417
-0.89766949	0.33467442	4.69620752
-0.89620447	0.33436960	4.69621801
-0.89560729	0.33525097	4.69622993
-0.89496243	0.33518243	4.69623470
-0.89290476	0.33537635	4.69625425
-0.89232880	0.33572888	4.69626188
-0.89148283	0.33640474	4.69627428
-0.88857341	0.33555603	4.69629288
-0.88662219	0.33562595	4.69631052
-0.88602966	0.33599481	4.69631815
-0.88531125	0.33601791	4.69632483
-0.88272250	0.33651045	4.69635105
-0.87958348	0.33644384	4.69637775
-0.87694395	0.33527195	4.69639158
-0.87186241	0.33786732	4.69645500
-0.86901999	0.34189543	4.69650984
-0.86828065	0.34231761	4.69651937
-0.86589289	0.34206614	4.69653845
-0.86517000	0.34234279	4.69654655
-0.86272073	0.34229088	4.69656754
-0.86157060	0.34160918	4.69657230
-0.85946792	0.34185681	4.69659233
-0.85893238	0.34253848	4.69660234
-0.85529709	0.34109268	4.69662285
-0.85360384	0.34047252	4.69663286
-0.85072732	0.33946222	4.69665003
-0.84814322	0.33957174	4.69667339
-0.84297812	0.33743599	4.69670200
-0.84243965	0.33711410	4.69670439
-0.83903813	0.33799127	4.69674015
-0.83779329	0.33780053	4.69674969
-0.83584940	0.33836159	4.69677067
-0.83471572	0.33753434	4.69677448
-0.83345449	0.33748904	4.69678497
-0.83212709	0.33802688	4.69680071
-0.83088225	0.33783612	4.69680977
-0.82604963	0.34050739	4.69687176
-0.82327181	0.34198147	4.69690704
-0.81937230	0.34286594	4.69694710
-0.81769550	0.34210023	4.69695616
-0.81471986	0.34196359	4.69698095
-0.81180251	0.34398255	4.69702148
-0.81091172	0.34471187	4.69703436
-0.80974036	0.34455904	4.69704342
-0.80915236	0.34467429	4.69704962
-0.80500829	0.34832805	4.69711256
-0.80053234	0.35292333	4.69718599
-0.79724145	0.35652196	4.69724131
-0.79044998	0.36187142	4.69734049
-0.78746700	0.36111429	4.69736052
-0.78436089	0.36075637	4.69738483
-0.78147244	0.35950866	4.69740057
-0.76046741	0.38008764	4.69773674
-0.73672664	0.40108335	4.69810009
-0.73601580	0.40159714	4.69811010
-0.73545623	0.40180451	4.69811630
-0.73343897	0.40232727	4.69813776
-0.73226762	0.40217447	4.69814682
-0.73013932	0.40333399	4.69817400
-0.71011978	0.41639543	4.69844532
-0.70610452	0.41829944	4.69849443
-0.70401382	0.41878429	4.69851589
-0.70116776	0.41941831	4.69854546
-0.69887924	0.41829276	4.69855690
-0.69592935	0.41724432	4.69857454
-0.68919432	0.41073143	4.69858408
-0.68702096	0.41194481	4.69861174
-0.68546724	0.41077977	4.69861650
-0.64956820	0.41164118	4.69893408
-0.54457545	0.29522821	4.69897032
-0.54148448	0.29275310	4.69897890
-0.53847337	0.28854626	4.69897318
-0.53731859	0.28824788	4.69898081
-0.53539169	0.28530470	4.69897556
-0.53399396	0.28344977	4.69897366
-0.53147167	0.28000170	4.69896984
-0.53086716	0.28026247	4.69897699
-0.52945751	0.27817005	4.69897366
-0.52892375	0.27746508	4.69897270
-0.52792954	0.27609348	4.69897127
-0.52682889	0.27497503	4.69897223
-0.52467972	0.27330506	4.69897842
-0.52424788	0.27272981	4.69897795
-0.52372599	0.27226239	4.69897890
-0.52310956	0.27228594	4.69898462
-0.52186924	0.27171218	4.69899082
-0.51840943	0.27043384	4.69901133
-0.43073034	0.12202698	4.69865751
-0.43422031	0.11907119	4.69860554
-0.43758792	0.11609520	4.69855404
-0.44950688	0.10738814	4.69838524
-0.45458555	0.10391875	4.69831514
-0.45809543	0.10140187	4.69826603
-0.45835328	0.10084160	4.69825935
-0.46939158	0.09448840	4.69811630
-0.47509581	0.09022936	4.69803476
-0.48868802	0.07876444	4.69783115
-0.48984593	0.07670835	4.69780588
-0.49134171	0.07235986	4.69776011
-0.49399260	0.06495133	4.69768143
-0.49247184	0.06349534	4.69768381
-0.49341729	0.05858743	4.69763899
-0.49451408	0.05337265	4.69759035
-0.49167058	0.05207118	4.69760513
-0.49155989	0.04934958	4.69758558
-0.49102145	0.04902768	4.69758797
-0.49091080	0.04630587	4.69756842
-0.48987010	0.04301658	4.69755268
-0.48990774	0.04234219	4.69754744
-0.49142310	0.03549346	4.69748306
-0.48944661	0.03298748	4.69748116
-0.48886812	0.02897835	4.69745636
-0.48621377	0.02669516	4.69746208
-0.47459373	0.02228677	4.69752979
-0.47069454	0.01981288	4.69754505
-0.46289578	0.01822346	4.69760036
-0.45688015	0.01714668	4.69764471
-0.44573671	0.01661783	4.69773722
-0.38383511	0.02946153	4.69836950
-0.38547999	0.03584786	4.69840336
-0.38311756	0.03804290	4.69844007
-0.38133588	0.03950199	4.69846678
-0.38079250	0.04292144	4.69849682
-0.38072184	0.04388709	4.69850492
-0.35157233	0.06186871	4.69889212
-0.35146123	0.06250516	4.69889784
-0.34839988	0.06545147	4.69894648
-0.33318973	0.07494745	4.69914961
-0.33237177	0.07613388	4.69916534
-0.32955682	0.07786359	4.69920301
-0.32717794	0.08020395	4.69924116
-0.32699350	0.08080222	4.69924736
-0.32586983	0.08159950	4.69926310
-0.32364696	0.08324963	4.69929457
-0.32017016	0.08547516	4.69934130
-0.32002610	0.08640295	4.69934940
-0.31714189	0.08813013	4.69938755
-0.31341904	0.09115387	4.69944239
-0.31356275	0.09358442	4.69945955
-0.31284720	0.09448163	4.69947243
-0.31262973	0.09537119	4.69948101
-0.31306446	0.09695007	4.69948912
-0.31261468	0.09748839	4.69949675
-0.31036341	0.09904651	4.69952822
-0.30662128	0.10121217	4.69957685
-0.30422136	0.10408142	4.69961882
-0.30385977	0.10589874	4.69963598
-0.30239284	0.10698095	4.69965649
-0.24960129	0.13613713	4.70033264
-0.24542607	0.13869530	4.70038795
-0.23677327	0.14387754	4.70050192
-0.23379454	0.14609534	4.70054436
-0.23237263	0.14712374	4.70056438
-0.23074970	0.14889617	4.70059156
-0.22792694	0.15042412	4.70062733
-0.22645088	0.15227236	4.70065403
-0.22437939	0.15361561	4.70068216
-0.22282258	0.15480542	4.70070457
-0.22167195	0.15748203	4.70073462
-0.21993148	0.15859196	4.70075798
-0.21616837	0.16128598	4.70081091
-0.21558687	0.16270038	4.70082664
-0.21548769	0.16357431	4.70083380
-0.21258694	0.16544735	4.70087290
-0.21280408	0.16791576	4.70088959
-0.20981339	0.16989642	4.70093060
-0.20894180	0.17148389	4.70095015
-0.20453379	0.17410955	4.70100784
-0.20386280	0.17524232	4.70102215
-0.20130396	0.17779824	4.70106363
-0.19340721	0.18241225	4.70116663
-0.17845869	0.19768128	4.70141029
-0.17975280	0.20079318	4.70142269
-0.17343399	0.20368846	4.70149899
-0.03527800	0.30673712	4.70346880
-0.03223199	0.30420822	4.70347643
-0.02882184	0.29913497	4.70346785
-0.02756066	0.29908979	4.70347834
-0.02488938	0.30031046	4.70351076
-0.02433901	0.29975140	4.70351124
-0.02207161	0.29809698	4.70351839
-0.01846289	0.29812983	4.70354986
-0.01787951	0.29786170	4.70355272
-0.01693641	0.29802471	4.70356226
-0.01641908	0.29717427	4.70356035
-0.01522842	0.29616332	4.70356321
-0.01404513	0.29577339	4.70357037
-0.01287379	0.29562050	4.70357943
-0.01000608	0.29720217	4.70361614
-0.00930422	0.29695040	4.70362043
-0.00762022	0.29556376	4.70362473
-0.00294755	0.29758081	4.70368004
-0.00164127	0.29758972	4.70369148
-0.00046993	0.29743686	4.70370054
0.00085278	0.29759136	4.70371342
0.00195943	0.29782397	4.70372438
0.00291053	0.29778525	4.70373249
0.00349849	0.29790047	4.70373821
0.00406070	0.29710349	4.70373726
0.00513882	0.29742786	4.70374918
0.00574661	0.29710421	4.70375204
0.00710645	0.29751378	4.70376682
0.00739559	0.29697886	4.70376539
0.00821979	0.29657724	4.70376921
0.01001152	0.29641184	4.70378351
0.01341175	0.29632086	4.70381260
0.06905890	0.31790009	4.70445633
0.07648963	0.31272337	4.70448208
0.08287875	0.31322643	4.70454121
0.08403820	0.31331110	4.70455170
0.20451456	0.40399653	4.70627546
0.20833197	0.40751085	4.70633507
0.21156120	0.41090989	4.70638847
0.21246132	0.41240564	4.70640755
0.21630281	0.41880324	4.70648861
0.22234708	0.43009961	4.70662594
0.24114823	0.48795590	4.70722246
0.25078827	0.57612407	4.70796728
0.24972028	0.58957970	4.70805883
0.24954346	0.59171891	4.70807362
0.24932170	0.59380436	4.70808744
0.24741897	0.59963042	4.70811462
0.24464965	0.60761040	4.70815039
0.17989555	0.76209855	4.70874834
0.17818612	0.76593089	4.70876217
0.17778723	0.76679754	4.70876503
0.17597137	0.77037680	4.70877600
0.16612640	0.78358090	4.70878983
0.16122419	0.79001874	4.70879555
0.15979043	0.78922784	4.70877743
0.15852442	0.78888971	4.70876408
0.15740725	0.78986239	4.70876169
0.15497464	0.79006010	4.70874214
0.15373251	0.78924727	4.70872498
0.15309682	0.79008180	4.70872593
0.15255851	0.79040372	4.70872355
0.15128800	0.78968251	4.70870733
0.15014228	0.79074693	4.70870543
0.14788672	0.79216373	4.70869637
0.14667046	0.79226267	4.70868635
0.14286536	0.79186893	4.70865059
0.14150950	0.79142314	4.70863533
0.14100692	0.79103243	4.70862818
0.13912648	0.79205805	4.70861959
0.13790551	0.79177368	4.70860672
0.13734606	0.79156673	4.70860052
0.13669375	0.79225576	4.70860004
0.13286027	0.79195404	4.70856476
0.13087422	0.79033554	4.70853519
0.00777513	0.91116661	4.70837498
0.00688738	0.91279161	4.70837975
0.00709304	0.91391909	4.70838976
0.00650537	0.91716212	4.70840883
0.00504616	0.91881740	4.70840883
0.00583979	0.92005974	4.70842505
0.00558496	0.92185378	4.70843649
0.00273725	0.92613077	4.70844364
0.00229338	0.92694318	4.70844603
0.00237596	0.92767137	4.70845222
-0.00002792	0.93113542	4.70845747
-0.00506967	0.93702841	4.70845795
-0.00796235	0.94125116	4.70846462
-0.00978735	0.94406438	4.70846987
-0.01137701	0.94594121	4.70846987
-0.05088174	0.99361438	4.70848513
-0.05173641	0.99553072	4.70849228
-0.05100888	0.99619079	4.70850372
-0.05136240	1.00046921	4.70853281
-0.05176139	1.00133550	4.70853567
-0.05114919	1.00433373	4.70856333
-0.05581585	1.00983560	4.70856428
-0.05569673	1.01040006	4.70856953
-0.05608377	1.01102889	4.70857096
-0.05446076	1.01280129	4.70859814
-0.05444309	1.01378512	4.70860577
-0.05498415	1.01524007	4.70861197
-0.05418608	1.01686549	4.70863104
-0.05028680	1.02055919	4.70869255
-0.05200535	1.02362585	4.70870066
-0.05144727	1.02580428	4.70872164
-0.05049586	1.02912390	4.70875502
-0.04994240	1.03091919	4.70877314
-0.04893133	1.03305113	4.70879793
-0.04911268	1.03480732	4.70880985
-0.04831913	1.03604960	4.70882559
-0.04818696	1.03721488	4.70883560
-0.04790792	1.03830409	4.70884609
-0.04880032	1.03954577	4.70884800
-0.04873699	1.04113197	4.70886040
-0.04901287	1.04239750	4.70886755
-0.04897523	1.04307199	4.70887280
-0.04833767	1.04362392	4.70888233
-0.04930344	1.04490399	4.70888376
-0.04973543	1.04547894	4.70888424
-0.04837042	1.04669094	4.70890522
-0.04972312	1.04859972	4.70890760
-0.05015507	1.04917479	4.70890856
-0.04951760	1.04972684	4.70891809
-0.04927886	1.05114555	4.70893049
-0.05035532	1.05514705	4.70895147
-0.05071384	1.05568409	4.70895243
-0.05072123	1.05630457	4.70895672
-0.05048716	1.05734003	4.70896673
-0.04980463	1.05794597	4.70897722
-0.04949263	1.05932641	4.70899010
-0.04934844	1.06025410	4.70899820
-0.05070847	1.06278384	4.70900583
-0.05140719	1.06539011	4.70901918
-0.05114019	1.06671679	4.70903158
-0.05298904	1.07000506	4.70904016
-0.05436572	1.07238841	4.70904589
-0.05478111	1.07310939	4.70904779
-0.05523688	1.07415938	4.70905161
-0.05568072	1.07497191	4.70905399
-0.05590245	1.07705736	4.70906782
-0.05728373	1.07905757	4.70907068
-0.05766147	1.08045292	4.70907784
-0.05755043	1.08108926	4.70908356
-0.05663389	1.08273053	4.70910406
-0.05755466	1.08406425	4.70910597
-0.05795363	1.08493066	4.70910883
-0.05944264	1.08864963	4.70912409
-0.05899701	1.08922374	4.70913219
-0.05949774	1.09021997	4.70913506
-0.05767381	1.09273636	4.70916986
-0.05896050	1.09522772	4.70917749
-0.05861536	1.09689963	4.70919323
-0.05849966	1.09791911	4.70920181
-0.05878478	1.09841824	4.70920277
-0.05940402	1.09939814	4.70920467
-0.05855808	1.10007417	4.70921707
-0.05841398	1.10100174	4.70922565
-0.05804497	1.10219884	4.70923758
-0.05913648	1.10408330	4.70924234
-0.05900308	1.10621619	4.70925951
-0.05969110	1.10761774	4.70926428
-0.05976146	1.11000991	4.70928144
-0.06101051	1.11317575	4.70929432
-0.06026638	1.11398125	4.70930672
-0.06105962	1.11609721	4.70931578
-0.06177026	1.11894107	4.70933104
-0.06365219	1.12193799	4.70933723
-0.06945416	1.13023806	4.70934916
-0.07470152	1.13500357	4.70933962
-0.08063865	1.13978386	4.70932388
-0.09220949	1.14127111	4.70923471
-0.14483249	1.14379525	4.70879793
-0.15286997	1.14396596	4.70872927
-0.16790825	1.14399374	4.70859957
-0.30856335	1.12681794	4.70725203
-0.30985776	1.12657142	4.70723915
-0.31380683	1.12525010	4.70719481
-0.31542063	1.12424409	4.70717335
-0.31930831	1.12312210	4.70713139
-0.31994122	1.12295294	4.70712471
-0.32733339	1.12024629	4.70704031
-0.33153582	1.11874771	4.70699263
-0.33327588	1.11792707	4.70697117
-0.33493468	1.11686695	4.70694923
-0.33558407	1.11655235	4.70694113
-0.33704638	1.11585331	4.70692301
-0.33775738	1.11533904	4.70691299
-0.34313121	1.11399293	4.70685673
-0.34480834	1.11140072	4.70682240
-0.34700537	1.11066234	4.70679808
-0.34733397	1.10913634	4.70678377
-0.34801197	1.10891342	4.70677614
-0.34917596	1.10844541	4.70676231
-0.35326001	1.10696280	4.70671606
-0.35424086	1.10612535	4.70670128
-0.35406286	1.10482454	4.70669317
-0.35705626	1.10397696	4.70666075
-0.35751402	1.10351062	4.70665312
-0.35907802	1.10307121	4.70663643
-0.35954046	1.10222149	4.70662594
-0.52804703	1.06391597	4.70487881
-0.53061455	1.06395233	4.70485687
-0.53135270	1.06449759	4.70485497
-0.53252399	1.06465054	4.70484591
-0.53344607	1.06501639	4.70484066
-0.53405792	1.06537616	4.70483780
-0.53502500	1.06568825	4.70483208
-0.53560835	1.06595635	4.70482874
-0.53658152	1.06785691	4.70483446
-0.53983164	1.06728685	4.70480204
-0.54166436	1.06736243	4.70478678
-0.54422456	1.06677818	4.70476055
-0.54523718	1.06661725	4.70475054
-0.54540789	1.06716812	4.70475292
-0.54569298	1.06766737	4.70475435
-0.55491865	1.06448734	4.70465040
-0.67874366	1.01911962	4.70323753
-0.70037121	1.00333381	4.70293188
-0.70847815	0.99720949	4.70281553
