//X	Y	Z
-0.18651825	-0.67427778	1.32378316
-0.18563697	-0.67364913	1.32377648
-0.18447259	-0.67263341	1.32376695
-0.18202409	-0.66962957	1.32374406
-0.11836194	-0.56242609	1.32304585
-0.11548269	-0.55623305	1.32300961
-0.11238798	-0.54928768	1.32296956
-0.11071189	-0.54522187	1.32294691
-0.10992129	-0.54242170	1.32293308
-0.10989757	-0.54122907	1.32292879
-0.11004750	-0.53741831	1.32291615
-0.11126152	-0.53714299	1.32292140
-0.11157729	-0.53537560	1.32291687
-0.11196728	-0.53482437	1.32291687
-0.11245318	-0.53405297	1.32291663
-0.11273862	-0.53244805	1.32291245
-0.11333978	-0.53201222	1.32291400
-0.11361778	-0.53044784	1.32290995
-0.11389257	-0.52956098	1.32290828
-0.11476086	-0.52827883	1.32290816
-0.11531667	-0.52808660	1.32291031
-0.11558923	-0.52750742	1.32290971
-0.11542119	-0.52577162	1.32290280
-0.11585417	-0.52528441	1.32290328
-0.11613651	-0.52435696	1.32290149
-0.11603104	-0.52367318	1.32289851
-0.11642098	-0.52312195	1.32289851
-0.11486477	-0.51415563	1.32285929
-0.11472578	-0.51262742	1.32285321
-0.11494344	-0.51138788	1.32284999
-0.11483899	-0.51033407	1.32284582
-0.11505660	-0.50909454	1.32284260
-0.11458281	-0.50584137	1.32282877
-0.11493079	-0.50485617	1.32282710
-0.11493725	-0.50350118	1.32282245
-0.11313757	-0.49320498	1.32277727
-0.11347704	-0.49094594	1.32277107
-0.11375284	-0.48675275	1.32275784
-0.11399743	-0.48602825	1.32275653
-0.11426041	-0.48454505	1.32275271
-0.11387485	-0.48111239	1.32273877
-0.11447921	-0.47999907	1.32273793
-0.11346029	-0.47453573	1.32271361
-0.11368226	-0.47393307	1.32271266
-0.11344744	-0.47262496	1.32270682
-0.11380300	-0.47159919	1.32270515
-0.11428884	-0.47082782	1.32270491
-0.11441812	-0.46976772	1.32270181
-0.11430620	-0.46875453	1.32269776
-0.11443545	-0.46769455	1.32269466
-0.11459164	-0.46714967	1.32269359
-0.11445278	-0.46562135	1.32268751
-0.11420619	-0.46371692	1.32267952
-0.11367521	-0.46011111	1.32266426
-0.11354052	-0.45921981	1.32266045
-0.11409534	-0.45771310	1.32265806
-0.11408684	-0.45643926	1.32265353
-0.11411592	-0.45496246	1.32264853
-0.11447147	-0.45393664	1.32264674
-0.11462346	-0.45275477	1.32264340
-0.11487127	-0.45135283	1.32263970
-0.11492302	-0.44975421	1.32263434
-0.11467642	-0.44784975	1.32262647
-0.11453748	-0.44632155	1.32262039
-0.11440284	-0.44543028	1.32261658
-0.11412174	-0.44305122	1.32260692
-0.11400443	-0.44008687	1.32259595
-0.11413377	-0.43902677	1.32259285
-0.11433633	-0.43786830	1.32258987
-0.11423186	-0.43681470	1.32258558
-0.11422325	-0.43554083	1.32258117
-0.11411886	-0.43448710	1.32257688
-0.11424814	-0.43342707	1.32257390
-0.11445068	-0.43226862	1.32257080
-0.11530390	-0.43106785	1.32257092
-0.11554851	-0.43034333	1.32256973
-0.11500140	-0.42718855	1.32255590
-0.11522330	-0.42658585	1.32255495
-0.11544418	-0.42466879	1.32254934
-0.11523099	-0.42192447	1.32253861
-0.11535928	-0.41954994	1.32253098
-0.11546924	-0.41793415	1.32252586
-0.11496189	-0.41552097	1.32251489
-0.11492643	-0.41373199	1.32250845
-0.11468411	-0.41246444	1.32250273
-0.11417681	-0.41005129	1.32249177
-0.11417149	-0.40809992	1.32248485
-0.11463473	-0.40745029	1.32248497
-0.11439240	-0.40618277	1.32247937
-0.11474794	-0.40515697	1.32247758
-0.11451311	-0.40384889	1.32247174
-0.11441619	-0.40275460	1.32246745
-0.11466076	-0.40203008	1.32246614
-0.11535022	-0.40141481	1.32246757
-0.11524574	-0.40036106	1.32246327
-0.11514134	-0.39930737	1.32245910
-0.11564980	-0.39841419	1.32245851
-0.11650306	-0.39721325	1.32245862
-0.11709664	-0.39681804	1.32246029
-0.11669599	-0.39515096	1.32245243
-0.11730031	-0.39403763	1.32245159
-0.11694919	-0.39107952	1.32243943
-0.11727457	-0.39021611	1.32243812
-0.11705493	-0.38882679	1.32243216
-0.11738776	-0.38792279	1.32243073
-0.11719076	-0.38641167	1.32242441
-0.11731149	-0.38407779	1.32241690
-0.11787812	-0.38316748	1.32241654
-0.11780812	-0.38258827	1.32241416
-0.11791475	-0.38165003	1.32241142
-0.11801396	-0.38075233	1.32240880
-0.11816584	-0.37957054	1.32240546
-0.11853321	-0.37914106	1.32240582
-0.11856987	-0.37762368	1.32240069
-0.11936709	-0.37738442	1.32240391
-0.11904290	-0.37494147	1.32239366
-0.11939843	-0.37391567	1.32239187
-0.11988421	-0.37314430	1.32239163
-0.12054471	-0.37106922	1.32238781
-0.12036274	-0.36947697	1.32238126
-0.12072591	-0.36841050	1.32237935
-0.12109643	-0.36730355	1.32237744
-0.12122138	-0.36560661	1.32237208
-0.12135082	-0.36454648	1.32236910
-0.12136162	-0.36382842	1.32236660
-0.12137239	-0.36311030	1.32236409
-0.12175803	-0.36192217	1.32236195
-0.12226006	-0.36069959	1.32236028
-0.12234630	-0.35957557	1.32235670
-0.12239048	-0.35801756	1.32235146
-0.12293456	-0.35722896	1.32235146
-0.12309402	-0.35600656	1.32234800
-0.12324609	-0.35482460	1.32234466
-0.12326761	-0.35338846	1.32233977
-0.12408733	-0.35302752	1.32234263
-0.12445805	-0.35192046	1.32234073
-0.12460993	-0.35073867	1.32233727
-0.12482751	-0.34949908	1.32233405
-0.12501729	-0.34811419	1.32233024
-0.12513901	-0.34709474	1.32232726
-0.12529090	-0.34591299	1.32232392
-0.12541279	-0.34489349	1.32232094
-0.12599444	-0.34390193	1.32232046
-0.12594277	-0.34256411	1.32231545
-0.12641898	-0.34214085	1.32231641
-0.12619825	-0.34112144	1.32231176
-0.12681969	-0.34087151	1.32231402
-0.12684557	-0.34007221	1.32231140
-0.12700179	-0.33952731	1.32231021
-0.12694687	-0.33886695	1.32230771
-0.12740265	-0.33825788	1.32230783
-0.12776998	-0.33782843	1.32230818
-0.12778074	-0.33711031	1.32230580
-0.12828934	-0.33621708	1.32230520
-0.12808472	-0.33474663	1.32229900
-0.12896253	-0.33436853	1.32230222
-0.12861145	-0.33309478	1.32229590
-0.12924062	-0.33280411	1.32229817
-0.12918140	-0.33150688	1.32229328
-0.12920731	-0.33070755	1.32229066
-0.12968570	-0.32997671	1.32229054
-0.12963080	-0.32931635	1.32228792
-0.13007134	-0.32878852	1.32228827
-0.13028565	-0.32822648	1.32228744
-0.13076198	-0.32655114	1.32228398
-0.13163228	-0.32621360	1.32228720
-0.13175622	-0.32488656	1.32228315
-0.13192013	-0.32430100	1.32228196
-0.13240594	-0.32352963	1.32228172
-0.13278079	-0.32305959	1.32228208
-0.13271081	-0.32248041	1.32227969
-0.13344336	-0.32192904	1.32228148
-0.13359526	-0.32074723	1.32227802
-0.13401332	-0.32034117	1.32227874
-0.13395844	-0.31968078	1.32227623
-0.13443568	-0.31931990	1.32227731
-0.13469405	-0.31845200	1.32227564
-0.13456595	-0.31788999	1.32227302
-0.13469538	-0.31682989	1.32226992
-0.13505082	-0.31580415	1.32226813
-0.13538262	-0.31527004	1.32226801
-0.13585234	-0.31494975	1.32226920
-0.13589878	-0.31433621	1.32226729
-0.13594507	-0.31372273	1.32226539
-0.13628441	-0.31314805	1.32226515
-0.13676165	-0.31278715	1.32226634
-0.13715056	-0.31217358	1.32226610
-0.13716888	-0.31141484	1.32226360
-0.13728204	-0.31080595	1.32226205
-0.13766015	-0.30965838	1.32225990
-0.13797802	-0.30883548	1.32225871
-0.13830331	-0.30797210	1.32225728
-0.13857698	-0.30745518	1.32225692
-0.13888513	-0.30698052	1.32225680
-0.13884529	-0.30623898	1.32225394
-0.13904676	-0.30545053	1.32225227
-0.13969310	-0.30477116	1.32225311
-0.13985047	-0.30385628	1.32225072
-0.13986230	-0.30320051	1.32224858
-0.14018020	-0.30237764	1.32224727
-0.14069173	-0.30205914	1.32224870
-0.14082220	-0.30106139	1.32224596
-0.14098594	-0.30047587	1.32224476
-0.14143421	-0.29990739	1.32224500
-0.14148271	-0.29898632	1.32224202
-0.14223789	-0.29831314	1.32224345
-0.14195681	-0.29761857	1.32223964
-0.14215074	-0.29687068	1.32223797
-0.14252880	-0.29572314	1.32223594
-0.14294672	-0.29531711	1.32223666
-0.14287673	-0.29473796	1.32223427
-0.14331621	-0.29414776	1.32223439
-0.14326252	-0.29354972	1.32223201
-0.14330776	-0.29287392	1.32222986
-0.14357489	-0.29202765	1.32222831
-0.14410374	-0.29132035	1.32222855
-0.14454669	-0.29091710	1.32222939
-0.14456500	-0.28972614	1.32222533
-0.14489780	-0.28882217	1.32222378
-0.14467399	-0.28722814	1.32221711
-0.14430884	-0.28566569	1.32220984
-0.14430019	-0.28439185	1.32220531
-0.14404941	-0.28185046	1.32219517
-0.14412154	-0.28043768	1.32219052
-0.14464192	-0.27845642	1.32218623
-0.14423050	-0.27750742	1.32218087
-0.14419171	-0.27639601	1.32217681
-0.14453860	-0.27578074	1.32217634
-0.14431462	-0.27500656	1.32217252
-0.14385360	-0.27366421	1.32216549
-0.14355412	-0.27204400	1.32215834
-0.13828665	-0.26083800	1.32209241
-0.13725904	-0.25872162	1.32207978
-0.13672581	-0.25710779	1.32207143
-0.13647267	-0.25655842	1.32206821
-0.13620341	-0.25477576	1.32206059
-0.13651374	-0.25399351	1.32205939
-0.13689838	-0.25317523	1.32205856
-0.13683693	-0.25218561	1.32205474
-0.13693620	-0.25128785	1.32205212
-0.13694048	-0.25067273	1.32204998
-0.13683185	-0.24898203	1.32204354
-0.13677798	-0.24795176	1.32203960
-0.13662069	-0.24718228	1.32203615
-0.13638264	-0.24655168	1.32203281
-0.13644727	-0.24517950	1.32202828
-0.13654651	-0.24428180	1.32202566
-0.13653687	-0.24337788	1.32202244
-0.13701510	-0.24264708	1.32202232
-0.13735341	-0.24201004	1.32202184
-0.13719720	-0.24130289	1.32201850
-0.13709819	-0.24051614	1.32201529
-0.13682035	-0.23914403	1.32200909
-0.13694960	-0.23808402	1.32200599
-0.13746677	-0.23678027	1.32200408
-0.13719746	-0.23499765	1.32199645
-0.13802692	-0.23428853	1.32199824
-0.13844377	-0.23382013	1.32199872
-0.13812719	-0.23302089	1.32199430
-0.13813797	-0.23230281	1.32199180
-0.13834700	-0.23147370	1.32199001
-0.13849889	-0.23029189	1.32198668
-0.13867135	-0.22929582	1.32198405
-0.13848081	-0.22811405	1.32197893
-0.13889869	-0.22770804	1.32197964
-0.13872856	-0.22671212	1.32197535
-0.13882008	-0.22585507	1.32197273
-0.13917568	-0.22482924	1.32197094
-0.13911328	-0.22420946	1.32196844
-0.05518800	-0.07359508	1.32101560
-0.05405807	-0.07305390	1.32100797
-0.05354838	-0.07263270	1.32100391
-0.05300118	-0.07241442	1.32100034
-0.05261667	-0.07198054	1.32099688
-0.05199402	-0.07216824	1.32099438
-0.05132297	-0.07202484	1.32099044
-0.05038887	-0.07168039	1.32098448
-0.04969522	-0.07165881	1.32098091
-0.04832058	-0.07184214	1.32097459
-0.04749005	-0.07123685	1.32096827
-0.04668968	-0.07046918	1.32096148
-0.04613373	-0.07066147	1.32095933
-0.04539804	-0.07020598	1.32095397
-0.04462034	-0.06931652	1.32094693
-0.04340821	-0.06967182	1.32094204
-0.04124079	-0.06904689	1.32092881
-0.04018082	-0.06908487	1.32092357
-0.03866723	-0.06773997	1.32091117
-0.03790892	-0.06740624	1.32090616
-0.03676711	-0.06626874	1.32089639
-0.03456516	-0.06516928	1.32088137
-0.03368405	-0.06454058	1.32087469
-0.03246340	-0.06448661	1.32086837
-0.03173850	-0.06331298	1.32086051
-0.03115148	-0.06235318	1.32085419
-0.03061931	-0.06205367	1.32085049
-0.03001930	-0.06211960	1.32084763
-0.02971232	-0.06097221	1.32084203
-0.02905294	-0.06099297	1.32083881
-0.02859399	-0.06059515	1.32083511
-0.02792520	-0.06014415	1.32083011
-0.02718952	-0.05968866	1.32082474
-0.02664965	-0.05942985	1.32082117
-0.02599473	-0.05883537	1.32081568
-0.02560149	-0.05837982	1.32081211
-0.02546478	-0.05779604	1.32080936
-0.02492834	-0.05729192	1.32080495
-0.02415273	-0.05734698	1.32080114
-0.02340516	-0.05629516	1.32079363
-0.02283207	-0.05562411	1.32078838
-0.02241087	-0.05502331	1.32078421
-0.02209102	-0.05446932	1.32078063
-0.02146502	-0.05365018	1.32077456
-0.02096535	-0.05331297	1.32077086
-0.02053027	-0.05285568	1.32076705
-0.01952702	-0.05238200	1.32076025
-0.01866974	-0.05169379	1.32075357
-0.01774538	-0.05056884	1.32074487
-0.01747411	-0.04995827	1.32074142
-0.01685777	-0.05004309	1.32073855
-0.01651955	-0.04899573	1.32073319
-0.01594108	-0.04887747	1.32072985
-0.01559232	-0.04772834	1.32072401
-0.01509444	-0.04747123	1.32072067
-0.01453966	-0.04729353	1.32071722
-0.01418211	-0.04612274	1.32071126
-0.01372968	-0.04562195	1.32070720
-0.01293686	-0.04481370	1.32070041
-0.01232941	-0.04241598	1.32068884
-0.01219149	-0.04176991	1.32068598
-0.01170564	-0.04128923	1.32068181
-0.01129524	-0.03997035	1.32067513
-0.01069432	-0.03915398	1.32066917
-0.01008248	-0.03905584	1.32066572
-0.00946277	-0.03726929	1.32065630
-0.00925653	-0.03658319	1.32065284
-0.00868116	-0.03621978	1.32064867
-0.00816737	-0.03516160	1.32064235
-0.00765784	-0.03474033	1.32063830
-0.00736271	-0.03375702	1.32063341
-0.00692615	-0.03319275	1.32062924
-0.00636956	-0.03211522	1.32062256
-0.00611943	-0.03127592	1.32061839
-0.00575557	-0.03064025	1.32061434
-0.00530009	-0.02999710	1.32060981
-0.00509712	-0.02942658	1.32060671
-0.00454459	-0.02894131	1.32060230
-0.00389288	-0.02766933	1.32059443
-0.00285685	-0.02726029	1.32058775
-0.00261199	-0.02625573	1.32058299
-0.00230297	-0.02541590	1.32057858
-0.00202842	-0.02430225	1.32057321
-0.00103532	-0.02266042	1.32056248
-0.00032224	-0.02208311	1.32055676
0.00061600	-0.02110168	1.32054865
0.00080346	-0.02049452	1.32054555
0.00155099	-0.01944268	1.32053804
0.00198728	-0.01892309	1.32053399
0.00245906	-0.01829885	1.32052946
0.00276931	-0.01739672	1.32052469
0.00290175	-0.01619779	1.32051980
0.00315920	-0.01501150	1.32051444
0.00331646	-0.01424199	1.32051086
0.00310966	-0.01372053	1.32051015
0.00334449	-0.01241244	1.32050443
0.00331847	-0.01161308	1.32050169
0.00346173	-0.00944793	1.32049346
0.00394115	-0.00674772	1.32048154
0.00401112	-0.00616855	1.32047915
0.00412315	-0.00515545	1.32047510
0.00428043	-0.00438593	1.32047153
0.00453791	-0.00319964	1.32046604
0.00491393	-0.00105848	1.32045674
0.00526907	0.00080755	1.32044840
0.00538313	0.00151312	1.32044530
0.00561795	0.00282121	1.32043958
0.00564921	0.00397323	1.32043540
0.00626636	0.00813936	1.32041764
0.00653566	0.00992200	1.32041001
0.00660165	0.01116098	1.32040536
0.00671364	0.01217405	1.32040131
0.00624578	0.01257442	1.32040226
0.00626217	0.01342005	1.32039917
0.00631788	0.01453038	1.32039511
0.00631244	0.01551550	1.32039165
0.00576650	0.01622403	1.32039189
0.00566086	0.01679237	1.32039046
0.00576758	0.01753844	1.32038736
0.00597221	0.01900890	1.32038116
0.00596575	0.02036393	1.32037640
0.00562525	0.02138002	1.32037461
0.00578436	0.02222965	1.32037079
0.00636394	0.02491438	1.32035851
0.00612390	0.02545582	1.32035780
0.00597185	0.02663773	1.32035446
0.00591046	0.02733240	1.32035232
0.00560781	0.02807400	1.32035124
0.00562149	0.02875039	1.32034886
0.00580491	0.02958508	1.32034504
0.00565284	0.03076698	1.32034171
0.00527041	0.03120615	1.32034206
0.00506265	0.03216894	1.32033980
0.00488262	0.03320563	1.32033706
0.00460894	0.03372255	1.32033658
0.00454003	0.03445783	1.32033443
0.00436226	0.03518686	1.32033277
0.00426315	0.03608453	1.32033014
0.00403684	0.03730239	1.32032704
0.00403894	0.03867917	1.32032216
0.00381601	0.03921944	1.32032144
0.00360906	0.03974098	1.32032061
0.00364786	0.04085246	1.32031655
0.00340028	0.04179533	1.32031453
0.00327855	0.04281478	1.32031155
0.00332271	0.04419324	1.32030654
0.00303496	0.04485373	1.32030571
0.00298114	0.04550777	1.32030368
0.00301278	0.04663295	1.32029963
0.00291367	0.04753059	1.32029688
0.00281443	0.04842833	1.32029426
0.00270969	0.04951808	1.32029104
0.00264075	0.05025333	1.32028878
0.00273016	0.05138823	1.32028437
0.00278404	0.05241847	1.32028055
0.00321901	0.05456017	1.32027078
0.00340426	0.05547495	1.32026672
0.00366922	0.05662063	1.32026136
0.00354750	0.05764006	1.32025838
0.00349370	0.05829412	1.32025635
0.00369079	0.05980518	1.32025003
0.00343101	0.06061091	1.32024860
0.00347736	0.06168173	1.32024455
0.00333302	0.06282298	1.32024133
0.00307974	0.06352571	1.32024014
0.00297309	0.06446397	1.32023740
0.00296216	0.06518215	1.32023501
0.00253570	0.06599863	1.32023430
0.00220270	0.06690273	1.32023275
0.00204653	0.06744762	1.32023168
0.00139368	0.06779766	1.32023382
0.00129682	0.06838769	1.32023215
0.00099401	0.06912936	1.32023120
0.00073318	0.06987272	1.32022989
0.00039504	0.07050969	1.32022941
0.00054479	0.07131979	1.32022583
-0.00013620	0.07152471	1.32022858
-0.00067262	0.07184039	1.32023013
-0.00056055	0.07328577	1.32022452
-0.00138083	0.07360217	1.32022762
-0.00124533	0.07494347	1.32022214
-0.00173198	0.07526487	1.32022357
-0.00225897	0.07605229	1.32022345
-0.00231703	0.07693397	1.32022071
-0.00281689	0.07741663	1.32022154
-0.00281256	0.07805353	1.32021928
-0.00305198	0.07861283	1.32021856
-0.00304767	0.07924974	1.32021630
-0.00339763	0.07972266	1.32021642
-0.00347756	0.08031157	1.32021475
-0.00390299	0.08075817	1.32021534
-0.00400758	0.08138886	1.32021368
-0.00412074	0.08199781	1.32021213
-0.00421758	0.08258784	1.32021058
-0.00416268	0.08324820	1.32020795
-0.00456895	0.08381833	1.32020807
-0.00471640	0.08438492	1.32020676
-0.00478527	0.08555245	1.32020307
-0.00525393	0.08593510	1.32020414
-0.00510989	0.08686590	1.32020009
-0.00557838	0.08724846	1.32020116
-0.00546534	0.08789165	1.32019830
-0.00559667	0.08843942	1.32019711
-0.00549118	0.08912320	1.32019413
-0.00579809	0.08966017	1.32019389
-0.00600302	0.09026170	1.32019281
-0.00597605	0.09120910	1.32018936
-0.00614838	0.09177281	1.32018828
-0.00612040	0.09235032	1.32018614
-0.00627664	0.09289521	1.32018495
-0.00637692	0.09373057	1.32018256
-0.00642543	0.09465165	1.32017958
-0.00662364	0.09519488	1.32017875
-0.00683041	0.09571633	1.32017791
-0.00664639	0.09656882	1.32017398
-0.00720033	0.09684110	1.32017589
-0.00725496	0.09747745	1.32017386
-0.00705035	0.09851566	1.32016921
-0.00722285	0.09907947	1.32016814
-0.00726162	0.09965232	1.32016635
-0.00731541	0.10030639	1.32016432
-0.00744259	0.10105890	1.32016230
-0.00752026	0.10177247	1.32016027
-0.00745662	0.10245451	1.32015753
-0.00766034	0.10311835	1.32015622
-0.00761297	0.10425155	1.32015204
-0.00776264	0.10512578	1.32014978
-0.00782703	0.10611032	1.32014668
-0.00764622	0.10807255	1.32013881
-0.00793605	0.10860831	1.32013845
-0.00785825	0.10919152	1.32013607
-0.00781155	0.10980323	1.32013369
-0.00788799	0.11057909	1.32013130
-0.00764419	0.11195351	1.32012522
-0.00805125	0.11250597	1.32012546
-0.00794804	0.11306509	1.32012296
-0.00774236	0.11416568	1.32011807
-0.00782636	0.11498211	1.32011557
-0.00780270	0.11617474	1.32011127
-0.00793210	0.11723484	1.32010829
-0.00786211	0.11781402	1.32010591
-0.00807524	0.11843838	1.32010472
-0.00797196	0.11942978	1.32010078
-0.00807106	0.12032741	1.32009816
-0.00832206	0.12115483	1.32009649
-0.00844382	0.12174197	1.32009506
-0.00849888	0.12233377	1.32009327
-0.00836317	0.12328744	1.32008934
-0.00831157	0.12419303	1.32008588
-0.00843100	0.12533711	1.32008243
-0.00826862	0.12594146	1.32007957
-0.00814049	0.12650350	1.32007694
-0.00797568	0.12723239	1.32007349
-0.00781083	0.12796131	1.32007015
-0.00760618	0.12943180	1.32006395
-0.00744894	0.13020130	1.32006049
-0.00750497	0.13116299	1.32005739
-0.00760423	0.13206071	1.32005477
-0.00787809	0.13260441	1.32005429
-0.00776730	0.13355523	1.32005036
-0.00810562	0.13419230	1.32004988
-0.00791921	0.13473703	1.32004702
-0.00781898	0.13558608	1.32004356
-0.00778778	0.13673812	1.32003927
-0.00767042	0.13801824	1.32003427
-0.00773336	0.13903831	1.32003105
-0.00771579	0.13994622	1.32002771
-0.00776248	0.14051510	1.32002604
-0.00756435	0.14165629	1.32002103
-0.00749764	0.14291294	1.32001626
-0.00736295	0.14380427	1.32001245
-0.00724564	0.14508437	1.32000732
-0.00729945	0.14573844	1.32000542
-0.00697637	0.14686693	1.31999981
-0.00714023	0.14745256	1.31999862
-0.00728463	0.14859374	1.31999528
-0.00739123	0.14953201	1.31999254
-0.00752601	0.15032509	1.31999052
-0.00769196	0.15121818	1.31998825
-0.00794934	0.15171625	1.31998777
-0.00785893	0.15248121	1.31998467
-0.00779758	0.15303858	1.31998241
-0.00752625	0.15408139	1.31997740
-0.00755210	0.15488070	1.31997466
-0.00773214	0.15548512	1.31997347
-0.00803153	0.15598147	1.31997323
-0.00772250	0.15682130	1.31996870
-0.00792275	0.15767208	1.31996679
-0.00793579	0.15869775	1.31996334
-0.00828162	0.15937541	1.31996262
-0.00851104	0.16001865	1.31996155
-0.00889345	0.16052932	1.31996179
-0.00837325	0.16191690	1.31995428
-0.00900675	0.16239038	1.31995583
-0.00936624	0.16282389	1.31995606
-0.00939251	0.16357863	1.31995356
-0.00957705	0.16443741	1.31995153
-0.00966857	0.16529448	1.31994903
-0.00970198	0.16613436	1.31994629
-0.00982390	0.16672161	1.31994486
-0.00962016	0.16730985	1.31994176
-0.00979143	0.16793595	1.31994045
-0.00984217	0.16916464	1.31993639
-0.01026879	0.16954896	1.31993723
-0.00998656	0.17030582	1.31993306
-0.01019351	0.17082737	1.31993234
-0.01022036	0.17199658	1.31992841
-0.01047242	0.17276160	1.31992698
-0.01060511	0.17406696	1.31992304
-0.01071602	0.17480053	1.31992114
-0.01061913	0.17546257	1.31991827
-0.01106289	0.17584807	1.31991923
-0.01107487	0.17650390	1.31991696
-0.01091008	0.17723283	1.31991363
-0.01075278	0.17800233	1.31991005
-0.01108459	0.17853640	1.31990993
-0.01118590	0.17974168	1.31990623
-0.01105127	0.18063298	1.31990242
-0.01089355	0.18180791	1.31989753
-0.01101524	0.18282735	1.31989455
-0.01093996	0.18367353	1.31989121
-0.01048221	0.18569337	1.31988180
-0.01005134	0.18719810	1.31987441
-0.01081410	0.18791185	1.31987572
-0.01029497	0.18923701	1.31986845
-0.01070751	0.18991008	1.31986821
-0.00882831	0.19408733	1.31984401
-0.00837263	0.19516268	1.31983793
-0.00896734	0.19592783	1.31983829
0.00137576	0.23107441	1.31966293
0.00190985	0.23400277	1.31964993
0.00218236	0.23510785	1.31964469
0.05856225	0.39832127	1.31878757
0.05936584	0.39841145	1.31878316
0.06387281	0.40708715	1.31873000
0.06452775	0.40768158	1.31872463
0.06532815	0.40844929	1.31871784
0.06610605	0.40933865	1.31871080
0.06709474	0.41202796	1.31869638
0.06781977	0.41194940	1.31869292
0.06833687	0.41233009	1.31868899
0.06886157	0.41267008	1.31868517
0.06975234	0.41251844	1.31868112
0.07113224	0.41303435	1.31867230
0.07193285	0.41380194	1.31866562
0.07241526	0.41496027	1.31865907
0.07405373	0.41797689	1.31864023
0.07508254	0.41803896	1.31863475
0.07573739	0.41863337	1.31862938
0.07614988	0.41964477	1.31862366
0.07700202	0.42006591	1.31861794
0.07862818	0.42412609	1.31859541
0.07969260	0.42472491	1.31858802
0.08047697	0.42512381	1.31858253
0.08133444	0.42624414	1.31857431
0.08281770	0.42775154	1.31856155
0.08371925	0.42813388	1.31855559
0.08515733	0.42988473	1.31854212
0.08576706	0.43072271	1.31853616
0.08786857	0.43434191	1.31851280
0.08865282	0.43556067	1.31850457
0.08954263	0.43577880	1.31849933
0.09059843	0.43678826	1.31849039
0.09097433	0.43763265	1.31848550
0.09176064	0.43811160	1.31847990
0.09231436	0.43865919	1.31847513
0.09282169	0.43938810	1.31847000
0.09344634	0.44014490	1.31846416
0.09433404	0.44067067	1.31845784
0.09488559	0.44195813	1.31845057
0.09563971	0.44165483	1.31844783
0.09671673	0.44373235	1.31843507
0.09778854	0.44429070	1.31842768
0.09843615	0.44492567	1.31842208
0.09913409	0.44558415	1.31841624
0.09949714	0.44620210	1.31841230
0.10061747	0.44583935	1.31840789
0.10169137	0.44691002	1.31839871
0.10336208	0.44902450	1.31838274
0.10378322	0.44962531	1.31837857
0.10601091	0.45454633	1.31835008
0.10721847	0.45437393	1.31834447
0.10853055	0.45482296	1.31833625
0.10933092	0.45559067	1.31832945
0.11287054	0.46096069	1.31829274
0.11352983	0.46219212	1.31828511
0.11399636	0.46423361	1.31827557
0.11572415	0.46670088	1.31825817
0.11692721	0.46964788	1.31824172
0.11764780	0.47018456	1.31823623
0.11787832	0.47085577	1.31823277
0.11843085	0.47134107	1.31822824
0.11872828	0.47201675	1.31822431
0.11950797	0.47216636	1.31821990
0.11993575	0.47309655	1.31821442
0.12035471	0.47400495	1.31820917
0.12063602	0.47513175	1.31820381
0.12130705	0.47527510	1.31819987
0.12173355	0.47614288	1.31819463
0.12246498	0.47764581	1.31818569
0.12292174	0.47835129	1.31818092
0.12426597	0.48295116	1.31815803
0.12484112	0.48331469	1.31815374
0.12515709	0.48445699	1.31814814
0.12599823	0.48437095	1.31814420
0.12646240	0.48503572	1.31813955
0.12713677	0.48618591	1.31813204
0.12791875	0.48602802	1.31812871
0.12899393	0.48590875	1.31812358
0.12988260	0.48649687	1.31811702
0.13112780	0.48737365	1.31810772
0.13200581	0.48867974	1.31809866
0.13251317	0.48940867	1.31809354
0.13290638	0.48986423	1.31808996
0.13365063	0.48990926	1.31808603
0.13389623	0.49049926	1.31808269
0.13434535	0.49124524	1.31807780
0.13505533	0.49124795	1.31807423
0.13627809	0.49224645	1.31806445
0.13693821	0.49479234	1.31805217
0.13747954	0.49677086	1.31804252
0.13827994	0.49753863	1.31803584
0.13878191	0.49800044	1.31803167
0.13948432	0.49804375	1.31802797
0.14022124	0.49899375	1.31802082
0.14058083	0.49942482	1.31801748
0.14091378	0.50063741	1.31801164
0.14161620	0.50068069	1.31800783
0.14208248	0.50185782	1.31800139
0.14302942	0.50242865	1.31799459
0.14336872	0.50353837	1.31798899
0.14494160	0.50324410	1.31798196
0.14607900	0.50374472	1.31797445
0.14677379	0.50508070	1.31796634
0.14720464	0.50658548	1.31795883
0.14780465	0.50651956	1.31795597
0.14865667	0.50819278	1.31794584
0.14930832	0.50946474	1.31793809
0.14996326	0.51005918	1.31793272
0.15091014	0.51231450	1.31791997
0.15138945	0.51289815	1.31791556
0.15233523	0.51383895	1.31790745
0.15325099	0.51369017	1.31790328
0.15347394	0.51440191	1.31789970
0.15422800	0.51535076	1.31789255
0.15510595	0.51665705	1.31788349
0.15688229	0.51651877	1.31787491
0.15794343	0.51779521	1.31786513
0.15973797	0.52151918	1.31784296
0.16127598	0.52705544	1.31781578
0.16193113	0.52764988	1.31781042
0.16267860	0.52870172	1.31780291
0.16293061	0.52962112	1.31779838
0.16343158	0.53045285	1.31779301
0.16468650	0.53223348	1.31778038
0.16633794	0.53210789	1.31777239
0.16750136	0.53180921	1.31776750
0.16802588	0.53214920	1.31776369
0.16927767	0.53335524	1.31775308
0.16992179	0.53466791	1.31774521
0.17167872	0.54027903	1.31771672
0.17231104	0.54099536	1.31771100
0.17377385	0.54525340	1.31768870
0.17435327	0.54625374	1.31768227
0.17536160	0.54949868	1.31766582
0.17585596	0.55000108	1.31766152
0.17657012	0.55189282	1.31765127
0.17769569	0.55516583	1.31763411
0.17827311	0.55522168	1.31763101
0.17950863	0.55813104	1.31761456
0.18003523	0.55941558	1.31760740
0.18067089	0.56113875	1.31759810
0.18080547	0.56202990	1.31759429
0.18297547	0.58339727	1.31750858
0.18309933	0.58500665	1.31750226
0.18432152	0.60155207	1.31743824
0.18434805	0.60668808	1.31742013
0.18401521	0.60759211	1.31741869
0.13334322	0.70080328	1.31735003
0.11787024	0.70860869	1.31740129
0.09574980	0.70849299	1.31751406
0.04961330	0.70785964	1.31775057
0.04688358	0.70709753	1.31776714
0.01356786	0.67868215	1.31803572
0.01295808	0.67784417	1.31804168
0.01036680	0.66343343	1.31810522
0.00969240	0.66228324	1.31811273
-0.08179051	0.56948388	1.31890178
-0.12968963	0.52130467	1.31931353
-0.13059342	0.52079773	1.31931984
-0.23394573	0.41791397	1.32020450
-0.23510601	0.41753525	1.32021177
-0.23724537	0.41580337	1.32022870
-0.23785402	0.41584754	1.32023168
-0.23845954	0.41564649	1.32023537
-0.23904447	0.41563118	1.32023847
-0.24018845	0.41523358	1.32024562
-0.24094781	0.41483748	1.32025087
-0.24146706	0.41519672	1.32025230
-0.24327692	0.41617483	1.32025802
-0.24427991	0.41656560	1.32026172
-0.24579227	0.41653508	1.32026958
-0.24939346	0.41311181	1.32029974
-0.25026703	0.41244245	1.32030654
-0.25071749	0.41288626	1.32030725
-0.25172365	0.41270244	1.32031310
-0.25267044	0.41213149	1.32031989
-0.25354737	0.41213977	1.32032430
-0.25417435	0.41169050	1.32032907
-0.25517398	0.41140372	1.32033515
-0.25625980	0.41224098	1.32033777
-0.25772280	0.41091958	1.32034981
-0.25843155	0.41097912	1.32035315
-0.25991291	0.41041639	1.32036269
-0.26112789	0.40937722	1.32037246
-0.26202410	0.40882972	1.32037890
-0.26367784	0.40757865	1.32039165
-0.26430678	0.40786922	1.32039392
-0.26649043	0.40601104	1.32041144
-0.28345153	0.39269415	1.32054412
-0.28535160	0.39122289	1.32055891
-0.29070109	0.38726327	1.32059991
-0.29124078	0.38700438	1.32060361
-0.29185593	0.38715148	1.32060623
-0.29269499	0.38695669	1.32061112
-0.29337478	0.38722387	1.32061374
-0.29450059	0.38688743	1.32062054
-0.29550019	0.38660061	1.32062662
-0.29618526	0.38660079	1.32063019
-0.29683590	0.38664329	1.32063329
-0.29736817	0.38634384	1.32063699
-0.29785085	0.38600546	1.32064068
-0.29839042	0.38617882	1.32064283
-0.29956365	0.38514140	1.32065237
-0.30046844	0.38500440	1.32065749
-0.30137235	0.38449758	1.32066381
-0.30226952	0.38431996	1.32066905
-0.30323792	0.38350081	1.32067680
-0.30467176	0.38238692	1.32068801
-0.30699652	0.38099247	1.32070470
-0.33857223	0.35392937	1.32095969
-0.33925298	0.35456645	1.32096088
-0.34195575	0.35431957	1.32097542
-0.34355113	0.35473558	1.32098210
-0.34417176	0.35461569	1.32098567
-0.34478784	0.35513273	1.32098699
-0.34774613	0.35632840	1.32099783
-0.34859067	0.35711876	1.32099938
-0.35232669	0.35742500	1.32101727
-0.35296220	0.35738629	1.32102060
-0.35423759	0.35667193	1.32102966
-0.35821483	0.35365638	1.32106030
-0.35946757	0.35282019	1.32106960
-0.36108026	0.35237297	1.32107937
-0.36174715	0.35286662	1.32108104
-0.36413869	0.35315186	1.32109225
-0.36506075	0.35340372	1.32109594
-0.37496084	0.35581887	1.32113779
-0.37722307	0.35504422	1.32115197
-0.37894976	0.35432363	1.32116330
-0.38022649	0.35523137	1.32116663
-0.38071877	0.35567346	1.32116759
-0.38235828	0.35471097	1.32117927
-0.38534191	0.35542703	1.32119191
-0.38649461	0.35669199	1.32119334
-0.38954756	0.35605356	1.32121110
-0.40050673	0.37079197	1.32121515
-0.40228632	0.37160772	1.32122135
-0.40510660	0.37133282	1.32123673
-0.40822631	0.37112206	1.32125330
-0.41062868	0.37255773	1.32126045
-0.41184482	0.37314066	1.32126462
-0.41325888	0.37219471	1.32127512
-0.41626996	0.37367466	1.32128513
-0.41805115	0.37606788	1.32128584
-0.42070231	0.37715882	1.32129550
-0.42252997	0.37600377	1.32130885
-0.42381325	0.37571764	1.32131636
-0.42461684	0.37605968	1.32131922
-0.42527944	0.37675804	1.32132018
-0.42567128	0.37722918	1.32132053
-0.42776006	0.37845722	1.32132685
-0.42907980	0.37930092	1.32133055
-0.43081644	0.37974843	1.32133782
-0.43221369	0.38005352	1.32134378
-0.43272871	0.38061744	1.32134449
-0.43394932	0.38056347	1.32135081
-0.43458259	0.38064936	1.32135379
-0.43518591	0.38096049	1.32135570
-0.43640658	0.38090655	1.32136214
-0.43738455	0.38086787	1.32136726
-0.43821299	0.38120711	1.32137024
-0.43896392	0.38083285	1.32137537
-0.44028780	0.38103953	1.32138145
-0.44118741	0.38116959	1.32138550
-0.44186071	0.38133383	1.32138836
-0.44293576	0.38145301	1.32139337
-0.44406053	0.38117886	1.32140005
-0.44515496	0.38074234	1.32140720
-0.44601345	0.38042405	1.32141256
-0.44644865	0.38078666	1.32141352
-0.44767788	0.38114318	1.32141852
-0.44834036	0.38102156	1.32142234
-0.44890589	0.38112971	1.32142484
-0.45016202	0.38097113	1.32143176
-0.45160323	0.38033000	1.32144129
-0.45239738	0.38071153	1.32144403
-0.45322135	0.38086784	1.32144773
-0.45549881	0.38267854	1.32145286
-0.46684253	0.38264370	1.32151067
-0.46779481	0.38305783	1.32151401
-0.49397433	0.36734825	1.32170188
-0.49459472	0.36722836	1.32170546
-0.49604160	0.36714014	1.32171309
-0.49709830	0.36650062	1.32172072
-0.49804837	0.36660716	1.32172525
-0.49999490	0.36574948	1.32173812
-0.50108200	0.36527240	1.32174528
-0.50222963	0.36507541	1.32175183
-0.50280702	0.36501953	1.32175493
-0.50395286	0.36497405	1.32176089
-0.50836235	0.36378708	1.32178748
-0.51057792	0.36362404	1.32179928
-0.51143658	0.36412570	1.32180190
-0.51205826	0.36437571	1.32180417
-0.51260114	0.36479437	1.32180548
-0.51345664	0.36461848	1.32181036
-0.51469207	0.36507788	1.32181501
-0.51526529	0.36565900	1.32181597
-0.51589882	0.36656478	1.32181597
-0.51759648	0.36687160	1.32182360
-0.51852304	0.36648658	1.32182956
-0.51971334	0.36627012	1.32183635
-0.52241075	0.36503810	1.32185435
-0.52369702	0.36504194	1.32186091
-0.52460402	0.36521247	1.32186496
-0.52668089	0.36410037	1.32187939
-0.52722818	0.36388209	1.32188296
-0.52780128	0.36446312	1.32188380
-0.53586560	0.36004782	1.32194018
-0.53669733	0.35981256	1.32194519
-0.53755027	0.35976124	1.32194972
-0.53941309	0.36270797	1.32194889
-0.54162049	0.36596236	1.32194877
-0.54208362	0.36661196	1.32194877
-0.54341084	0.36749619	1.32195246
-0.54531550	0.37000889	1.32195330
-0.54752499	0.36895007	1.32196832
-0.55205649	0.37171900	1.32198155
-0.55279541	0.37194100	1.32198453
-0.55761945	0.36959118	1.32201731
-0.56057334	0.36848730	1.32203615
-0.56224626	0.37004918	1.32203913
-0.56480372	0.36997548	1.32205248
-0.56643367	0.37160134	1.32205498
-0.56976438	0.37127513	1.32207310
-0.57141268	0.37240762	1.32207751
-0.57252860	0.37215513	1.32208407
-0.57368881	0.37177643	1.32209122
-0.57450098	0.37209681	1.32209420
-0.57598233	0.37153402	1.32210374
-0.57704234	0.37157196	1.32210898
-0.57843953	0.37187707	1.32211506
-0.57945001	0.37230843	1.32211864
-0.58074373	0.37235278	1.32212508
-0.58190387	0.37197399	1.32213223
-0.58267754	0.37172154	1.32213712
-0.58311683	0.37231159	1.32213724
-0.58363074	0.37293783	1.32213771
-0.58527339	0.37308514	1.32214546
-0.58623767	0.37290305	1.32215106
-0.58664370	0.37347314	1.32215106
-0.58958799	0.37327325	1.32216680
-0.59069097	0.37324718	1.32217240
-0.59242308	0.37262043	1.32218349
-0.59334940	0.37223533	1.32218945
-0.59430617	0.37201262	1.32219517
-0.59588319	0.37335432	1.32219839
-0.59812391	0.37282771	1.32221162
-0.60085690	0.37274322	1.32222581
-0.60310513	0.37394151	1.32223308
-0.60423845	0.37407792	1.32223833
-0.60551918	0.37521318	1.32224083
-0.60668254	0.37551191	1.32224572
-0.60761648	0.37516734	1.32225168
-0.60818315	0.37607777	1.32225144
-0.60900939	0.37610939	1.32225549
-0.61009973	0.37630978	1.32226026
-0.61066937	0.37664548	1.32226205
-0.61158305	0.37648684	1.32226717
-0.61257613	0.37696162	1.32227063
-0.61327112	0.37812987	1.32227004
-0.61373836	0.37900698	1.32226932
-0.61503547	0.37972888	1.32227337
-0.61663198	0.38051486	1.32227874
-0.61819619	0.38208303	1.32228124
-0.61915278	0.38186020	1.32228684
-0.62076002	0.38336432	1.32228982
-0.62182015	0.38340238	1.32229507
-0.62288773	0.38348091	1.32230020
-0.62335098	0.38413060	1.32230020
-0.62546664	0.38527569	1.32230699
-0.62663013	0.38557449	1.32231188
-0.62817818	0.38500711	1.32232165
-0.62940073	0.38737729	1.32231963
-0.63046843	0.38745591	1.32232475
-0.63193458	0.38849628	1.32232857
-0.63312495	0.38827986	1.32233536
-0.63394147	0.38964766	1.32233477
-0.63465244	0.39044720	1.32233560
-0.63571239	0.39048517	1.32234085
-0.63700628	0.39052951	1.32234716
-0.63781732	0.39047995	1.32235146
-0.64017248	0.38963550	1.32236648
-0.64073777	0.38978830	1.32236874
-0.64113778	0.39025557	1.32236910
-0.64199626	0.38993734	1.32237458
-0.64230859	0.39059484	1.32237387
-0.64367133	0.39137447	1.32237816
-0.64463556	0.39119232	1.32238364
-0.64570850	0.39100397	1.32238972
-0.64603275	0.39149746	1.32238972
-0.64719629	0.39179620	1.32239449
-0.64798713	0.39193249	1.32239807
-0.64868194	0.39184859	1.32240188
-0.64917833	0.39251825	1.32240212
-0.65034187	0.39281705	1.32240689
-0.65142214	0.39266917	1.32241297
-0.65220010	0.39303184	1.32241559
-0.65284967	0.39313665	1.32241857
-0.65364039	0.39327294	1.32242215
-0.65410894	0.39365548	1.32242310
-0.65734065	0.39454830	1.32243645
-0.65877342	0.39474875	1.32244301
-0.66003686	0.39463067	1.32244980
-0.66151929	0.39400557	1.32245958
-0.66278625	0.39456508	1.32246399
-0.66523141	0.39425236	1.32247758
-0.66679245	0.39514297	1.32248235
-0.66778672	0.39512321	1.32248747
-0.66905904	0.39541569	1.32249296
-0.67032266	0.39529771	1.32249975
-0.67161965	0.39601949	1.32250381
-0.67379034	0.39607203	1.32251465
-0.67496133	0.39641142	1.32251942
-0.67618710	0.39609039	1.32252669
-0.67722791	0.39668414	1.32252991
-0.67852163	0.39672849	1.32253635
-0.67985094	0.39666823	1.32254338
-0.68104464	0.39712933	1.32254779
-0.68211216	0.39720798	1.32255292
-0.68358791	0.39734441	1.32255995
-0.68475157	0.39764321	1.32256484
-0.68578881	0.39755934	1.32257032
-0.68695217	0.39785808	1.32257521
-0.68821585	0.39774007	1.32258201
-0.69045430	0.39690584	1.32259631
-0.69178367	0.39684561	1.32260334
-0.69301498	0.39750969	1.32260728
-0.69504994	0.39851591	1.32261407
-0.69618309	0.39865223	1.32261932
-0.69724321	0.39869028	1.32262456
-0.69767624	0.39917752	1.32262504
-0.69978118	0.39917231	1.32263577
-0.70094472	0.39947110	1.32264066
-0.70244312	0.39972931	1.32264733
-0.70497364	0.40017077	1.32265866
-0.70600343	0.40004635	1.32266438
-0.70730478	0.40013129	1.32267070
-0.70817405	0.40009892	1.32267523
-0.70973504	0.40098956	1.32268000
-0.71193594	0.40120450	1.32269037
-0.71300340	0.40128309	1.32269561
-0.71430266	0.40106043	1.32270288
-0.71533245	0.40093598	1.32270861
-0.71589911	0.40184641	1.32270825
-0.71692896	0.40172198	1.32271397
-0.71799660	0.40180063	1.32271910
-0.71866131	0.40155444	1.32272339
-0.71989787	0.40195146	1.32272828
-0.73325545	0.40986380	1.32276845
-0.73526543	0.41000834	1.32277811
-0.73610795	0.41049105	1.32278073
-0.73876321	0.41012526	1.32279539
-0.74009818	0.41355434	1.32279027
-0.74098903	0.41327381	1.32279575
-0.74390817	0.41307664	1.32281125
-0.74459785	0.41494426	1.32280827
-0.74628597	0.41490296	1.32281697
-0.74687326	0.41519529	1.32281888
-0.74759477	0.41502842	1.32282317
-0.74888325	0.41533986	1.32282865
-0.75702202	0.41938245	1.32285583
-0.76013696	0.42613152	1.32284796
-0.76244533	0.42640245	1.32285881
-0.76315427	0.42646208	1.32286215
-0.76538098	0.42747641	1.32286990
-0.76632243	0.42717251	1.32287574
-0.76742887	0.42782399	1.32287908
-0.76923025	0.43132812	1.32287598
-0.77010286	0.43197325	1.32287824
-0.77199024	0.43366489	1.32288182
-0.77599561	0.43512505	1.32289708
-0.78033173	0.43674931	1.32291341
-0.78348690	0.43643394	1.32293057
-0.78491461	0.43815356	1.32293177
-0.78818929	0.43854988	1.32294703
-0.79315388	0.44722000	1.32294190
-0.79498303	0.44764251	1.32294977
-0.79608941	0.44829398	1.32295310
-0.79716450	0.44841313	1.32295811
-0.79888290	0.45147070	1.32295620
-0.80513078	0.45189187	1.32298648
-0.80750871	0.45665458	1.32298183
-0.81129527	0.45693737	1.32300007
-0.81185329	0.45743725	1.32300115
-0.81633151	0.45695877	1.32302558
-0.81919807	0.45729733	1.32303894
-0.82575160	0.47133359	1.32302320
-0.82631737	0.47187403	1.32302415
-0.82788801	0.47311282	1.32302785
-0.82895142	0.47676480	1.32302046
-0.83045542	0.47926030	1.32301939
-0.83250010	0.47893035	1.32303083
-0.83411920	0.47983813	1.32303596
-0.84322602	0.49612194	1.32302523
-0.84355783	0.49665603	1.32302499
-0.84585148	0.49935019	1.32302725
-0.87139517	0.49508208	1.32317185
-0.87781239	0.49370533	1.32320929
-0.87924081	0.49285835	1.32321954
-0.90016675	0.47042942	1.32340419
-0.90078288	0.46632558	1.32342172
-0.89834189	0.43864626	1.32350612
-0.89746690	0.43138829	1.32352710
-0.88104928	0.36469808	1.32367694
-0.87472188	0.34514219	1.32371318
-0.86228061	0.31377998	1.32375968
-0.86087787	0.31080538	1.32376289
-0.85954416	0.30856612	1.32376397
-0.85892475	0.30737165	1.32376504
-0.85783106	0.30524158	1.32376695
-0.85664499	0.30313665	1.32376826
-0.85598361	0.30237618	1.32376754
-0.84687245	0.28461254	1.32378340
-0.84615731	0.28319794	1.32378471
-0.84583300	0.28270444	1.32378483
-0.84542024	0.28203133	1.32378507
-0.84497976	0.28150356	1.32378471
-0.84429550	0.28062111	1.32378423
-0.84378278	0.28036487	1.32378256
-0.84342086	0.27966839	1.32378316
-0.84300292	0.27926236	1.32378244
-0.84237146	0.27866411	1.32378137
-0.84209782	0.27814722	1.32378173
-0.84153885	0.27727747	1.32378197
-0.84116936	0.27654040	1.32378268
-0.84072864	0.27601254	1.32378232
-0.84032357	0.27538010	1.32378244
-0.76375067	0.12077296	1.32393420
-0.76353633	0.12021092	1.32393515
-0.76274550	0.11839028	1.32393742
-0.76144624	0.11567643	1.32394040
-0.76106811	0.11452886	1.32394242
-0.76007807	0.11222732	1.32394540
-0.75972998	0.11124207	1.32394719
-0.75928396	0.10972913	1.32395017
-0.75622213	0.10365185	1.32395589
-0.74890924	0.09039927	1.32396507
-0.74813694	0.08933735	1.32396483
-0.74455047	0.08360013	1.32396674
-0.74329209	0.08176677	1.32396674
-0.74279118	0.08091421	1.32396722
-0.74222028	0.08064070	1.32396519
-0.74059564	0.07874785	1.32396364
-0.73953032	0.07897685	1.32395744
-0.73900247	0.07863945	1.32395589
-0.73825794	0.07743226	1.32395637
-0.73687255	0.07653083	1.32395244
-0.73596227	0.07568274	1.32395077
-0.73441744	0.07355888	1.32395041
-0.73364496	0.07249692	1.32395017
-0.73254609	0.07188600	1.32394671
-0.73032475	0.06892045	1.32394576
-0.72957826	0.06865785	1.32394290
-0.72813684	0.06679475	1.32394218
-0.72757339	0.06656185	1.32394004
-0.72689688	0.06572010	1.32393956
-0.72649187	0.06508765	1.32393980
-0.72610176	0.06453632	1.32393968
-0.72504282	0.06318395	1.32393909
-0.72394830	0.06193611	1.32393789
-0.72327161	0.06109428	1.32393730
-0.72266304	0.06061791	1.32393599
-0.72122908	0.05879539	1.32393503
-0.72032630	0.05798782	1.32393324
-0.71976292	0.05775502	1.32393122
-0.71892273	0.05632778	1.32393193
-0.71835172	0.05605429	1.32393003
-0.71714723	0.05487502	1.32392800
-0.71653426	0.05503553	1.32392430
-0.71521568	0.05287743	1.32392514
-0.71414924	0.05148445	1.32392466
-0.71363312	0.05055062	1.32392526
-0.71310955	0.04957630	1.32392597
-0.71109056	0.04608467	1.32392800
-0.70735228	0.03916560	1.32393324
-0.70619303	0.03822990	1.32393062
-0.70569974	0.03741795	1.32393086
-0.70530975	0.03686669	1.32393086
-0.70401382	0.03483038	1.32393146
-0.70338988	0.03427273	1.32393014
-0.70183754	0.03210828	1.32392991
-0.70119119	0.03142892	1.32392895
-0.69993943	0.03095061	1.32392430
-0.69914007	0.03040385	1.32392216
-0.69780749	0.02978659	1.32391751
-0.69716120	0.02910723	1.32391667
-0.69664830	0.02885088	1.32391489
-0.69622064	0.02809668	1.32391536
-0.69531775	0.02728911	1.32391357
-0.61504400	-0.12484607	1.32403803
-0.61465061	-0.12607490	1.32404029
-0.61491132	-0.12658367	1.32404339
-0.61465931	-0.12734874	1.32404482
-0.61339021	-0.12990017	1.32404721
-0.52645570	-0.27807665	1.32412398
-0.52541286	-0.28066236	1.32412767
-0.52538371	-0.28213912	1.32413268
-0.52486867	-0.28438741	1.32413793
-0.52410483	-0.28672320	1.32414222
-0.52333677	-0.28842196	1.32414424
-0.52295852	-0.28956962	1.32414639
-0.52251470	-0.29077488	1.32414830
-0.52187258	-0.29209125	1.32414973
-0.52162051	-0.29285634	1.32415104
-0.52236372	-0.29327124	1.32415628
-0.52232283	-0.29415172	1.32415915
-0.52220541	-0.29580805	1.32416439
-0.52208352	-0.29682761	1.32416737
-0.52187347	-0.29802653	1.32417047
-0.52213848	-0.29917222	1.32417583
-0.52141225	-0.30130506	1.32417953
-0.52124107	-0.30193111	1.32418084
-0.52098894	-0.30269617	1.32418227
-0.52096725	-0.30413246	1.32418716
-0.52032524	-0.30544874	1.32418859
-0.52030689	-0.30620742	1.32419109
-0.51904196	-0.30939588	1.32419586
-0.51777291	-0.31194729	1.32419825
-0.51689804	-0.31458443	1.32420313
-0.51584005	-0.31725127	1.32420707
-0.51545441	-0.31843945	1.32420921
-0.51520234	-0.31920448	1.32421064
-0.51327282	-0.32383099	1.32421696
-0.51238614	-0.32587177	1.32421958
-0.51200372	-0.32638240	1.32421947
-0.51072603	-0.32766002	1.32421744
-0.50917363	-0.32982451	1.32421720
-0.50571758	-0.33581612	1.32422054
-0.42987606	-0.48658383	1.32436264
-0.42985451	-0.48801997	1.32436752
-0.42991695	-0.48863974	1.32437003
-0.34178692	-0.59557426	1.32429647
-0.31256956	-0.62969363	1.32426739
-0.28100511	-0.65580273	1.32419837
-0.27758893	-0.65791506	1.32418847
-0.21490118	-0.69155455	1.32398772
