//X	Y	Z
-0.08784573	-0.07643102	2.34768653
-0.08133625	-0.06800426	2.34764433
-0.07994724	-0.06592765	2.34763455
-0.06816962	-0.04586258	2.34754562
-0.04232072	0.00623725	2.34732985
-0.03883801	0.01630623	2.34729314
-0.03529685	0.03026208	2.34724617
-0.03492509	0.03314931	2.34723759
-0.03502988	0.03474109	2.34723377
-0.03555516	0.03567228	2.34723306
-0.03552092	0.03657290	2.34723067
-0.03534997	0.03860644	2.34722495
-0.03633162	0.03914718	2.34722662
-0.03631143	0.04005215	2.34722447
-0.03628054	0.04082458	2.34722233
-0.03625124	0.04276782	2.34721732
-0.03643565	0.04581381	2.34720993
-0.01956896	0.21761568	2.34671736
-0.01867428	0.21813804	2.34671307
-0.01837417	0.21909544	2.34670973
-0.01818433	0.22008200	2.34670663
-0.01785867	0.22024921	2.34670496
-0.01753308	0.22041638	2.34670353
-0.01721200	0.22097361	2.34670115
-0.01702081	0.22144194	2.34669924
-0.01686634	0.22204615	2.34669733
-0.01625293	0.22200395	2.34669542
-0.01616898	0.22263031	2.34669352
-0.01589327	0.22307207	2.34669161
-0.01577783	0.22381793	2.34668922
-0.01547728	0.22412276	2.34668756
-0.01515169	0.22428995	2.34668612
-0.01490098	0.22486900	2.34668374
-0.01466528	0.22531845	2.34668183
-0.01442006	0.22577472	2.34667993
-0.01430874	0.22625804	2.34667826
-0.01398313	0.22642522	2.34667683
-0.01374330	0.22713722	2.34667420
-0.01350659	0.22772068	2.34667206
-0.01311104	0.22851862	2.34666872
-0.01280642	0.22908597	2.34666634
-0.01259886	0.22954413	2.34666443
-0.01227322	0.22971132	2.34666300
-0.01205753	0.23069496	2.34665990
-0.01191634	0.23143783	2.34665751
-0.01155619	0.23185343	2.34665537
-0.01103589	0.23196492	2.34665322
-0.01059856	0.23340230	2.34664822
-0.01039776	0.23425597	2.34664536
-0.01005808	0.23441878	2.34664392
-0.00995228	0.23477931	2.34664273
-0.00962669	0.23494650	2.34664130
-0.00939019	0.23553026	2.34663892
-0.00899448	0.23632787	2.34663558
-0.00879377	0.23718187	2.34663272
-0.00826737	0.23820271	2.34662843
-0.00806668	0.23905669	2.34662580
-0.00772108	0.24012922	2.34662175
-0.00705104	0.24188720	2.34661531
-0.00688803	0.24236426	2.34661341
-0.00656740	0.24357405	2.34660935
-0.00614329	0.24371065	2.34660769
-0.00575256	0.24555090	2.34660172
-0.00523543	0.24553381	2.34660006
-0.00468896	0.24745998	2.34659338
-0.00432648	0.24930929	2.34658766
-0.00409751	0.25015420	2.34658456
-0.00375506	0.25109822	2.34658122
-0.00322269	0.25302872	2.34657454
-0.00272629	0.25522983	2.34656739
-0.00238068	0.25630233	2.34656358
-0.00211903	0.25674850	2.34656143
-0.00177066	0.25860214	2.34655571
-0.00146683	0.25903517	2.34655356
-0.00119926	0.26039103	2.34654927
-0.00089543	0.26082405	2.34654713
-0.00042389	0.26316208	2.34653974
0.00003842	0.26446223	2.34653497
0.00033912	0.26476675	2.34653306
0.00069062	0.26674891	2.34652686
0.00104240	0.26873082	2.34652090
0.00139280	0.26876104	2.34651947
0.00159362	0.26961470	2.34651685
0.00193925	0.27068722	2.34651303
0.00222090	0.27203870	2.34650850
0.00352313	0.27270776	2.34650278
0.01061907	0.31337583	2.34637618
0.01352033	0.33688000	2.34630680
0.01338468	0.33769941	2.34630513
0.01287939	0.33953583	2.34630203
0.01168084	0.34352094	2.34629583
0.00562456	0.36139029	2.34626937
0.00387558	0.36644417	2.34626222
-0.00407743	0.38263959	2.34624624
-0.03413573	0.43662810	2.34620428
-0.03545868	0.43817678	2.34620452
-0.15094742	0.60855043	2.34613848
-0.15102232	0.60896230	2.34613752
-0.15109715	0.60937423	2.34613681
-0.15102714	0.61000478	2.34613490
-0.15096042	0.61050701	2.34613347
-0.15133756	0.61178523	2.34613132
-0.15095609	0.61258751	2.34612823
-0.15098590	0.61376727	2.34612513
-0.15076017	0.61448377	2.34612274
-0.15139607	0.61609685	2.34612060
-0.15132609	0.61672747	2.34611869
-0.15108624	0.61743945	2.34611607
-0.15133584	0.61881238	2.34611344
-0.15124586	0.62034827	2.34610915
-0.15155122	0.62108612	2.34610844
-0.15188488	0.62183285	2.34610748
-0.15105480	0.62328708	2.34610105
-0.15220511	0.62569833	2.34609866
-0.15184858	0.62663788	2.34609509
-0.15195608	0.62744838	2.34609342
-0.15223652	0.62804890	2.34609270
-0.15160757	0.62930191	2.34608746
-0.15648025	0.63732839	2.34608269
-0.15700558	0.63825947	2.34608197
-0.15692469	0.63875717	2.34608030
-0.15662408	0.63906181	2.34607863
-0.15746567	0.64086354	2.34607673
-0.15737066	0.64135683	2.34607506
-0.15690029	0.64174289	2.34607267
-0.15703917	0.64243370	2.34607124
-0.15727460	0.64380229	2.34606862
-0.15755516	0.64440292	2.34606791
-0.15814117	0.64574146	2.34606647
-0.15804622	0.64623475	2.34606481
-0.15756056	0.64856839	2.34605742
-0.16906932	0.66786158	2.34604478
-0.18319592	0.67305976	2.34607673
-0.19270042	0.67538035	2.34610105
-0.19449979	0.67563355	2.34610629
-0.20247084	0.67517412	2.34613299
-0.21504444	0.67095208	2.34618378
-0.22089010	0.66728383	2.34621191
-0.35588259	0.56159687	2.34691334
-0.35780782	0.56058431	2.34692216
-0.35811931	0.56041259	2.34692359
-0.35860059	0.56015944	2.34692574
-0.35920912	0.56059867	2.34692645
-0.36139309	0.55992109	2.34693527
-0.36508816	0.55719483	2.34695411
-0.36544430	0.55704212	2.34695554
-0.36605078	0.55668855	2.34695840
-0.36653209	0.55643541	2.34696054
-0.36726049	0.55651844	2.34696269
-0.36929476	0.55501705	2.34697294
-0.36979780	0.55502975	2.34697461
-0.37154230	0.55396569	2.34698296
-0.37186781	0.55379832	2.34698439
-0.37332591	0.55304348	2.34699106
-0.37381801	0.55292308	2.34699273
-0.37458265	0.55248946	2.34699631
-0.37670583	0.55140424	2.34700584
-0.37719804	0.55128402	2.34700775
-0.37864196	0.55052459	2.34701443
-0.38003278	0.54961914	2.34702110
-0.38059214	0.54964936	2.34702277
-0.38200021	0.54861975	2.34702992
-0.38251734	0.54863685	2.34703159
-0.38396126	0.54787737	2.34703803
-0.38588649	0.54686487	2.34704685
-0.38796747	0.54576647	2.34705639
-0.38955626	0.54478842	2.34706402
-0.39064962	0.54405892	2.34706926
-0.39300945	0.54239029	2.34708118
-0.39428350	0.54171228	2.34708691
-0.39459503	0.54154056	2.34708834
-0.39493468	0.54137766	2.34708977
-0.39604980	0.54091406	2.34709454
-0.39870697	0.53906912	2.34710765
-0.40063864	0.53779960	2.34711719
-0.40285036	0.53647810	2.34712768
-0.40456998	0.53527689	2.34713626
-0.40615866	0.53429860	2.34714365
-0.40652016	0.53440166	2.34714460
-0.40730202	0.53384382	2.34714866
-0.40922722	0.53283131	2.34715724
-0.41156414	0.53140926	2.34716845
-0.41188967	0.53124189	2.34716988
-0.41227931	0.53135365	2.34717083
-0.41355824	0.53171813	2.34717393
-0.41428104	0.53192401	2.34717584
-0.41514871	0.53191108	2.34717870
-0.41569403	0.53193682	2.34718037
-0.41621116	0.53195393	2.34718180
-0.41749334	0.53219002	2.34718537
-0.41828614	0.53176516	2.34718895
-0.41919276	0.53189379	2.34719157
-0.41955423	0.53199685	2.34719253
-0.42129871	0.53093278	2.34720063
-0.42182994	0.53095424	2.34720230
-0.42272258	0.53107858	2.34720492
-0.42558545	0.52942246	2.34721828
-0.42741567	0.52890319	2.34722543
-0.42961657	0.52744889	2.34723616
-0.43129104	0.52701533	2.34724259
-0.43321627	0.52600282	2.34725142
-0.43377247	0.52616161	2.34725285
-0.43443447	0.52595991	2.34725547
-0.43671021	0.52491730	2.34726548
-0.43726635	0.52507603	2.34726667
-0.44046128	0.52299583	2.34728217
-0.44081619	0.52335560	2.34728241
-0.44114172	0.52318829	2.34728384
-0.44146737	0.52302110	2.34728551
-0.44276640	0.52248037	2.34729099
-0.44352382	0.52243805	2.34729338
-0.44498494	0.52155447	2.34730029
-0.44654238	0.52069598	2.34730768
-0.44694600	0.52081209	2.34730864
-0.44837263	0.52017677	2.34731483
-0.44912687	0.52026302	2.34731698
-0.44970801	0.52055901	2.34731793
-0.45034495	0.52021992	2.34732103
-0.45073131	0.52046007	2.34732151
-0.45105693	0.52029288	2.34732294
-0.45321271	0.51960635	2.34733176
-0.45503220	0.51895422	2.34733915
-0.45584989	0.51866668	2.34734249
-0.45858192	0.51723367	2.34735489
-0.45971435	0.51664597	2.34736013
-0.46007577	0.51674891	2.34736085
-0.46182030	0.51568490	2.34736919
-0.47091484	0.50994819	2.34741282
-0.60874629	0.42367062	2.34807396
-0.60953915	0.42324591	2.34807754
-0.60987866	0.42308292	2.34807897
-0.61100799	0.42262378	2.34808373
-0.61125255	0.42295408	2.34808373
-0.61156416	0.42278254	2.34808517
-0.61201727	0.42252052	2.34808731
-0.61243498	0.42264098	2.34808826
-0.61310464	0.42270070	2.34809017
-0.61472929	0.42199278	2.34809732
-0.61536306	0.42178226	2.34809971
-0.61568862	0.42161492	2.34810138
-0.61650962	0.42119890	2.34810495
-0.61685693	0.42129746	2.34810591
-0.61794305	0.42095917	2.34811020
-0.61895883	0.42059913	2.34811425
-0.61961764	0.42052591	2.34811664
-0.62012386	0.42041004	2.34811854
-0.62079996	0.42021275	2.34812117
-0.62129527	0.41996402	2.34812331
-0.62164265	0.42006251	2.34812427
-0.62261933	0.41956058	2.34812880
-0.62328136	0.41935897	2.34813142
-0.62412405	0.41920871	2.34813428
-0.62501854	0.41868618	2.34813857
-0.62544042	0.41854396	2.34814024
-0.62594336	0.41855651	2.34814191
-0.62676126	0.41826913	2.34814525
-0.62714344	0.41877201	2.34814525
-0.62876815	0.41806406	2.34815216
-0.62914354	0.41817135	2.34815311
-0.63046753	0.41776788	2.34815836
-0.63222307	0.41683695	2.34816623
-0.63289905	0.41663951	2.34816909
-0.63355017	0.41630495	2.34817195
-0.63401741	0.41604748	2.34817410
-0.63432890	0.41587579	2.34817553
-0.63516074	0.41559273	2.34817886
-0.63619822	0.41549832	2.34818244
-0.63787282	0.41506481	2.34818888
-0.63883537	0.41455856	2.34819341
-0.64015937	0.41415516	2.34819865
-0.64081043	0.41382059	2.34820151
-0.64119685	0.41406077	2.34820199
-0.64360332	0.41279510	2.34821296
-0.64425445	0.41246048	2.34821606
-0.64509720	0.41231024	2.34821916
-0.64811587	0.41056836	2.34823322
-0.64877784	0.41036671	2.34823585
-0.65070307	0.40935421	2.34824443
-0.65278399	0.40825570	2.34825397
-0.65473413	0.40738046	2.34826255
-0.66080272	0.40377682	2.34829116
-0.66329777	0.40227479	2.34830284
-0.66504240	0.40121093	2.34831119
-0.67164814	0.39671904	2.34834385
-0.67433351	0.39488307	2.34835696
-0.67775863	0.39247614	2.34837413
-0.69029844	0.38160929	2.34844184
-0.70343542	0.36895657	2.34851623
-0.70492435	0.36742932	2.34852481
-0.71667886	0.35477823	2.34859490
-0.72322583	0.34532225	2.34863997
-0.72758031	0.33888733	2.34867024
-0.73142797	0.33191550	2.34870028
-0.73231089	0.32995489	2.34870815
-0.74229795	0.29974777	2.34881735
-0.74490207	0.28955865	2.34885168
-0.74808657	0.17957297	2.34914279
-0.74921119	0.12562475	2.34928417
-0.74433094	0.11160901	2.34930444
-0.73575604	0.09133467	2.34932876
-0.72625601	0.08120582	2.34932423
-0.72584462	0.08082819	2.34932399
-0.71060407	0.06841373	2.34930682
-0.70999801	0.06798041	2.34930611
-0.69724774	0.06368989	2.34927630
-0.69130290	0.06173396	2.34926224
-0.67448270	0.05745758	2.34921956
-0.67209136	0.05677561	2.34921360
-0.67108357	0.05804962	2.34920716
-0.66929841	0.05780098	2.34920216
-0.66859740	0.05786110	2.34919953
-0.66813517	0.05916125	2.34919477
-0.66778457	0.05919112	2.34919357
-0.66725332	0.05916966	2.34919190
-0.66572368	0.05938429	2.34918666
-0.66281450	0.05881962	2.34917879
-0.66115761	0.05834197	2.34917474
-0.66062629	0.05832051	2.34917307
-0.65976101	0.05833916	2.34917021
-0.65625739	0.05733971	2.34916162
-0.65490794	0.05695307	2.34915829
-0.65455759	0.05698331	2.34915709
-0.65237188	0.05649002	2.34915137
-0.65204620	0.05665721	2.34914970
-0.65077817	0.05642568	2.34914637
-0.64953518	0.05633140	2.34914255
-0.64918458	0.05636132	2.34914136
-0.64350927	0.05487296	2.34912705
-0.64089215	0.05490740	2.34911871
-0.63975978	0.05549522	2.34911346
-0.63904780	0.05542211	2.34911132
-0.63691199	0.05520338	2.34910512
-0.63658655	0.05537094	2.34910369
-0.63539457	0.05606951	2.34909821
-0.63467163	0.05586348	2.34909630
-0.63455182	0.05621959	2.34909511
-0.63426524	0.05652848	2.34909344
-0.63351440	0.05631399	2.34909153
-0.63223541	0.05594957	2.34908843
-0.63167924	0.05579083	2.34908700
-0.63043612	0.05569655	2.34908319
-0.62961835	0.05598399	2.34907985
-0.62908709	0.05596253	2.34907818
-0.62878644	0.05626701	2.34907651
-0.62790483	0.05627580	2.34907365
-0.62683153	0.05609998	2.34907055
-0.62603867	0.05652466	2.34906697
-0.62568170	0.05681169	2.34906507
-0.62538105	0.05711615	2.34906340
-0.62438381	0.05683975	2.34906101
-0.62133211	0.05609092	2.34905314
-0.61972404	0.05680913	2.34904623
-0.61814356	0.05688351	2.34904099
-0.61733669	0.05730382	2.34903717
-0.61663455	0.05787641	2.34903359
-0.61603856	0.05771038	2.34903216
-0.61562204	0.05810811	2.34902978
-0.61527717	0.05801556	2.34902883
-0.61487019	0.05802765	2.34902740
-0.61431313	0.05800329	2.34902573
-0.61240441	0.05758645	2.34902072
-0.61204666	0.05800781	2.34901857
-0.61030447	0.05763796	2.34901381
-0.60659206	0.05657843	2.34900475
-0.60572433	0.05659127	2.34900188
-0.60474765	0.05709319	2.34899759
-0.60405302	0.05689619	2.34899592
-0.60343170	0.05841047	2.34898996
-0.60304463	0.05830482	2.34898901
-0.60083485	0.05753991	2.34898400
-0.59836566	0.05722691	2.34897685
-0.59771067	0.05782449	2.34897327
-0.59609801	0.05774389	2.34896827
-0.59464931	0.05746098	2.34896421
-0.59373164	0.05719922	2.34896207
-0.59300578	0.05712208	2.34895992
-0.59096986	0.05745253	2.34895253
-0.59048235	0.05758432	2.34895062
-0.59011304	0.05759829	2.34894943
-0.58975327	0.05763568	2.34894824
-0.58905053	0.05755536	2.34894609
-0.58834660	0.05736557	2.34894443
-0.58742911	0.05710416	2.34894228
-0.58562970	0.05685085	2.34893703
-0.58423090	0.05684255	2.34893250
-0.58390528	0.05700974	2.34893107
-0.58139420	0.05668393	2.34892392
-0.58106858	0.05685115	2.34892249
-0.58051240	0.05669241	2.34892106
-0.57961965	0.05656794	2.34891868
-0.57837659	0.05647370	2.34891486
-0.57624578	0.05729760	2.34890604
-0.57576442	0.05755073	2.34890366
-0.57530814	0.05794117	2.34890127
-0.57424569	0.05789827	2.34889793
-0.57325810	0.05826722	2.34889388
-0.57158029	0.05882895	2.34888721
-0.56896937	0.05795400	2.34888101
-0.56805056	0.05964424	2.34887385
-0.56711900	0.05937842	2.34887147
-0.56682152	0.05955435	2.34887004
-0.56544477	0.05902462	2.34886694
-0.56486315	0.05951557	2.34886384
-0.56399560	0.05952871	2.34886098
-0.56326681	0.06023234	2.34885693
-0.56254089	0.06015515	2.34885478
-0.56092227	0.05995356	2.34885025
-0.56041598	0.06006938	2.34884834
-0.55972612	0.06091470	2.34884381
-0.55876642	0.06064016	2.34884143
-0.55844086	0.06080735	2.34884000
-0.55805933	0.06160967	2.34883690
-0.55774784	0.06178123	2.34883547
-0.55650795	0.06155843	2.34883189
-0.55505919	0.06127554	2.34882808
-0.55450308	0.06111677	2.34882665
-0.55354321	0.06084190	2.34882426
-0.55148828	0.06012538	2.34881949
-0.55110675	0.06092769	2.34881639
-0.54656065	0.05898005	2.34880686
-0.54589993	0.05970010	2.34880280
-0.54447478	0.05903591	2.34879994
-0.54168302	0.05810928	2.34879351
-0.54030925	0.05823828	2.34878874
-0.53850996	0.05798531	2.34878349
-0.53761727	0.05786081	2.34878111
-0.53235936	0.05584039	2.34876943
-0.46423376	0.02248338	2.34863687
-0.36859953	-0.02549583	2.34845376
-0.36745134	-0.02608351	2.34845161
-0.36752719	-0.02762395	2.34845591
-0.36551738	-0.02910820	2.34845328
-0.34984493	-0.03591975	2.34842038
-0.31517434	-0.04723956	2.34833860
-0.29850128	-0.05316861	2.34830046
-0.29792017	-0.05346460	2.34829926
-0.26974878	-0.06202260	2.34823108
-0.26599595	-0.06374235	2.34822369
-0.26139802	-0.06531775	2.34821296
-0.26129818	-0.06586692	2.34821391
-0.25735819	-0.06738124	2.34820533
-0.25479698	-0.06798193	2.34819865
-0.24487311	-0.07015436	2.34817243
-0.23104078	-0.07292985	2.34813523
-0.13616550	-0.08125974	2.34785342
-0.11491587	-0.08198340	2.34778738
-0.11036882	-0.08197872	2.34777284
-0.10409400	-0.08168693	2.34775209
-0.09512013	-0.07891085	2.34771633
