//X	Y	Z
-1.16445267	0.51806843	2.35551119
-1.18952751	0.49961933	2.35540438
-1.20294023	0.48629129	2.35534120
-1.20843983	0.47989321	2.35531378
-1.21713507	0.46796927	2.35526705
-1.22406101	0.45696354	2.35522747
-1.22621596	0.43276286	2.35517907
-1.22626734	0.43119755	2.35517621
-1.22361231	0.41583568	2.35515761
-1.21766150	0.38934684	2.35512948
-1.21561742	0.38701400	2.35513163
-1.21462858	0.38540727	2.35513186
-1.21418309	0.38484821	2.35513210
-1.21239638	0.38177967	2.35513210
-1.21191692	0.38100138	2.35513234
-1.21129167	0.38014942	2.35513258
-1.21088719	0.37949255	2.35513282
-1.20950222	0.37823081	2.35513473
-1.20864463	0.37733233	2.35513568
-1.20799267	0.37594387	2.35513520
-1.20708704	0.37546057	2.35513711
-1.20649159	0.37465864	2.35513759
-1.20537233	0.37366331	2.35513902
-1.20448828	0.37222803	2.35513926
-1.20378816	0.37125474	2.35513973
-1.20334244	0.37069583	2.35513997
-1.20235372	0.36908919	2.35514021
-1.20129824	0.36836308	2.35514212
-1.19874370	0.36388260	2.35514188
-1.19691300	0.36206183	2.35514426
-1.19592440	0.36045516	2.35514450
-1.19442308	0.35917014	2.35514665
-1.19339311	0.35766143	2.35514712
-1.19044220	0.35352606	2.35514879
-1.18863511	0.35339212	2.35515404
-1.18776953	0.35149151	2.35515332
-1.18702817	0.35061625	2.35515404
-1.18416989	0.34481755	2.35515261
-1.18328691	0.34470153	2.35515499
-1.18149185	0.34063095	2.35515332
-1.18067575	0.33963436	2.35515404
-1.17860794	0.33561492	2.35515332
-1.17757821	0.33410609	2.35515356
-1.17579854	0.33072025	2.35515308
-1.17513955	0.32964921	2.35515332
-1.17395270	0.32821482	2.35515428
-1.17182827	0.32360888	2.35515261
-1.17081404	0.32278469	2.35515428
-1.16890311	0.31869060	2.35515285
-1.16658068	0.31425697	2.35515213
-1.16365552	0.30933881	2.35515237
-1.16100347	0.30436957	2.35515165
-1.15851343	0.30147782	2.35515428
-1.15802670	0.30101681	2.35515475
-1.15670836	0.29887462	2.35515499
-1.15474629	0.29634583	2.35515642
-1.15203238	0.29440928	2.35516119
-1.15037441	0.29319870	2.35516405
-1.14909697	0.29095852	2.35516405
-1.14560580	0.29039675	2.35517359
-1.14421248	0.28813308	2.35517383
-1.14240754	0.28552979	2.35517478
-1.14041984	0.28378364	2.35517764
-1.13896990	0.28093332	2.35517693
-1.13791442	0.28020722	2.35517883
-1.13713944	0.27911255	2.35517931
-1.13492227	0.27616981	2.35518074
-1.11768579	0.23496936	2.35516095
-1.11593211	0.23080078	2.35515904
-1.11490214	0.22929209	2.35515952
-1.11411166	0.22751281	2.35515881
-1.11327994	0.22583158	2.35515833
-1.11244845	0.22415030	2.35515785
-1.11084139	0.22137453	2.35515785
-1.10896957	0.21965189	2.35516047
-1.10769248	0.21741161	2.35516047
-1.10521293	0.21305248	2.35516024
-1.10406697	0.21152028	2.35516119
-1.10250938	0.20964855	2.35516262
-1.10013735	0.20431094	2.35516047
-1.09848952	0.20163313	2.35516071
-1.09776354	0.20144257	2.35516262
-1.09582734	0.19813111	2.35516262
-1.09462488	0.19601233	2.35516238
-1.09258270	0.19121012	2.35516024
-1.07790363	0.15911156	2.35514855
-1.07724440	0.15804046	2.35514879
-1.07637155	0.15645723	2.35514855
-1.07580984	0.15587482	2.35514927
-1.07441664	0.15361118	2.35514951
-1.07365274	0.15236861	2.35514951
-1.07309818	0.15146890	2.35514975
-1.07252228	0.15152118	2.35515141
-1.07192683	0.15071933	2.35515189
-1.07105398	0.14913611	2.35515189
-1.07054472	0.14830773	2.35515189
-1.06961536	0.14613791	2.35515094
-1.06891513	0.14516464	2.35515118
-1.06846952	0.14460577	2.35515165
-1.06664109	0.14031565	2.35514975
-1.06605387	0.14051580	2.35515189
-1.06458139	0.13729817	2.35515070
-1.06379068	0.13551903	2.35514998
-1.06223011	0.13479714	2.35515332
-1.06128263	0.13309242	2.35515308
-1.05905843	0.13046694	2.35515523
-1.05847085	0.13066730	2.35515738
-1.05763626	0.13013597	2.35515904
-1.05654693	0.12919039	2.35516071
-1.05611992	0.12816608	2.35516000
-1.05527067	0.12826958	2.35516286
-1.05372739	0.12576310	2.35516310
-0.99551284	-0.03678258	2.35505581
-0.98960751	-0.05099443	2.35504866
-0.98998809	-0.05268714	2.35504460
-0.98961651	-0.05444412	2.35504270
-0.98985147	-0.05554718	2.35504007
-0.99011648	-0.05660039	2.35503745
-0.98976654	-0.05997270	2.35503268
-0.99026334	-0.06097892	2.35502958
-0.98935181	-0.06493363	2.35502529
-0.98691672	-0.06987768	2.35502410
-0.98542249	-0.07214317	2.35502458
-0.98474097	-0.07291849	2.35502529
-0.98386824	-0.07450186	2.35502529
-0.98332500	-0.07554950	2.35502505
-0.98253453	-0.07732879	2.35502434
-0.98138869	-0.07886095	2.35502505
-0.98022747	-0.08107778	2.35502481
-0.97968417	-0.08212541	2.35502458
-0.97911543	-0.08239052	2.35502577
-0.97861326	-0.08353619	2.35502529
-0.97774041	-0.08511938	2.35502505
-0.97704029	-0.08609265	2.35502553
-0.97564697	-0.08835632	2.35502577
-0.97463250	-0.08918029	2.35502744
-0.97389114	-0.09005548	2.35502815
-0.97256982	-0.09104788	2.35503030
-0.97214270	-0.09207214	2.35502982
-0.97169697	-0.09263104	2.35503030
-0.97049475	-0.09474999	2.35503006
-0.96957767	-0.09508522	2.35503221
-0.96862280	-0.09647253	2.35503268
-0.96840930	-0.09698473	2.35503244
-0.96776134	-0.09753411	2.35503340
-0.96731579	-0.09809314	2.35503387
-0.96559590	-0.10204227	2.35503221
-0.94242704	-0.16443208	2.35499334
-0.93941784	-0.17245629	2.35498857
-0.93654704	-0.18008965	2.35498381
-0.93564761	-0.18220960	2.35498285
-0.93458712	-0.18508777	2.35498095
-0.93429840	-0.18572122	2.35498071
-0.93375540	-0.18676904	2.35498071
-0.93338466	-0.18720654	2.35498095
-0.93243706	-0.18891130	2.35498095
-0.92758334	-0.20190343	2.35497284
-0.92705554	-0.20226640	2.35497379
-0.92625058	-0.20341742	2.35497427
-0.92559141	-0.20448855	2.35497427
-0.92513460	-0.20489316	2.35497499
-0.92427301	-0.20663083	2.35497451
-0.92332554	-0.20833559	2.35497451
-0.92222083	-0.20996580	2.35497499
-0.86604476	-0.37231082	2.35486174
-0.86663932	-0.37282845	2.35485911
-0.86603475	-0.37661493	2.35485435
-0.86582822	-0.37744433	2.35485363
-0.86515361	-0.37920013	2.35485244
-0.86218572	-0.38665920	2.35484838
-0.86374128	-0.38808942	2.35484147
-0.86412215	-0.38911915	2.35483837
-0.86353505	-0.38891900	2.35484052
-0.85753167	-0.39851776	2.35484195
-0.77161491	-0.54833978	2.35483932
-0.77186430	-0.55007756	2.35483551
-0.77118975	-0.55183333	2.35483456
-0.77122593	-0.55408347	2.35483050
-0.77070844	-0.55591381	2.35482883
-0.77111495	-0.55772614	2.35482454
-0.77063864	-0.55965453	2.35482264
-0.76997447	-0.56287766	2.35481906
-0.77052790	-0.56329727	2.35481668
-0.77006185	-0.56669295	2.35481215
-0.76923013	-0.56837416	2.35481167
-0.76760805	-0.57183480	2.35481048
-0.76123512	-0.58565336	2.35480571
-0.76042902	-0.58811712	2.35480380
-0.75772059	-0.59367317	2.35480237
-0.75794446	-0.59462833	2.35479999
-0.75781280	-0.59533626	2.35479903
-0.74272394	-0.62447250	2.35479379
-0.73896688	-0.63107181	2.35479355
-0.73122931	-0.64331532	2.35479546
-0.68972194	-0.70796025	2.35480762
-0.68359631	-0.71527600	2.35481334
-0.67328644	-0.72444397	2.35482812
-0.66612566	-0.72964913	2.35484052
-0.64037204	-0.74330127	2.35489392
-0.63768893	-0.74386841	2.35490084
-0.63241321	-0.74419683	2.35491610
-0.61454403	-0.74421287	2.35496950
-0.61096752	-0.74342871	2.35498142
-0.60149932	-0.74084008	2.35501432
-0.58826989	-0.73414063	2.35506535
-0.55165577	-0.71020114	2.35521626
-0.53054738	-0.69058126	2.35531306
-0.52752244	-0.68774748	2.35532713
-0.52532089	-0.68423432	2.35533977
-0.52260697	-0.68039948	2.35535455
-0.52124220	-0.67882442	2.35536122
-0.51991868	-0.67734742	2.35536790
-0.51985198	-0.67646682	2.35536957
-0.51884264	-0.67513889	2.35537481
-0.51767623	-0.67373633	2.35538077
-0.51292372	-0.66876286	2.35540366
-0.51307791	-0.66768742	2.35540485
-0.51196802	-0.66569841	2.35541177
-0.51155692	-0.66471839	2.35541463
-0.50875282	-0.66168982	2.35542822
-0.50506645	-0.65745771	2.35544658
-0.50483143	-0.65635467	2.35544920
-0.50523573	-0.65569752	2.35544920
-0.50377053	-0.65346122	2.35545731
-0.50274998	-0.65198541	2.35546303
-0.50292659	-0.65120596	2.35546374
-0.50259376	-0.65059137	2.35546589
-0.50075054	-0.64847529	2.35547495
-0.49993956	-0.64732003	2.35547948
-0.50031006	-0.64688236	2.35547900
-0.49858287	-0.64474279	2.35548806
-0.49218929	-0.63831937	2.35551810
-0.46862459	-0.60982925	2.35563779
-0.36025268	-0.48417693	2.35617900
-0.35574716	-0.47979149	2.35619998
-0.35415038	-0.47826329	2.35620737
-0.35343987	-0.47776914	2.35621047
-0.35128254	-0.47550398	2.35622072
-0.35072887	-0.47508422	2.35622311
-0.34954703	-0.47436643	2.35622787
-0.34633094	-0.47167730	2.35624218
-0.34461117	-0.46985519	2.35625052
-0.34409869	-0.46953350	2.35625267
-0.33886728	-0.46467543	2.35627675
-0.33806640	-0.46498737	2.35627842
-0.31236950	-0.43634084	2.35640478
-0.31164357	-0.43653136	2.35640669
-0.31016269	-0.43497965	2.35641384
-0.30745912	-0.43261218	2.35642600
-0.30686480	-0.43209475	2.35642862
-0.30506968	-0.43039390	2.35643697
-0.30389124	-0.43016297	2.35644078
-0.30260894	-0.42878398	2.35644698
-0.30169269	-0.42779979	2.35645151
-0.30121011	-0.42809141	2.35645247
-0.30040213	-0.42742282	2.35645604
-0.29874191	-0.42616400	2.35646319
-0.29816949	-0.42594206	2.35646534
-0.29742855	-0.42615420	2.35646701
-0.29683393	-0.42563662	2.35646987
-0.29593253	-0.42528731	2.35647297
-0.29036492	-0.41999105	2.35649896
-0.28992739	-0.41954795	2.35650086
-0.28886864	-0.41912401	2.35650492
-0.28796011	-0.41845739	2.35650873
-0.28687170	-0.41742033	2.35651374
-0.28528237	-0.41620958	2.35652065
-0.28399566	-0.41566291	2.35652542
-0.28342682	-0.41592807	2.35652661
-0.28276467	-0.41584927	2.35652876
-0.28166500	-0.41532743	2.35653281
-0.28113711	-0.41569042	2.35653377
-0.27911329	-0.41518641	2.35654068
-0.27797261	-0.41456673	2.35654521
-0.27694052	-0.41360596	2.35654998
-0.27616245	-0.41355073	2.35655236
-0.27556786	-0.41303307	2.35655499
-0.27355218	-0.41152713	2.35656381
-0.26993236	-0.40817553	2.35658026
-0.26775965	-0.40659499	2.35658956
-0.26670498	-0.40600163	2.35659385
-0.26617709	-0.40636453	2.35659456
-0.26278880	-0.40428573	2.35660839
-0.26147538	-0.40427595	2.35661244
-0.25912717	-0.40215570	2.35662293
-0.25779548	-0.40168065	2.35662770
-0.25611159	-0.40210852	2.35663199
-0.21161701	-0.35568833	2.35684538
-0.21043521	-0.35497048	2.35685015
-0.20840091	-0.35299915	2.35685968
-0.16652606	-0.30561802	2.35706663
-0.15292868	-0.28896350	2.35713601
-0.15142232	-0.28662923	2.35714459
-0.15044679	-0.28508186	2.35715032
-0.14949407	-0.28316733	2.35715652
-0.09440809	-0.20514058	2.35745597
-0.03127784	-0.11645374	2.35779810
-0.02938235	-0.11409168	2.35780787
-0.01965165	-0.10072018	2.35785985
-0.00742477	-0.07062669	2.35794854
-0.00159010	-0.05537340	2.35799241
-0.00052211	-0.05216271	2.35800123
0.01502928	0.00468390	2.35814595
0.01364887	0.06991708	2.35825467
0.00960010	0.10040478	2.35829544
-0.00530502	0.17080398	2.35837269
-0.04385981	0.24598196	2.35838771
-0.04576942	0.24809350	2.35838556
-0.04864532	0.25210756	2.35838389
-0.06483865	0.27645251	2.35837770
-0.06569588	0.27735123	2.35837674
-0.06750092	0.27995455	2.35837579
-0.06886044	0.28199872	2.35837531
-0.07079184	0.28315812	2.35837150
-0.07216150	0.28373513	2.35836840
-0.07270774	0.28363284	2.35836649
-0.07370368	0.28492224	2.35836577
-0.07609612	0.28732526	2.35836291
-0.16787842	0.43036750	2.35833621
-0.18517086	0.45795965	2.35833240
-0.18511948	0.45952493	2.35833526
-0.18811959	0.46456450	2.35833502
-0.19148982	0.47005481	2.35833430
-0.19154614	0.47064161	2.35833526
-0.19898847	0.48255575	2.35833359
-0.20061004	0.48536637	2.35833359
-0.20050946	0.48602754	2.35833502
-0.20091382	0.48668465	2.35833502
-0.20097032	0.48727131	2.35833597
-0.20279083	0.49055922	2.35833621
-0.20715758	0.49732572	2.35833478
-0.21032271	0.50262314	2.35833454
-0.21799284	0.51442778	2.35833192
-0.22412667	0.52274549	2.35832810
-0.25035214	0.54903626	2.35829520
-0.26433608	0.55790877	2.35826874
-0.31385851	0.58808863	2.35817313
-0.34532347	0.59832412	2.35809684
-0.34604943	0.59851468	2.35809493
-0.36043996	0.59980345	2.35805416
-0.39610180	0.60284638	2.35795307
-0.40353268	0.60337889	2.35793161
-0.43678826	0.60464680	2.35783458
-0.47666311	0.60183811	2.35771060
-0.47984296	0.60139912	2.35770035
-0.48066249	0.60124564	2.35769773
-0.48214012	0.60084391	2.35769248
-0.48280230	0.60076517	2.35769033
-0.48432079	0.60026562	2.35768509
-0.48522249	0.59991622	2.35768175
-0.49271592	0.59873557	2.35765719
-0.49346763	0.59814334	2.35765409
-0.49452612	0.59771961	2.35765004
-0.49619460	0.59746277	2.35764480
-0.49670711	0.59714109	2.35764265
-0.49725333	0.59703881	2.35764074
-0.49780679	0.59661925	2.35763836
-0.49924326	0.59631562	2.35763359
-0.50169718	0.59568608	2.35762525
-0.50433105	0.59534925	2.35761666
-0.50535583	0.59470594	2.35761261
-0.50752962	0.59444475	2.35760570
-0.50867760	0.59350753	2.35760069
-0.51009154	0.59283650	2.35759521
-0.51070476	0.59251672	2.35759282
-0.51266879	0.59191298	2.35758591
-0.51449430	0.59158170	2.35757995
-0.51576996	0.59118307	2.35757542
-0.52057731	0.59058511	2.35755992
-0.52270615	0.59025252	2.35755301
-0.52561301	0.58986455	2.35754371
-0.52626693	0.58878374	2.35753989
-0.52901673	0.58847034	2.35753107
-0.52896041	0.58788359	2.35753036
-0.53066981	0.58752894	2.35752463
-0.53141439	0.58725405	2.35752177
-0.53206110	0.58649063	2.35751867
-0.53300369	0.58604324	2.35751510
-0.53460133	0.58583450	2.35750985
-0.53522968	0.58553636	2.35750747
-0.53825253	0.58517194	2.35749769
-0.54262984	0.58469951	2.35748386
-0.54329908	0.58430344	2.35748124
-0.54516590	0.58387411	2.35747480
-0.54576045	0.58335650	2.35747218
-0.54754519	0.58312297	2.35746646
-0.55000627	0.58217615	2.35745740
-0.55170059	0.58113658	2.35745072
-0.55395663	0.58067954	2.35744309
-0.55498123	0.58003628	2.35743904
-0.55580795	0.57956547	2.35743570
-0.55691481	0.57872629	2.35743093
-0.55858326	0.57846951	2.35742545
-0.55912125	0.57736528	2.35742188
-0.56141841	0.57681006	2.35741425
-0.56212890	0.57631588	2.35741115
-0.56375623	0.57615721	2.35740614
-0.56382316	0.57527643	2.35740423
-0.56532633	0.57409215	2.35739779
-0.56642604	0.57357037	2.35739350
-0.56705439	0.57327211	2.35739112
-0.56868196	0.57311326	2.35738611
-0.56892860	0.57252526	2.35738420
-0.56971407	0.57215250	2.35738134
-0.57073134	0.57182670	2.35737777
-0.57121009	0.57128561	2.35737538
-0.57330865	0.57090318	2.35736847
-0.57378739	0.57036209	2.35736609
-0.57447535	0.56950057	2.35736251
-0.57544047	0.56942058	2.35735941
-0.57705265	0.56857705	2.35735321
-0.57786357	0.56742179	2.35734868
-0.57841706	0.56700212	2.35734630
-0.57849127	0.56580400	2.35734415
-0.57943374	0.56535673	2.35734057
-0.58049232	0.56493294	2.35733652
-0.58147609	0.56438756	2.35733271
-0.58210403	0.56343287	2.35732913
-0.58252662	0.56296158	2.35732722
-0.58368218	0.56237006	2.35732269
-0.58423954	0.56211990	2.35732055
-0.58524597	0.56194192	2.35731721
-0.58593386	0.56108034	2.35731363
-0.58640110	0.56068730	2.35731173
-0.58795750	0.56057662	2.35730672
-0.58864546	0.55971509	2.35730314
-0.58919883	0.55929554	2.35730076
-0.59118187	0.55888951	2.35729432
-0.59185112	0.55849344	2.35729146
-0.59360200	0.55804056	2.35728550
-0.59423757	0.55742502	2.35728264
-0.59525514	0.55709904	2.35727906
-0.59610432	0.55699563	2.35727620
-0.59828526	0.55641711	2.35726881
-0.59969926	0.55574620	2.35726333
-0.60052562	0.55527556	2.35725999
-0.60223532	0.55492061	2.35725427
-0.60265028	0.55411023	2.35725164
-0.60392952	0.55388117	2.35724759
-0.60436708	0.55343807	2.35724545
-0.60630858	0.55313021	2.35723901
-0.60804409	0.55199265	2.35723186
-0.60932636	0.55061370	2.35722566
-0.60954303	0.54997587	2.35722399
-0.60976690	0.54902071	2.35722160
-0.61054528	0.54896528	2.35721922
-0.61167485	0.54849327	2.35721493
-0.61222112	0.54839104	2.35721326
-0.61285669	0.54777551	2.35721016
-0.61338377	0.54748213	2.35720825
-0.61370540	0.54701555	2.35720634
-0.61602104	0.54665834	2.35719895
-0.61808610	0.54605633	2.35719156
-0.61873299	0.54528636	2.35718846
-0.62612963	0.54494303	2.35716581
-0.62660742	0.54307604	2.35716105
-0.62825322	0.54245847	2.35715508
-0.62966335	0.54161137	2.35714936
-0.63039225	0.54065198	2.35714555
-0.63296956	0.53972846	2.35713625
-0.63283831	0.53902030	2.35713553
-0.63296866	0.53840899	2.35713387
-0.63523567	0.53780413	2.35712624
-0.63518655	0.53689998	2.35712481
-0.63663417	0.53644848	2.35711956
-0.63956684	0.53527784	2.35710883
-0.64117897	0.53443426	2.35710263
-0.64232701	0.53349698	2.35709763
-0.64254344	0.53285933	2.35709572
-0.64250171	0.53163779	2.35709381
-0.64565897	0.53083140	2.35708284
-0.64782453	0.52956820	2.35707426
-0.64818710	0.52900374	2.35707235
-0.64989656	0.52864909	2.35706663
-0.65370506	0.52791166	2.35705376
-0.65364850	0.52732509	2.35705304
-0.65505111	0.52680200	2.35704803
-0.65614367	0.52659750	2.35704422
-0.65677202	0.52629930	2.35704184
-0.65883684	0.52569747	2.35703468
-0.65937936	0.52542561	2.35703254
-0.66096860	0.52421492	2.35702586
-0.66155589	0.52401477	2.35702372
-0.66168660	0.52340323	2.35702229
-0.66250592	0.52324998	2.35701942
-0.66320515	0.52290368	2.35701680
-0.66546822	0.52212924	2.35700870
-0.66569614	0.52134353	2.35700679
-0.66690785	0.52067554	2.35700202
-0.66762966	0.52003360	2.35699868
-0.66864312	0.51953816	2.35699487
-0.66875112	0.51855958	2.35699272
-0.66939062	0.51811337	2.35699010
-0.67013496	0.51783872	2.35698748
-0.67072958	0.51732111	2.35698462
-0.67146289	0.51719415	2.35698223
-0.67221463	0.51660198	2.35697889
-0.67708874	0.51512337	2.35696197
-0.67734224	0.51355511	2.35695839
-0.67919362	0.51244104	2.35695100
-0.67932403	0.51182973	2.35694957
-0.67999363	0.51143348	2.35694695
-0.68073797	0.51115876	2.35694408
-0.68179667	0.51073480	2.35694027
-0.68343145	0.51025862	2.35693455
-0.68547368	0.50928944	2.35692668
-0.68675297	0.50906032	2.35692263
-0.68666267	0.50825429	2.35692143
-0.68946475	0.50769490	2.35691214
-0.69037336	0.50702834	2.35690808
-0.69202673	0.50608671	2.35690165
-0.69409150	0.50548488	2.35689449
-0.69543040	0.50469249	2.35688901
-0.69653749	0.50385320	2.35688424
-0.69854575	0.50266474	2.35687613
-0.69912493	0.50146246	2.35687232
-0.69963741	0.50114071	2.35687041
-0.70184398	0.49977967	2.35686135
-0.70225894	0.49896926	2.35685873
-0.70277119	0.49864772	2.35685658
-0.70340693	0.49803197	2.35685372
-0.70403540	0.49773383	2.35685134
-0.70560628	0.49698827	2.35684538
-0.70734155	0.49585092	2.35683823
-0.87805855	0.46672329	2.35627794
-0.87894160	0.46683925	2.35627532
-0.87937313	0.46869597	2.35627723
-0.88099325	0.46885458	2.35627270
-0.88253546	0.47004172	2.35627031
-0.88530397	0.46992606	2.35626173
-0.88617653	0.47084624	2.35626078
-0.88700736	0.47120804	2.35625887
-0.88839239	0.47246969	2.35625696
-0.88985163	0.47253320	2.35625267
-0.89317846	0.47348690	2.35624433
-0.89390433	0.47367752	2.35624242
-0.89518750	0.47361800	2.35623860
-0.89535284	0.47454539	2.35623980
-0.89945692	0.47412431	2.35622668
-0.90037400	0.47445956	2.35622454
-0.90207618	0.47442222	2.35621953
-0.90243560	0.47501415	2.35621929
-0.90264904	0.47552648	2.35621953
-0.90492749	0.47543666	2.35621262
-0.90521622	0.47607011	2.35621285
-0.90717304	0.47644702	2.35620761
-0.90782428	0.47651592	2.35620594
-0.90902954	0.47681531	2.35620284
-0.90997207	0.47703767	2.35620046
-0.91042197	0.47775945	2.35620022
-0.91220665	0.47819579	2.35619569
-0.91479182	0.47827429	2.35618806
-0.91553324	0.47847983	2.35618615
-0.91683620	0.47993740	2.35618496
-0.92166609	0.47970688	2.35616994
-0.92341316	0.47975415	2.35616493
-0.92457330	0.47998843	2.35616183
-0.92467493	0.48130974	2.35616374
-0.92854714	0.48084170	2.35615134
-0.92915720	0.48100871	2.35614991
-0.93027234	0.48117158	2.35614681
-0.93048567	0.48168373	2.35614705
-0.93187404	0.48179534	2.35614324
-0.93274635	0.48204604	2.35614109
-0.93340075	0.48229781	2.35613942
-0.93538433	0.48254171	2.35613394
-0.93571782	0.48324686	2.35613418
-0.93788838	0.48413575	2.35612917
-0.94086671	0.48436263	2.35612082
-0.94129729	0.48489344	2.35612035
-0.94158602	0.48552692	2.35612059
-0.94266725	0.48547032	2.35611725
-0.94363236	0.48539031	2.35611415
-0.94423497	0.48587486	2.35611320
-0.94567913	0.48591673	2.35610914
-0.94599384	0.48642412	2.35610890
-0.94713116	0.48629764	2.35610533
-0.94760305	0.48673046	2.35610461
-0.94834381	0.48694921	2.35610294
-0.94855726	0.48746145	2.35610318
-0.94959021	0.48782021	2.35610056
-0.95134902	0.48836944	2.35609627
-0.95360917	0.48874497	2.35609031
-0.95417076	0.48932734	2.35608959
-0.95551801	0.48953703	2.35608602
-0.95600462	0.48999801	2.35608530
-0.95637512	0.49043563	2.35608482
-0.95729935	0.49045363	2.35608220
-0.95845556	0.49051836	2.35607886
-0.96018040	0.49084833	2.35607433
-0.96129549	0.49101123	2.35607123
-0.96186459	0.49127609	2.35607004
-0.96250832	0.49166253	2.35606885
-0.96343231	0.49168062	2.35606599
-0.96586072	0.49183372	2.35605907
-0.96626109	0.49232778	2.35605860
-0.96717811	0.49266300	2.35605645
-0.96803123	0.49272257	2.35605407
-0.96866375	0.49326348	2.35605311
-0.96962911	0.49318331	2.35605001
-0.96984255	0.49369568	2.35605025
-0.97156757	0.49402544	2.35604572
-0.97202432	0.49443662	2.35604501
-0.97290730	0.49455258	2.35604262
-0.97368973	0.49532971	2.35604167
-0.97468895	0.49546900	2.35603905
-0.97525072	0.49605149	2.35603833
-0.97624952	0.49619088	2.35603547
-0.97646326	0.49670300	2.35603571
-0.97723031	0.49679548	2.35603356
-0.97763461	0.49745253	2.35603356
-0.97920257	0.49785697	2.35602951
-0.97985375	0.49792591	2.35602784
-0.98233116	0.49898320	2.35602212
-0.98313946	0.49897760	2.35601974
-0.98383158	0.49894878	2.35601759
-0.98519409	0.49984309	2.35601521
-0.98630917	0.50000584	2.35601211
-0.98835564	0.49986932	2.35600567
-0.98995733	0.50049311	2.35600209
-0.99157745	0.50065166	2.35599756
-0.99352342	0.50117630	2.35599256
-0.99516636	0.50170207	2.35598850
-0.99647945	0.50169247	2.35598469
-0.99720526	0.50188297	2.35598278
-0.99800628	0.50219488	2.35598087
-0.99949920	0.50247782	2.35597706
-1.00037503	0.50291121	2.35597515
-1.00101876	0.50329757	2.35597396
-1.00256431	0.50333476	2.35596919
-1.00354481	0.50393939	2.35596752
-1.00415480	0.50410640	2.35596585
-1.00474620	0.50473887	2.35596514
-1.00536752	0.50475794	2.35596347
-1.00593615	0.50502306	2.35596204
-1.00681925	0.50513905	2.35595965
-1.00766134	0.50535291	2.35595751
-1.00844383	0.50613004	2.35595655
-1.01012766	0.50655794	2.35595226
-1.01206195	0.50656742	2.35594654
-1.01229823	0.50744683	2.35594726
-1.01368666	0.50755847	2.35594344
-1.01523173	0.50759566	2.35593891
-1.01615286	0.50876343	2.35593820
-1.01695395	0.50907540	2.35593629
-1.01895189	0.50935411	2.35593081
-1.02000737	0.51008028	2.35592890
-1.02017987	0.51069045	2.35592937
-1.02302003	0.51118302	2.35592175
-1.02548945	0.51123816	2.35591459
-1.02554595	0.51182473	2.35591531
-1.02685916	0.51181519	2.35591149
-1.02989757	0.51213527	2.35590291
-1.03252399	0.51211578	2.35589504
-1.03326535	0.51299101	2.35589433
-1.03589177	0.51297164	2.35588646
-1.03644216	0.51303875	2.35588479
-1.03739607	0.51310670	2.35588217
-1.03776681	0.51354420	2.35588169
-1.03856754	0.51385611	2.35588002
-1.03980970	0.51389450	2.35587621
-1.04079783	0.51418173	2.35587382
-1.04160261	0.51466322	2.35587239
-1.04244459	0.51487708	2.35587025
-1.04308832	0.51526362	2.35586882
-1.04385543	0.51535600	2.35586667
-1.04438305	0.51571912	2.35586572
-1.04541600	0.51607794	2.35586333
-1.04781044	0.51601166	2.35585618
-1.04851079	0.51698470	2.35585570
-1.05070722	0.51709092	2.35584927
-1.05227506	0.51749527	2.35584521
-1.05315435	0.51744169	2.35584259
-1.05480444	0.51765013	2.35583806
-1.05595326	0.51803237	2.35583520
-1.05744624	0.51831537	2.35583138
-1.05899131	0.51835263	2.35582662
-1.06001306	0.51885921	2.35582447
-1.06208622	0.51925945	2.35581899
-1.06281209	0.51944995	2.35581732
-1.06453717	0.51977986	2.35581255
-1.06475079	0.52029186	2.35581279
-1.06706321	0.52042156	2.35580611
-1.06727684	0.52093357	2.35580635
-1.07127285	0.52149123	2.35579538
-1.07180095	0.52185416	2.35579443
-1.07886088	0.52194923	2.35577369
-1.08105731	0.52205539	2.35576725
-1.08880246	0.52243894	2.35574484
-1.09142888	0.52241951	2.35573697
-1.09499490	0.52310264	2.35572743
-1.09846354	0.52329713	2.35571742
-1.09969151	0.52463335	2.35571599
-1.10069072	0.52477264	2.35571337
-1.10468674	0.52533019	2.35570240
-1.10605669	0.52590704	2.35569930
-1.11048305	0.52633899	2.35568666
-1.11071205	0.52753574	2.35568810
-1.11119878	0.52799678	2.35568738
-1.11256862	0.52857381	2.35568428
-1.11345148	0.52868974	2.35568190
-1.11358309	0.52939773	2.35568285
-1.11538279	0.52984905	2.35567808
