//X	Y	Z
0.35311148	0.53626662	4.21665859
0.35481212	0.56231081	4.21665573
0.35577044	0.58860445	4.21665239
0.35561964	0.58952779	4.21665239
0.35228965	0.60176086	4.21665096
0.34177428	0.62605113	4.21664810
0.28934869	0.74601376	4.21663475
0.28641587	0.74962950	4.21663427
0.28440559	0.75206602	4.21663380
0.27659944	0.75848508	4.21663332
0.26750338	0.76475239	4.21663284
0.26471025	0.76627553	4.21663237
0.14817837	0.81939447	4.21662760
0.08590296	0.84730846	4.21662474
0.07457259	0.85169858	4.21662426
0.07377130	0.85196114	4.21662426
0.06623007	0.85391510	4.21662426
0.06355828	0.85452151	4.21662426
0.04304751	0.85877240	4.21662378
0.03101154	0.86105937	4.21662378
0.02973618	0.86118710	4.21662378
0.00829939	0.86253607	4.21662378
0.00050082	0.86163867	4.21662378
-0.13139032	0.84388322	4.21662712
-0.13365792	0.84346819	4.21662712
-0.14492187	0.84052843	4.21662760
-0.14782536	0.83973235	4.21662807
-0.14951563	0.83914632	4.21662807
-0.15243374	0.83807075	4.21662807
-0.15625568	0.83643252	4.21662855
-0.15727736	0.83589649	4.21662855
-0.16000064	0.83417058	4.21662855
-0.18018739	0.81959593	4.21663046
-0.22873025	0.77973247	4.21663570
-0.25946406	0.75114381	4.21663952
-0.26110324	0.74905050	4.21663952
-0.27270111	0.73394150	4.21664143
-0.27947760	0.72363836	4.21664286
-0.28016865	0.72181463	4.21664286
-0.28025660	0.72126919	4.21664333
-0.28050295	0.71958715	4.21664333
-0.28047311	0.70963877	4.21664429
-0.28024885	0.70898163	4.21664476
-0.27980790	0.70560795	4.21664476
-0.27868691	0.70288837	4.21664524
-0.27835974	0.70249087	4.21664524
-0.27810258	0.70093697	4.21664572
-0.27789289	0.70000052	4.21664572
-0.27704403	0.69912088	4.21664572
-0.27571705	0.69194949	4.21664667
-0.27307823	0.69223982	4.21664667
-0.27178451	0.69093585	4.21664667
-0.27066350	0.68821627	4.21664715
-0.26975197	0.68586743	4.21664715
-0.22902255	0.51982099	4.21666622
-0.22929832	0.51814562	4.21666670
-0.23004790	0.51576978	4.21666670
-0.23058054	0.51508278	4.21666670
-0.23053305	0.51446527	4.21666718
-0.23087093	0.51312780	4.21666718
-0.23185578	0.51023942	4.21666765
-0.23260532	0.50786370	4.21666765
-0.23373710	0.50444293	4.21666813
-0.23383646	0.50329334	4.21666813
-0.23434727	0.50053972	4.21666861
-0.23504174	0.49960637	4.21666861
-0.23643072	0.49773949	4.21666908
-0.23655930	0.49603081	4.21666908
-0.23845217	0.49460110	4.21666956
-0.23906936	0.49247825	4.21666956
-0.23891506	0.49066484	4.21667004
-0.23962058	0.48856190	4.21667004
-0.24000281	0.48751700	4.21667004
-0.24064946	0.48540077	4.21667051
-0.24153136	0.48277202	4.21667099
-0.24152757	0.48131627	4.21667099
-0.24190974	0.48027158	4.21667099
-0.24244994	0.47752467	4.21667147
-0.24297908	0.47594750	4.21667147
-0.24298625	0.47332239	4.21667194
-0.24376532	0.47095305	4.21667242
-0.24450417	0.47031224	4.21667242
-0.24517636	0.46674719	4.21667290
-0.24563205	0.46543604	4.21667290
-0.24559523	0.46308374	4.21667290
-0.24596292	0.46231815	4.21667337
-0.24607657	0.46032351	4.21667337
-0.24657270	0.45784968	4.21667385
-0.24688144	0.45707101	4.21667385
-0.24811617	0.45339069	4.21667433
-0.24828868	0.45140940	4.21667433
-0.24870756	0.44774601	4.21667480
-0.24920376	0.44527194	4.21667528
-0.24953057	0.44510400	4.21667528
-0.24961509	0.44366819	4.21667528
-0.24999730	0.44262329	4.21667576
-0.25030610	0.44184452	4.21667576
-0.25089419	0.44028053	4.21667576
-0.25108507	0.43947542	4.21667576
-0.25140488	0.43752712	4.21667624
-0.25171334	0.43618289	4.21667624
-0.25178325	0.43502665	4.21667671
-0.25204417	0.43306512	4.21667671
-0.25237852	0.43083748	4.21667719
-0.25278986	0.42923379	4.21667719
-0.25298449	0.42491326	4.21667767
-0.25409061	0.42294165	4.21667814
-0.25289214	0.40468550	4.21668005
-0.25298011	0.40414000	4.21668005
-0.25293228	0.40295708	4.21668005
-0.25306448	0.39773321	4.21668100
-0.25306094	0.39684325	4.21668100
-0.25338778	0.39667523	4.21668100
-0.25336584	0.39460894	4.21668148
-0.25352731	0.39379722	4.21668148
-0.25362292	0.39119187	4.21668148
-0.25400513	0.39014694	4.21668196
-0.25471064	0.38804403	4.21668196
-0.25486863	0.38634202	4.21668243
-0.25514796	0.38555664	4.21668243
-0.25530943	0.38474488	4.21668243
-0.25531694	0.38268527	4.21668291
-0.25555190	0.38160726	4.21668291
-0.25559241	0.38044441	4.21668291
-0.25563291	0.37928143	4.21668291
-0.25604808	0.37913322	4.21668291
-0.25649995	0.37636653	4.21668339
-0.25608820	0.36802870	4.21668434
-0.25612837	0.36630023	4.21668482
-0.25777107	0.36509681	4.21668482
-0.25766078	0.36301088	4.21668482
-0.25741792	0.35620683	4.21668577
-0.25763479	0.35451812	4.21668625
-0.25784063	0.35399902	4.21668625
-0.25757602	0.35009965	4.21668673
-0.25542533	0.33506298	4.21668816
-0.25226799	0.31644309	4.21669054
-0.25162080	0.31302315	4.21669102
-0.24918410	0.30693340	4.21669149
-0.24706355	0.30241072	4.21669197
-0.24161312	0.29503086	4.21669292
-0.23388757	0.28572068	4.21669388
-0.22994405	0.28147143	4.21669436
-0.16188650	0.22003588	4.21670103
-0.10880220	0.18087116	4.21670485
-0.07756420	0.18529937	4.21670389
-0.06981350	0.18737969	4.21670389
-0.05936535	0.19030273	4.21670341
-0.05749842	0.19084880	4.21670341
-0.05453629	0.19219738	4.21670294
-0.05220261	0.19522417	4.21670294
-0.05068117	0.19734427	4.21670246
-0.04931063	0.20038715	4.21670198
-0.04689960	0.20222464	4.21670198
-0.04660956	0.20474511	4.21670151
-0.04367694	0.20610002	4.21670151
-0.04210766	0.20703721	4.21670103
-0.04249725	0.20833808	4.21670103
-0.04045392	0.20941001	4.21670103
-0.03901703	0.21009427	4.21670103
-0.03773062	0.21113613	4.21670055
-0.03816811	0.21361965	4.21670055
-0.03735960	0.21598232	4.21670008
-0.03680103	0.21755281	4.21670008
-0.03497835	0.21839198	4.21669960
-0.03336511	0.21960184	4.21669960
-0.03225896	0.22157344	4.21669960
-0.03220387	0.22301590	4.21669912
-0.03073752	0.22369358	4.21669912
-0.02770196	0.22530809	4.21669912
-0.02688247	0.22884020	4.21669865
-0.02313748	0.23110229	4.21669817
-0.02087372	0.23297286	4.21669817
-0.02013522	0.23417908	4.21669769
-0.01923839	0.23652187	4.21669769
-0.01882703	0.23812559	4.21669722
-0.01920556	0.24059609	4.21669722
-0.01878292	0.24280366	4.21669674
-0.01782012	0.24335304	4.21669674
-0.01368584	0.24487981	4.21669626
-0.01368939	0.24576986	4.21669626
-0.01194371	0.24723285	4.21669626
-0.00734275	0.25124013	4.21669579
-0.00525541	0.25258490	4.21669531
-0.00364210	0.25379494	4.21669531
0.00454973	0.25690684	4.21669483
0.00469662	0.25743902	4.21669483
0.00671055	0.25851771	4.21669483
0.00909567	0.25947186	4.21669436
0.00971319	0.26102927	4.21669436
0.01132642	0.26223904	4.21669436
0.01510435	0.26360428	4.21669388
0.01751506	0.26600733	4.21669388
0.01915780	0.26721069	4.21669340
0.02465195	0.27004555	4.21669340
0.19263941	0.29908812	4.21668816
0.19986480	0.29813549	4.21668816
0.20340030	0.29636323	4.21668816
0.20835033	0.29790664	4.21668816
0.22374885	0.30180767	4.21668768
0.22564529	0.30234736	4.21668720
0.23589511	0.30681080	4.21668673
0.25495714	0.32058960	4.21668482
0.25698215	0.32283789	4.21668482
0.29291177	0.36956462	4.21667862
0.30404693	0.38514292	4.21667671
0.30819589	0.39135441	4.21667624
0.32834145	0.42905477	4.21667147
0.33775622	0.45456067	4.21666861
0.34490341	0.47965175	4.21666527
0.34869507	0.50117975	4.21666288
0.35146937	0.52015084	4.21666050
