//X	Y	Z
-0.41057223	-0.36690253	5.05782604
-0.40793049	-0.32450500	5.05782509
-0.40776622	-0.32124785	5.05782461
-0.40832970	-0.31062829	5.05782461
-0.41931912	-0.14138255	5.05781937
-0.41803235	-0.13412049	5.05781937
-0.41775101	-0.13182536	5.05781937
-0.41735274	-0.13049223	5.05781937
-0.41696101	-0.12430052	5.05781889
-0.41623697	-0.12162849	5.05781889
-0.41935304	-0.08403465	5.05781794
-0.42181852	-0.07443532	5.05781746
-0.47760224	0.01941636	5.05781507
-0.54992032	0.09171817	5.05781317
-0.64912480	0.17134798	5.05781126
-0.65645790	0.17705563	5.05781126
-0.66525030	0.18211988	5.05781126
-0.66731846	0.18285948	5.05781126
-0.73674417	0.20459819	5.05781078
-0.74746680	0.20769152	5.05781078
-0.90725607	0.24975768	5.05781031
-0.96998572	0.26622123	5.05781031
-0.97529793	0.26696995	5.05781031
-0.98911035	0.26774311	5.05781031
-1.00515962	0.26847494	5.05781031
-1.02799964	0.26604390	5.05781031
-1.05565083	0.26162222	5.05781078
-1.10553598	0.24821047	5.05781126
-1.17886603	0.22371638	5.05781221
-1.19683015	0.21530096	5.05781269
-1.20274925	0.21241565	5.05781269
-1.23083961	0.19758333	5.05781317
-1.23816431	0.19341497	5.05781364
-1.24622941	0.18848225	5.05781364
-1.26877308	0.17361139	5.05781412
-1.28208530	0.16408761	5.05781460
-1.28686631	0.16066539	5.05781460
-1.28922510	0.15879333	5.05781460
-1.31542373	0.13447112	5.05781555
-1.33332551	0.11554024	5.05781603
-1.33834314	0.10886699	5.05781651
-1.33933461	0.10437506	5.05781651
-1.34107804	0.09626089	5.05781698
-1.37441468	0.01574531	5.05781937
-1.37514818	0.01275674	5.05781937
-1.37594008	0.01024897	5.05781937
-1.37694991	0.00512365	5.05781984
-1.37804902	0.00191075	5.05781984
-1.37795544	0.00015645	5.05781984
-1.37835371	-0.00117666	5.05781984
-1.37810564	-0.00262544	5.05781984
-1.37896550	-0.00496890	5.05781984
-1.37922800	-0.00663026	5.05781984
-1.38253844	-0.01410925	5.05782032
-1.38415742	-0.01785131	5.05782032
-1.38393271	-0.02009232	5.05782032
-1.38364494	-0.02265573	5.05782032
-1.38341093	-0.02457984	5.05782080
-1.38338041	-0.02601175	5.05782080
-1.38705635	-0.03371431	5.05782080
-1.39294374	-0.04568337	5.05782127
-1.39456737	-0.04958388	5.05782127
-1.47127390	-0.20094164	5.05782604
-1.47602844	-0.26704568	5.05782795
-1.47575593	-0.28291231	5.05782843
-1.47540987	-0.28595689	5.05782843
-1.47384095	-0.29160929	5.05782890
-1.47242415	-0.29502675	5.05782890
-1.45584190	-0.33034933	5.05782986
-1.43817997	-0.36572760	5.05783081
-1.43693411	-0.36754334	5.05783081
-1.43469489	-0.36988464	5.05783081
-1.43357563	-0.37105531	5.05783081
-1.43226182	-0.37303504	5.05783081
-1.42884946	-0.37718660	5.05783129
-1.42518425	-0.38262811	5.05783129
-1.42335987	-0.38439557	5.05783129
-1.41944158	-0.38849267	5.05783129
-1.41879988	-0.38876677	5.05783129
-1.41773427	-0.38929775	5.05783129
-1.41724694	-0.38987744	5.05783129
-1.41435206	-0.39201742	5.05783129
-1.41266358	-0.39345664	5.05783129
-1.40353703	-0.40705791	5.05783176
-1.40235424	-0.40855128	5.05783176
-1.40123475	-0.40972191	5.05783176
-1.39824629	-0.41361594	5.05783224
-1.39599335	-0.41548187	5.05783224
-1.39542413	-0.41575044	5.05783224
-1.39267445	-0.41787913	5.05783224
-1.39203286	-0.41815320	5.05783224
-1.38934624	-0.41995916	5.05783224
-1.38885450	-0.42038035	5.05783224
-1.38765299	-0.42123991	5.05783224
-1.38716578	-0.42181963	5.05783224
-1.38540924	-0.42342275	5.05783224
-1.38421726	-0.42459893	5.05783224
-1.38309765	-0.42576954	5.05783224
-1.38246536	-0.42636055	5.05783224
-1.38121951	-0.42817634	5.05783224
-1.38017714	-0.42949995	5.05783224
-1.37836683	-0.43174243	5.05783272
-1.37712097	-0.43355823	5.05783272
-1.37430811	-0.43600929	5.05783272
-1.37200582	-0.43867332	5.05783272
-1.37006450	-0.44140252	5.05783272
-1.36833596	-0.44395643	5.05783272
-1.35693109	-0.46364862	5.05783319
-1.35574841	-0.46514171	5.05783319
-1.35396147	-0.46817678	5.05783367
-1.35079288	-0.47335556	5.05783367
-1.35023320	-0.47394109	5.05783367
-1.34610653	-0.47837225	5.05783367
-1.34443200	-0.48028648	5.05783367
-1.26305735	-0.63229281	5.05783796
-1.25809252	-0.64018977	5.05783796
-1.25690985	-0.64168280	5.05783796
-1.25579500	-0.64301193	5.05783796
-1.24999368	-0.64935762	5.05783844
-1.24760020	-0.65139306	5.05783844
-1.14441419	-0.71004009	5.05783939
-1.14228272	-0.71110237	5.05783939
-1.14171350	-0.71137094	5.05783939
-1.13751876	-0.71333134	5.05783987
-1.13687706	-0.71360540	5.05783987
-1.12624574	-0.71732676	5.05783987
-0.98526806	-0.76465976	5.05784035
-0.95302957	-0.77385157	5.05784035
-0.92462063	-0.78085887	5.05784082
-0.91724491	-0.78250581	5.05784082
-0.91365421	-0.78292453	5.05784082
-0.79935455	-0.77738118	5.05783987
-0.77451426	-0.77552533	5.05783987
-0.73861343	-0.76993191	5.05783939
-0.72253561	-0.76707834	5.05783939
-0.69953156	-0.76139009	5.05783892
-0.67693877	-0.74731708	5.05783844
-0.66700661	-0.74009061	5.05783844
-0.66465235	-0.73837686	5.05783796
-0.62632895	-0.70319635	5.05783701
-0.58161223	-0.65599257	5.05783558
-0.57854331	-0.65192372	5.05783510
-0.57735497	-0.64306581	5.05783510
-0.57611090	-0.63986427	5.05783510
-0.57404929	-0.63574523	5.05783463
-0.57372344	-0.63440669	5.05783463
-0.57154673	-0.62623250	5.05783463
-0.57118344	-0.62362623	5.05783463
-0.56912172	-0.61950719	5.05783415
-0.56884509	-0.61737055	5.05783415
-0.56852400	-0.61619031	5.05783415
-0.56632203	-0.61224115	5.05783415
-0.56693083	-0.61085790	5.05783415
-0.56058663	-0.59803700	5.05783367
-0.47633138	-0.45231003	5.05782890
-0.47490236	-0.45023477	5.05782890
-0.47205627	-0.44894230	5.05782890
-0.46967876	-0.44643602	5.05782890
-0.46922660	-0.44574255	5.05782890
-0.46738765	-0.44439963	5.05782843
-0.46501940	-0.44221056	5.05782843
-0.46232077	-0.43852413	5.05782843
-0.45978633	-0.43809494	5.05782843
-0.45597282	-0.43573758	5.05782843
-0.45457199	-0.43461308	5.05782843
-0.45311734	-0.43412787	5.05782843
-0.45221776	-0.43289906	5.05782843
-0.44834578	-0.43102288	5.05782795
-0.44660518	-0.42808411	5.05782795
-0.44481078	-0.42578492	5.05782795
-0.44158742	-0.42141083	5.05782795
-0.44068313	-0.42002356	5.05782795
-0.44018185	-0.42012787	5.05782795
-0.43883026	-0.41820529	5.05782795
-0.43789089	-0.41809148	5.05782795
-0.43653452	-0.41601041	5.05782747
-0.43418506	-0.41445518	5.05782747
-0.43271634	-0.41349462	5.05782747
-0.43098974	-0.41103148	5.05782747
-0.42564160	-0.40286055	5.05782747
-0.42184865	-0.39612001	5.05782700
-0.41672039	-0.38554993	5.05782652
-0.41130567	-0.36989120	5.05782604
