//X	Y	Z
-0.98931772	0.23998404	1.92679346
-0.98163044	0.20272827	1.92674434
-0.96753931	0.14644875	1.92666960
-0.96406668	0.13285480	1.92665148
-0.93999201	0.04363346	1.92653263
-0.93921757	0.04171918	1.92653000
-0.91022760	-0.02198599	1.92644298
-0.90490013	-0.03157471	1.92642975
-0.86846256	-0.08572863	1.92635369
-0.86715412	-0.08710414	1.92635167
-0.86644024	-0.08749975	1.92635107
-0.86539906	-0.08823933	1.92634988
-0.86338413	-0.08848034	1.92634916
-0.86226755	-0.08913310	1.92634821
-0.86151493	-0.08896315	1.92634821
-0.86071765	-0.08937466	1.92634761
-0.85954922	-0.08963290	1.92634702
-0.85881239	-0.08925761	1.92634737
-0.85792375	-0.08978778	1.92634654
-0.84883451	-0.09814349	1.92633414
-0.84773374	-0.09859101	1.92633343
-0.84621453	-0.09950097	1.92633200
-0.84542775	-0.09977582	1.92633152
-0.84424621	-0.10020502	1.92633069
-0.84355849	-0.10025859	1.92633057
-0.84314537	-0.10065261	1.92632997
-0.84242356	-0.10115090	1.92632914
-0.84170961	-0.10154659	1.92632854
-0.84053332	-0.10190740	1.92632782
-0.83798611	-0.10338590	1.92632544
-0.83661550	-0.10450359	1.92632377
-0.83511990	-0.10510565	1.92632282
-0.83401132	-0.10565585	1.92632186
-0.83256757	-0.10665251	1.92632031
-0.83107728	-0.10718617	1.92631936
-0.82814085	-0.10875067	1.92631686
-0.82631290	-0.10976499	1.92631519
-0.82416844	-0.11098638	1.92631328
-0.82311422	-0.11189695	1.92631185
-0.82070768	-0.11368576	1.92630911
-0.81859922	-0.11550716	1.92630649
-0.81755292	-0.11631502	1.92630517
-0.81459844	-0.11954671	1.92630053
-0.81190604	-0.12221092	1.92629659
-0.81080002	-0.12272681	1.92629576
-0.80732876	-0.12556311	1.92629147
-0.80571622	-0.12701024	1.92628932
-0.80263400	-0.12833288	1.92628706
-0.69038939	-0.25827584	1.92610002
-0.68914068	-0.25994340	1.92609763
-0.68848383	-0.26066524	1.92609656
-0.68684566	-0.26241881	1.92609406
-0.68585640	-0.26355308	1.92609239
-0.67548954	-0.27395248	1.92607725
-0.67521954	-0.27462265	1.92607629
-0.67443579	-0.27629083	1.92607403
-0.67433524	-0.27689499	1.92607319
-0.67427474	-0.27768177	1.92607224
-0.67399025	-0.27890575	1.92607057
-0.67320788	-0.28019106	1.92606878
-0.67240840	-0.28206438	1.92606628
-0.67198068	-0.28301245	1.92606497
-0.67230964	-0.28371316	1.92606413
-0.67112857	-0.28557003	1.92606151
-0.67092353	-0.28646368	1.92606032
-0.67103511	-0.28715035	1.92605948
-0.67017061	-0.28880024	1.92605722
-0.66885424	-0.29027829	1.92605507
-0.66451716	-0.29514739	1.92604804
-0.66386032	-0.29586938	1.92604697
-0.66352797	-0.29628164	1.92604637
-0.66208088	-0.29839140	1.92604339
-0.66167426	-0.29906565	1.92604244
-0.66155136	-0.29959467	1.92604172
-0.66069996	-0.30107349	1.92603970
-0.66074395	-0.30157071	1.92603910
-0.66032332	-0.30349493	1.92603660
-0.64811331	-0.31654173	1.92601764
-0.64659727	-0.31884503	1.92601442
-0.64567304	-0.32020274	1.92601240
-0.64513564	-0.32150877	1.92601073
-0.64421672	-0.32279813	1.92600882
-0.64405560	-0.32418913	1.92600703
-0.64163113	-0.32764500	1.92600214
-0.64107794	-0.32915634	1.92600012
-0.64089918	-0.32970783	1.92599940
-0.63892603	-0.33190793	1.92599618
-0.63832104	-0.33302438	1.92599463
-0.63782763	-0.33482763	1.92599225
-0.63696569	-0.33644331	1.92598999
-0.63604152	-0.33780125	1.92598808
-0.63216811	-0.34232211	1.92598164
-0.63085437	-0.34376603	1.92597950
-0.62920302	-0.34569064	1.92597675
-0.62768173	-0.34806240	1.92597342
-0.62676275	-0.34935176	1.92597163
-0.62478954	-0.35155183	1.92596841
-0.62117296	-0.35557380	1.92596269
-0.62057847	-0.35655349	1.92596126
-0.61361527	-0.36392742	1.92595053
-0.59839296	-0.37451780	1.92593420
-0.58815551	-0.38000292	1.92592525
-0.57747138	-0.38524780	1.92591667
-0.57169431	-0.38676214	1.92591369
-0.54499507	-0.39364484	1.92589998
-0.54421878	-0.39378285	1.92589962
-0.52111351	-0.39336610	1.92589605
-0.51442266	-0.39216745	1.92589629
-0.48733112	-0.38412997	1.92590177
-0.47877273	-0.38052487	1.92590487
-0.46399274	-0.37279806	1.92591202
-0.46214411	-0.37157959	1.92591333
-0.45963818	-0.36965543	1.92591536
-0.45437467	-0.36623788	1.92591870
-0.45201981	-0.36448717	1.92592061
-0.45137566	-0.36361051	1.92592156
-0.45110649	-0.36320165	1.92592204
-0.44560328	-0.35969484	1.92592549
-0.44492695	-0.35853273	1.92592692
-0.41962677	-0.34247619	1.92594290
-0.41154337	-0.33730716	1.92594814
-0.37789333	-0.31521854	1.92597032
-0.37144253	-0.31087106	1.92597473
-0.34743166	-0.29402566	1.92599201
-0.34332609	-0.29048657	1.92599583
-0.34314951	-0.28957647	1.92599702
-0.33982331	-0.28729290	1.92599928
-0.33969599	-0.28681156	1.92599988
-0.33822107	-0.28571221	1.92600107
-0.33722422	-0.28444269	1.92600250
-0.33612034	-0.28349686	1.92600346
-0.33569223	-0.28301710	1.92600405
-0.33503750	-0.28227729	1.92600489
-0.33417594	-0.28138644	1.92600584
-0.33351338	-0.28074923	1.92600656
-0.32961455	-0.27809286	1.92600930
-0.31301525	-0.26626480	1.92602146
-0.17473026	-0.17513511	1.92611337
-0.16703689	-0.17057589	1.92611778
-0.16623372	-0.17036000	1.92611790
-0.16500828	-0.17029208	1.92611778
-0.16448352	-0.16999927	1.92611802
-0.16334018	-0.16956657	1.92611837
-0.16190919	-0.16896459	1.92611897
-0.16056947	-0.16824406	1.92611957
-0.16008870	-0.16844866	1.92611921
-0.15917979	-0.16817370	1.92611945
-0.15835169	-0.16791698	1.92611957
-0.15700409	-0.16729921	1.92612016
-0.15365943	-0.16525516	1.92612219
-0.14765978	-0.16142642	1.92612600
-0.14684215	-0.16103286	1.92612636
-0.14622615	-0.16085866	1.92612648
-0.14557198	-0.16081470	1.92612648
-0.14449963	-0.16019011	1.92612708
-0.14370760	-0.15980160	1.92612743
-0.14337786	-0.16017970	1.92612684
-0.14236517	-0.16057873	1.92612612
-0.14181936	-0.16055954	1.92612612
-0.14112125	-0.16075012	1.92612565
-0.13976049	-0.16030321	1.92612600
-0.13903333	-0.16086993	1.92612517
-0.13812709	-0.16056073	1.92612541
-0.13602690	-0.15977296	1.92612600
-0.12637065	-0.15365446	1.92613208
-0.12568033	-0.15374222	1.92613184
-0.12425731	-0.15303764	1.92613256
-0.12267658	-0.15261093	1.92613280
-0.12093557	-0.15176460	1.92613363
-0.11947244	-0.15087721	1.92613447
-0.11856350	-0.15060225	1.92613459
-0.11721329	-0.15001851	1.92613518
-0.11643048	-0.14987612	1.92613518
-0.11481043	-0.14891949	1.92613614
-0.11383127	-0.14848930	1.92613649
-0.11181647	-0.14726681	1.92613769
-0.11000119	-0.14668250	1.92613816
-0.10955726	-0.14640808	1.92613840
-0.10731203	-0.14503115	1.92613971
-0.10601032	-0.14522356	1.92613924
-0.10325531	-0.14442748	1.92613983
-0.10087676	-0.14298490	1.92614126
-0.09946676	-0.14210907	1.92614210
-0.09855524	-0.14186835	1.92614222
-0.09248786	-0.13858202	1.92614532
-0.09196442	-0.13863787	1.92614520
-0.08778387	-0.13643980	1.92614722
-0.08231355	-0.13213965	1.92615175
-0.06618275	-0.11275852	1.92617369
-0.04400643	-0.08407280	1.92620647
-0.03315190	-0.06504741	1.92622900
-0.03087155	-0.06052846	1.92623436
-0.00947585	-0.01196593	1.92629278
-0.00914567	-0.01091650	1.92629409
-0.00861812	-0.00672382	1.92629933
-0.00857687	-0.00619251	1.92630005
-0.00840509	-0.00378624	1.92630303
-0.00880196	-0.00216973	1.92630517
-0.00930328	-0.00026402	1.92630780
-0.00948157	0.00171518	1.92631030
-0.00956708	0.00319302	1.92631221
-0.00996166	0.00728145	1.92631757
-0.01133940	0.02246329	1.92633724
-0.01162265	0.02330431	1.92633843
-0.01187920	0.02773762	1.92634416
-0.01207116	0.02846029	1.92634511
-0.01231515	0.03129467	1.92634881
-0.01248894	0.03428417	1.92635262
-0.01263684	0.03550418	1.92635429
-0.01285971	0.03806505	1.92635763
-0.01322536	0.04177719	1.92636240
-0.01344835	0.04433808	1.92636573
-0.01386942	0.04483445	1.92636645
-0.01399100	0.04571240	1.92636764
-0.01407663	0.04719003	1.92636955
-0.01422186	0.04837577	1.92637110
-0.01471220	0.05157235	1.92637527
-0.01479771	0.05305018	1.92637718
-0.01533251	0.05432178	1.92637885
-0.01595283	0.05707124	1.92638254
-0.01714504	0.05794898	1.92638385
-0.01722996	0.06054260	1.92638719
-0.01770698	0.06137331	1.92638838
-0.01783939	0.06489436	1.92639291
-0.01795873	0.06824440	1.92639720
-0.01823923	0.06905138	1.92639828
-0.01867076	0.06968480	1.92639923
-0.01870640	0.07051249	1.92640030
-0.01896529	0.07247350	1.92640281
-0.01939690	0.07310684	1.92640376
-0.01961513	0.07417166	1.92640519
-0.01965065	0.07499935	1.92640626
-0.02025826	0.07615016	1.92640781
-0.02081196	0.07623377	1.92640805
-0.02108462	0.07693796	1.92640901
-0.02111227	0.07766311	1.92640984
-0.02156959	0.07975471	1.92641270
-0.02221310	0.08423974	1.92641854
-0.02281289	0.08528782	1.92641997
-0.02291636	0.08843257	1.92642403
-0.02294220	0.09020223	1.92642629
-0.02327374	0.09991044	1.92643881
-0.02329693	0.10164586	1.92644107
-0.02364200	0.10365687	1.92644370
-0.02366519	0.10539247	1.92644596
-0.02375076	0.10687010	1.92644787
-0.02383368	0.10831369	1.92644978
-0.02439161	0.11132091	1.92645371
-0.02537827	0.11242078	1.92645526
-0.02595545	0.13822745	1.92648852
-0.02551936	0.29144216	1.92668498
-0.02536600	0.29408774	1.92668843
-0.02474028	0.29520416	1.92668974
-0.02390280	0.33149657	1.92673612
-0.02696440	0.37728226	1.92679536
-0.03040114	0.39749658	1.92682195
-0.03611812	0.41827750	1.92684972
-0.04939957	0.46467870	1.92691159
-0.05115703	0.46978229	1.92691851
-0.05329084	0.47553253	1.92692626
-0.07848831	0.53647339	1.92700899
-0.09316544	0.56289053	1.92704558
-0.11342283	0.58745182	1.92708075
-0.21884935	0.71514082	1.92726374
-0.22643736	0.72425348	1.92727673
-0.22998628	0.72846502	1.92728281
-0.23623815	0.73547739	1.92729294
-0.25348699	0.75469649	1.92732072
-0.25820559	0.75881755	1.92732692
-0.27352634	0.76855004	1.92734218
-0.29179406	0.77998430	1.92736018
-0.32121822	0.79290402	1.92738199
-0.37442046	0.80082822	1.92740178
-0.38043964	0.80082428	1.92740285
-0.43440002	0.79622161	1.92740679
-0.49190971	0.77643573	1.92739177
-0.49758381	0.77410930	1.92738986
-0.54570836	0.75390255	1.92737257
-0.61216730	0.72133732	1.92734289
-0.65681261	0.69175100	1.92731297
-0.75863624	0.61982518	1.92723918
-0.82276911	0.57183999	1.92718923
-0.82319981	0.57139462	1.92718863
-0.90235603	0.46016759	1.92706025
-0.93479776	0.39765668	1.92698598
-0.96860850	0.32080442	1.92689347
-0.99056339	0.26877144	1.92683065
-0.99069399	0.26296258	1.92682326
-0.98975372	0.24354091	1.92679811
