//X	Y	Z
-0.63920742	-0.54760891	3.46702337
-0.57635170	-0.57357419	3.46702147
-0.56461120	-0.57740992	3.46702123
-0.55145240	-0.58110368	3.46702075
-0.54013139	-0.58370292	3.46702051
-0.50525713	-0.58658791	3.46701980
-0.49064317	-0.58726567	3.46701932
-0.47990322	-0.58592761	3.46701908
-0.41225311	-0.57203895	3.46701765
-0.40201360	-0.56943530	3.46701765
-0.36004806	-0.55422378	3.46701670
-0.30008900	-0.52719283	3.46701574
-0.28588045	-0.52016819	3.46701550
-0.24729764	-0.49679160	3.46701479
-0.24389450	-0.49443901	3.46701479
-0.22346051	-0.47877169	3.46701455
-0.22163059	-0.47736555	3.46701455
-0.20903228	-0.46760875	3.46701431
-0.20185119	-0.46123701	3.46701431
-0.17963871	-0.44103178	3.46701407
-0.16740853	-0.42725131	3.46701384
-0.15950006	-0.41723114	3.46701384
-0.14839521	-0.40189740	3.46701384
-0.14266255	-0.39285162	3.46701384
-0.13343155	-0.37665460	3.46701384
-0.12014502	-0.34974197	3.46701384
-0.11882201	-0.34684134	3.46701384
-0.11684531	-0.34213024	3.46701384
-0.11223796	-0.32989302	3.46701384
-0.11178222	-0.32825568	3.46701384
-0.10697015	-0.30915070	3.46701407
-0.10347293	-0.29380876	3.46701407
-0.10287051	-0.29050460	3.46701431
-0.10162164	-0.28352296	3.46701431
-0.10092460	-0.27806291	3.46701431
-0.09989657	-0.26866710	3.46701431
-0.09932396	-0.26254675	3.46701455
-0.09886183	-0.25521928	3.46701455
-0.09940079	-0.23780358	3.46701479
-0.10103591	-0.21837449	3.46701503
-0.10497279	-0.19106880	3.46701550
-0.10779721	-0.17997292	3.46701574
-0.10835603	-0.17798933	3.46701574
-0.11289388	-0.16217846	3.46701622
-0.11359964	-0.16022351	3.46701622
-0.11749035	-0.14993045	3.46701646
-0.12136562	-0.14136221	3.46701670
-0.12531385	-0.13362737	3.46701670
-0.13169622	-0.12241215	3.46701717
-0.13597523	-0.11597037	3.46701717
-0.13807860	-0.11283515	3.46701741
-0.14069620	-0.10898106	3.46701741
-0.14278442	-0.10593253	3.46701765
-0.14651942	-0.10138758	3.46701765
-0.15719476	-0.08855826	3.46701813
-0.16401777	-0.08070533	3.46701837
-0.18106024	-0.06430471	3.46701908
-0.18441981	-0.06136958	3.46701908
-0.19535929	-0.05305196	3.46701956
-0.19738120	-0.05158385	3.46701956
-0.20795313	-0.04401359	3.46701980
-0.21576084	-0.03863065	3.46702003
-0.22146583	-0.03474485	3.46702027
-0.23107454	-0.02866982	3.46702051
-0.24191119	-0.02233500	3.46702099
-0.25072560	-0.01746821	3.46702123
-0.28163192	-0.00360965	3.46702218
-0.29709196	0.00304624	3.46702266
-0.30076036	0.00437259	3.46702266
-0.31414005	0.00884238	3.46702313
-0.32524076	0.01230372	3.46702337
-0.33144519	0.01417887	3.46702361
-0.33670112	0.01565009	3.46702361
-0.34234703	0.01717975	3.46702385
-0.34365582	0.01746866	3.46702385
-0.34672880	0.01804718	3.46702385
-0.36335707	0.02096873	3.46702433
-0.37154666	0.02227144	3.46702456
-0.38200730	0.02372018	3.46702480
-0.39905450	0.02460192	3.46702528
-0.39951047	0.02460268	3.46702528
-0.40538433	0.02449458	3.46702528
-0.41153675	0.02424248	3.46702552
-0.42429069	0.02351014	3.46702576
-0.44138205	0.02238043	3.46702623
-0.44332272	0.02218138	3.46702623
-0.44897562	0.02129722	3.46702623
-0.46101642	0.01938569	3.46702671
-0.47795296	0.01578404	3.46702695
-0.48322350	0.01406571	3.46702695
-0.49171329	0.01125922	3.46702719
-0.49945390	0.00850918	3.46702743
-0.50922298	0.00481347	3.46702743
-0.52856255	-0.00303835	3.46702790
-0.53767711	-0.00719530	3.46702814
-0.54004431	-0.00857166	3.46702814
-0.56163251	-0.02150755	3.46702838
-0.57453984	-0.03123492	3.46702862
-0.57917029	-0.03496583	3.46702862
-0.58624095	-0.04090647	3.46702862
-0.58729231	-0.04179612	3.46702886
-0.59358412	-0.04722013	3.46702886
-0.59594345	-0.04945891	3.46702886
-0.61145920	-0.06438531	3.46702909
-0.62538719	-0.08109470	3.46702909
-0.63502312	-0.09286568	3.46702909
-0.63745594	-0.09593782	3.46702909
-0.64576089	-0.10730875	3.46702933
-0.66362011	-0.13375592	3.46702933
-0.67089641	-0.14492622	3.46702933
-0.67905414	-0.15790662	3.46702933
-0.71089166	-0.21040285	3.46702933
-0.71501470	-0.21726641	3.46702933
-0.72132057	-0.22915623	3.46702933
-0.72683203	-0.24225435	3.46702933
-0.72719932	-0.24314502	3.46702933
-0.73570132	-0.26388425	3.46702933
-0.73873574	-0.27353686	3.46702933
-0.74246144	-0.28560215	3.46702909
-0.74569446	-0.29643241	3.46702909
-0.74711967	-0.30226463	3.46702909
-0.74778801	-0.30562651	3.46702909
-0.74880886	-0.31260854	3.46702886
-0.75114393	-0.32990611	3.46702886
-0.75168741	-0.33556640	3.46702862
-0.75182563	-0.34301001	3.46702862
-0.75209510	-0.36404508	3.46702838
-0.75201267	-0.37226480	3.46702838
-0.75199097	-0.37258044	3.46702814
-0.75006229	-0.39031407	3.46702790
-0.74867898	-0.39796028	3.46702790
-0.74711227	-0.40434200	3.46702766
-0.74297881	-0.41900307	3.46702743
-0.74275821	-0.41977909	3.46702743
-0.73653638	-0.43912685	3.46702695
-0.72621316	-0.45721450	3.46702647
-0.72455847	-0.45957330	3.46702647
-0.71291959	-0.47553602	3.46702600
-0.69742793	-0.49647498	3.46702528
-0.69582522	-0.49834475	3.46702528
-0.68651694	-0.50852895	3.46702504
-0.66429871	-0.53128624	3.46702409
