//X	Y	Z
-0.56229132	-0.86028165	2.26289225
-0.54720819	-0.85143340	2.26244736
-0.54180622	-0.84630197	2.26227379
-0.53621805	-0.84094715	2.26209378
-0.53387946	-0.83860856	2.26201773
-0.53359383	-0.83634168	2.26199412
-0.53365356	-0.83334380	2.26197362
-0.53420007	-0.83223206	2.26197934
-0.53356284	-0.82995838	2.26194668
-0.53336245	-0.82914585	2.26193571
-0.53665882	-0.82738179	2.26200604
-0.53663087	-0.82620347	2.26199675
-0.53656721	-0.82518935	2.26198792
-0.53726411	-0.82446510	2.26200008
-0.53746682	-0.82200396	2.26198721
-0.53835273	-0.81822956	2.26198220
-0.53972512	-0.81634104	2.26200294
-0.53969806	-0.81396979	2.26198506
-0.54089159	-0.81170863	2.26199865
-0.54213482	-0.80987257	2.26201677
-0.54286760	-0.80898434	2.26202869
-0.54370123	-0.80805844	2.26204300
-0.54357368	-0.80603015	2.26202512
-0.54514652	-0.80495435	2.26205683
-0.54605848	-0.80443877	2.26207614
-0.54594481	-0.80299956	2.26206279
-0.54715866	-0.80206597	2.26208663
-0.54674315	-0.80104476	2.26206875
-0.54727566	-0.79934388	2.26206970
-0.54765683	-0.79844850	2.26207280
-0.54698372	-0.79633880	2.26204062
-0.54867184	-0.79462153	2.26207066
-0.54823512	-0.79316050	2.26204896
-0.54954201	-0.79233861	2.26207590
-0.54947829	-0.79132450	2.26206684
-0.54995281	-0.79054087	2.26207328
-0.55004680	-0.78945947	2.26206779
-0.54981768	-0.78866166	2.26205611
-0.55063653	-0.78803444	2.26207209
-0.55059397	-0.78715461	2.26206470
-0.55112553	-0.78664678	2.26207447
-0.55112648	-0.78575915	2.26206803
-0.55109888	-0.78458101	2.26205873
-0.55169487	-0.78389418	2.26206875
-0.55260789	-0.78249097	2.26208162
-0.55317634	-0.78062606	2.26208234
-0.55285478	-0.77852333	2.26205897
-0.55372429	-0.77743357	2.26207280
-0.55311501	-0.77633816	2.26204944
-0.55452269	-0.77547878	2.26207876
-0.55517608	-0.77506775	2.26209235
-0.55613887	-0.77408963	2.26210952
-0.55575204	-0.77305365	2.26209211
-0.55681610	-0.77084482	2.26210284
-0.55934596	-0.76685941	2.26213765
-0.56078976	-0.76583606	2.26216674
-0.56053376	-0.76266694	2.26213717
-0.56440580	-0.75888866	2.26220727
-0.56417775	-0.75689799	2.26218700
-0.56557971	-0.75410718	2.26220202
-0.56861746	-0.75244784	2.26226664
-0.56932259	-0.75038123	2.26226950
-0.57041693	-0.74607694	2.26226568
-0.57061160	-0.74495810	2.26226234
-0.57232928	-0.74233848	2.26228666
-0.57279646	-0.74170411	2.26229382
-0.57248873	-0.74019063	2.26227498
-0.57305646	-0.73951870	2.26228452
-0.57278490	-0.73784125	2.26226544
-0.57321596	-0.73737085	2.26227283
-0.57422853	-0.73681772	2.26229429
-0.57346863	-0.73533469	2.26226449
-0.57339841	-0.73358226	2.26224995
-0.57431018	-0.73306662	2.26226902
-0.57426864	-0.73129922	2.26225519
-0.57392502	-0.72994989	2.26223660
-0.57464403	-0.72847235	2.26224399
-0.57461625	-0.72729421	2.26223493
-0.57552826	-0.72677863	2.26225400
-0.57532144	-0.72522765	2.26223755
-0.57550204	-0.72351956	2.26222968
-0.57601243	-0.72257197	2.26223564
-0.57537520	-0.72029817	2.26220298
-0.57629466	-0.71963340	2.26222134
-0.57684106	-0.71852171	2.26222706
-0.57680577	-0.71749258	2.26221871
-0.57587427	-0.71548766	2.26218057
-0.57574570	-0.71434683	2.26216912
-0.57503664	-0.71240133	2.26213694
-0.57452852	-0.71007526	2.26210713
-0.57370484	-0.70757800	2.26206827
-0.57330412	-0.70595282	2.26204634
-0.57215905	-0.70135313	2.26198387
-0.57287210	-0.69794410	2.26197720
-0.57316828	-0.69559479	2.26196742
-0.57304704	-0.69430470	2.26195502
-0.57602769	-0.69236964	2.26201606
-0.57567841	-0.68908876	2.26198339
-0.57608169	-0.68744034	2.26198149
-0.57577425	-0.68592685	2.26196289
-0.57696748	-0.68366569	2.26197648
-0.57809556	-0.68247128	2.26199627
-0.57839149	-0.68012172	2.26198649
-0.57908279	-0.67746609	2.26198459
-0.57973623	-0.67705506	2.26199818
-0.57934928	-0.67601895	2.26198077
-0.57915628	-0.67505717	2.26196885
-0.57916445	-0.67371494	2.26195931
-0.57985407	-0.67313999	2.26197267
-0.58016318	-0.67257273	2.26197624
-0.58045936	-0.67022330	2.26196671
-0.58115041	-0.66756755	2.26196480
-0.58259422	-0.66654420	2.26199365
-0.58380151	-0.66487223	2.26201200
-0.58387506	-0.66246337	2.26199627
-0.58804089	-0.65960950	2.26208067
-0.59066969	-0.65766728	2.26213288
-0.59127337	-0.65683126	2.26214194
-0.59261012	-0.65510714	2.26216316
-0.59428364	-0.65399379	2.26219726
-0.59536803	-0.65311259	2.26221824
-0.59699810	-0.65200710	2.26225114
-0.59693456	-0.65129846	2.26224446
-0.59807616	-0.65038753	2.26226664
-0.59829301	-0.64851552	2.26225853
-0.60109538	-0.64532018	2.26230597
-0.60204411	-0.64375275	2.26231837
-0.60208827	-0.64224637	2.26230860
-0.60274923	-0.64168626	2.26232123
-0.60354757	-0.63973135	2.26232696
-0.60446697	-0.63906652	2.26234531
-0.60775673	-0.63656420	2.26241016
-0.60924381	-0.63522744	2.26243782
-0.63355690	-0.61853004	2.26292968
-0.63751656	-0.61293215	2.26298881
-0.63732433	-0.61077726	2.26296830
-0.63099223	-0.60125464	2.26273918
-0.62892127	-0.59658134	2.26265287
-0.62849265	-0.59377789	2.26262164
-0.66848105	-0.60026848	2.26367760
-0.66986668	-0.60016227	2.26371193
-0.67890358	-0.59933972	2.26393390
-0.68266624	-0.59813446	2.26401997
-0.69157696	-0.59561771	2.26422644
-0.69423163	-0.58937186	2.26424789
-0.69554603	-0.58840072	2.26427412
-0.69861054	-0.58819652	2.26434994
-0.70115602	-0.56640112	2.26425529
-0.70288754	-0.56437063	2.26428413
-0.70329082	-0.56272209	2.26428246
-0.70606941	-0.52217376	2.26405716
-0.71474230	-0.52108920	2.26426816
-0.71835876	-0.50538623	2.26424503
-0.73238921	-0.49190092	2.26450086
-0.73583031	-0.48859295	2.26456356
-0.74088526	-0.48716977	2.26468062
-0.74163955	-0.48430645	2.26467872
-0.74297619	-0.48258221	2.26469994
-0.74345648	-0.48162055	2.26470518
-0.74452847	-0.47987351	2.26471949
-0.74380058	-0.47451973	2.26466203
-0.74179745	-0.46550620	2.26454592
-0.74016035	-0.45800510	2.26445007
-0.74231482	-0.45684654	2.26449585
-0.74360144	-0.45469719	2.26451278
-0.74603516	-0.45265216	2.26455927
-0.74608660	-0.45099646	2.26454854
-0.74962997	-0.44526497	2.26459599
-0.69531322	-0.28475994	2.26205707
-0.69078255	-0.28582454	2.26195049
-0.68656754	-0.28706023	2.26185322
-0.68369645	-0.28642249	2.26177621
-0.65657598	-0.26028377	2.26090169
-0.65545624	-0.26013610	2.26087236
-0.65445268	-0.25845921	2.26083493
-0.65441751	-0.25773558	2.26082873
-0.65360606	-0.25760287	2.26080728
-0.65278071	-0.25749174	2.26078558
-0.65167600	-0.25735101	2.26075673
-0.65062815	-0.25687510	2.26072693
-0.62162459	-0.25713545	2.25999713
-0.62093568	-0.25651726	2.25997519
-0.61911255	-0.25635538	2.25992799
-0.61779881	-0.25613338	2.25989342
-0.61681581	-0.25578415	2.25986600
-0.61645019	-0.25518787	2.25985241
-0.61340648	-0.25491574	2.25977373
-0.61288291	-0.25408125	2.25975442
-0.60918581	-0.25422007	2.25966215
-0.60748518	-0.25296199	2.25960994
-0.60735679	-0.25212666	2.25960064
-0.60626572	-0.25196415	2.25957203
-0.60517436	-0.25180152	2.25954342
-0.60129082	-0.25171688	2.25944471
-0.60066020	-0.25048694	2.25941992
-0.59928197	-0.25044382	2.25938487
-0.59806150	-0.25033355	2.25935316
-0.59664750	-0.25045466	2.25931835
-0.59633243	-0.24909045	2.25930047
-0.59505475	-0.24900971	2.25926781
-0.59395611	-0.24899639	2.25923991
-0.58884484	-0.24925621	2.25911283
-0.58800554	-0.24825059	2.25908422
-0.58452421	-0.24740498	2.25899029
-0.58327508	-0.24730949	2.25895810
-0.58153790	-0.24740866	2.25891495
-0.58015960	-0.24736552	2.25887990
-0.57030874	-0.24891412	2.25864267
-0.56848556	-0.24875224	2.25859547
-0.56489664	-0.24870433	2.25850463
-0.55600905	-0.25019115	2.25829124
-0.55354118	-0.24790467	2.25821233
-0.55304718	-0.24616778	2.25818729
-0.55058515	-0.24581286	2.25812268
-0.54913306	-0.24122682	2.25805259
-0.54619908	-0.23838183	2.25795794
-0.54552543	-0.23777069	2.25793648
-0.54501623	-0.23602675	2.25791097
-0.54461598	-0.23531801	2.25789571
-0.54389125	-0.23486388	2.25787401
-0.54292989	-0.23345588	2.25783944
-0.54191828	-0.23312145	2.25781155
-0.54082870	-0.23087813	2.25776768
-0.54010409	-0.23042417	2.25774622
-0.53733671	-0.22920796	2.25766754
-0.53666180	-0.22917898	2.25765038
-0.53415644	-0.22913748	2.25758672
-0.53259993	-0.22752859	2.25753570
-0.53122985	-0.22614318	2.25749111
-0.52923465	-0.22515379	2.25743365
-0.52770585	-0.22472310	2.25739193
-0.52707446	-0.22438088	2.25737357
-0.52550238	-0.22426359	2.25733304
-0.52512282	-0.22307825	2.25731468
-0.52347130	-0.22343834	2.25727582
-0.52106726	-0.22216612	2.25720572
-0.51984048	-0.22131756	2.25716877
-0.51885724	-0.22096820	2.25714135
-0.51821834	-0.22077513	2.25712371
-0.51758695	-0.22043294	2.25710535
-0.51592892	-0.22005461	2.25706077
-0.51533353	-0.21954827	2.25704217
-0.51447213	-0.21929583	2.25701857
-0.51352483	-0.21878237	2.25699091
-0.51293671	-0.21812674	2.25697136
-0.51226193	-0.21809781	2.25695395
-0.51122159	-0.21747270	2.25692320
-0.51076257	-0.21676472	2.25690651
-0.50905383	-0.21684898	2.25686407
-0.50741148	-0.21497919	2.25680900
-0.50553000	-0.21542905	2.25676489
-0.50480545	-0.21497507	2.25674319
-0.50438243	-0.21410301	2.25672626
-0.50261748	-0.21302401	2.25667381
-0.50143385	-0.21186204	2.25663543
-0.50034261	-0.21169943	2.25660682
-0.49948856	-0.21129768	2.25658226
-0.49892902	-0.21062726	2.25656343
-0.49820447	-0.21017329	2.25654173
-0.49756652	-0.20909268	2.25651789
-0.49638197	-0.20881830	2.25648594
-0.49551409	-0.20782748	2.25645685
-0.49446625	-0.20735157	2.25642681
-0.49361241	-0.20694995	2.25640249
-0.49306020	-0.20613025	2.25638247
-0.49233562	-0.20567629	2.25636101
-0.49130994	-0.20475259	2.25632834
-0.49030456	-0.20485102	2.25630379
-0.48974502	-0.20418058	2.25628471
-0.48889101	-0.20377883	2.25626016
-0.48780721	-0.20346704	2.25623059
-0.48699668	-0.20275207	2.25620508
-0.48522419	-0.20182221	2.25615358
-0.48454934	-0.20179325	2.25613618
-0.48216665	-0.20096095	2.25607014
-0.48094618	-0.20085067	2.25603843
-0.48009217	-0.20044895	2.25601411
-0.47936755	-0.19999503	2.25599241
-0.47837824	-0.19951819	2.25596404
-0.47711405	-0.19911034	2.25592923
-0.47619662	-0.19830531	2.25590014
-0.47540012	-0.19817956	2.25587916
-0.47322416	-0.19889811	2.25582957
-0.47190475	-0.19674470	2.25578046
-0.47105724	-0.19708139	2.25576162
-0.47025323	-0.19710481	2.25574160
-0.46925545	-0.19735946	2.25571823
-0.46781325	-0.19599667	2.25567198
-0.46690875	-0.19636306	2.25565171
-0.46627721	-0.19602071	2.25563335
-0.46568179	-0.19551438	2.25561452
-0.46437556	-0.19514318	2.25557899
-0.46369416	-0.19437584	2.25555611
-0.46235168	-0.19386318	2.25551867
-0.46118936	-0.19283578	2.25548172
-0.46018416	-0.19323963	2.25545931
-0.45920739	-0.19332322	2.25543523
-0.45795840	-0.19353314	2.25540543
-0.45633614	-0.19268531	2.25535822
-0.45576310	-0.19173133	2.25533676
-0.45448431	-0.19223282	2.25530815
-0.45324284	-0.19229358	2.25527740
-0.45203644	-0.19277254	2.25525045
-0.44502717	-0.19586140	2.25509596
-0.44089890	-0.19647041	2.25499630
-0.44015288	-0.19557652	2.25497103
-0.43878859	-0.19612265	2.25494051
-0.43703729	-0.19563259	2.25489283
-0.43593222	-0.19488084	2.25485945
-0.43470442	-0.19522530	2.25483108
-0.43285990	-0.19462352	2.25478005
-0.43115133	-0.19470790	2.25473762
-0.42932793	-0.19454584	2.25469041
-0.42794234	-0.19465204	2.25465631
-0.42638505	-0.19423629	2.25461388
-0.42568886	-0.19376737	2.25459290
-0.42484891	-0.19395489	2.25457311
-0.42405218	-0.19382899	2.25455213
-0.42296112	-0.19366650	2.25452352
-0.42194939	-0.19363734	2.25449777
-0.42128205	-0.19345920	2.25447965
-0.41945142	-0.19344646	2.25443339
-0.41701710	-0.19426976	2.25437784
-0.41655082	-0.19371110	2.25436211
-0.41489935	-0.19407116	2.25432301
-0.41411105	-0.19260311	2.25429249
-0.41319874	-0.19281310	2.25427103
-0.41083747	-0.19242072	2.25420856
-0.41004825	-0.19214565	2.25418663
-0.40914476	-0.19223516	2.25416446
-0.40816817	-0.19262421	2.25414276
-0.40695521	-0.19236477	2.25411010
-0.40591398	-0.19293270	2.25408816
-0.40314293	-0.19345048	2.25402188
-0.40210226	-0.19251981	2.25398898
-0.40133429	-0.19268459	2.25397086
-0.40022847	-0.19312596	2.25394607
-0.39941779	-0.19210556	2.25391817
-0.39786685	-0.19242807	2.25388145
-0.39624506	-0.19219117	2.25383878
-0.39539084	-0.19117860	2.25380993
-0.39468738	-0.19116443	2.25379205
-0.39394805	-0.19131438	2.25377440
-0.39331663	-0.19097212	2.25375605
-0.39234734	-0.19121185	2.25373340
-0.39162889	-0.19119076	2.25371504
-0.39076135	-0.19050549	2.25368810
-0.39014378	-0.19075233	2.25367427
-0.38908744	-0.19131321	2.25365186
-0.38749525	-0.19017398	2.25360346
-0.38655564	-0.18981674	2.25357699
-0.38588810	-0.18963847	2.25355887
-0.38524178	-0.18928930	2.25354004
-0.38454455	-0.18970802	2.25352550
-0.38391441	-0.18908903	2.25350523
-0.38334754	-0.18856791	2.25348711
-0.38251373	-0.18888286	2.25346828
-0.38150921	-0.18839900	2.25343943
-0.38066930	-0.18858647	2.25341964
-0.37942839	-0.18714872	2.25337791
-0.37858844	-0.18733624	2.25335813
-0.37782037	-0.18719552	2.25333762
-0.37717491	-0.18626407	2.25331450
-0.37655738	-0.18651092	2.25330067
-0.37569103	-0.18554890	2.25327182
-0.37503713	-0.18534890	2.25325394
-0.37429780	-0.18549885	2.25323629
-0.37382388	-0.18478392	2.25321913
-0.37326446	-0.18441892	2.25320244
-0.37261838	-0.18468060	2.25318813
-0.37180084	-0.18472585	2.25316787
-0.37030795	-0.18413106	2.25312591
-0.36959824	-0.18337864	2.25310230
-0.36902383	-0.18300667	2.25308514
-0.36818361	-0.18319407	2.25306535
-0.36749500	-0.18257602	2.25304341
-0.36676317	-0.18257676	2.25302505
-0.36593020	-0.18230939	2.25300217
-0.36504781	-0.18192263	2.25297689
-0.36391273	-0.18146238	2.25294495
-0.36234909	-0.18061364	2.25289941
-0.36155996	-0.18033859	2.25287747
-0.36062008	-0.17937052	2.25284672
-0.35998127	-0.17948288	2.25283146
-0.35890475	-0.17871639	2.25279880
-0.35810804	-0.17859043	2.25277758
-0.35711741	-0.17808497	2.25274897
-0.35627818	-0.17738476	2.25272274
-0.35533845	-0.17672214	2.25269413
-0.35454166	-0.17629081	2.25267100
-0.35378096	-0.17600083	2.25264978
-0.35246083	-0.17504051	2.25260949
-0.35182923	-0.17469820	2.25259089
-0.35070297	-0.17381206	2.25255609
-0.34971985	-0.17346269	2.25252867
-0.34799081	-0.17221956	2.25247598
-0.34722999	-0.17192957	2.25245476
-0.34529310	-0.17002305	2.25239205
-0.34367853	-0.16933146	2.25234628
-0.34145510	-0.16635118	2.25226855
-0.34045073	-0.16556203	2.25223732
-0.33302853	-0.15498932	2.25197315
-0.33114219	-0.15262008	2.25190830
-0.32963330	-0.15229523	2.25186801
-0.32900169	-0.15195286	2.25184941
-0.32791790	-0.15164104	2.25181985
-0.32610860	-0.15206829	2.25177741
-0.32439342	-0.15141428	2.25172925
-0.32287282	-0.14964128	2.25167799
-0.32239157	-0.14907566	2.25166178
-0.32137352	-0.14830822	2.25163054
-0.32067621	-0.14842153	2.25161386
-0.31972161	-0.14805733	2.25158691
-0.31909022	-0.14771509	2.25156856
-0.31835809	-0.14741030	2.25154781
-0.31726778	-0.14636010	2.25151277
-0.31662276	-0.14603963	2.25149417
-0.31574756	-0.14519811	2.25146604
-0.29173952	-0.16396233	2.25099707
-0.28721434	-0.16665293	2.25090241
-0.28603667	-0.16742250	2.25087833
-0.28277630	-0.16902238	2.25080776
-0.28021929	-0.17063642	2.25075483
-0.27879775	-0.17090669	2.25072098
-0.27558717	-0.17293158	2.25065470
-0.27153757	-0.17425637	2.25056219
-0.26977164	-0.17406493	2.25051641
-0.26869419	-0.17449135	2.25049233
-0.26693493	-0.17534378	2.25045419
-0.26432139	-0.17579424	2.25039148
-0.26208109	-0.17669180	2.25034142
-0.26082554	-0.17555264	2.25030160
-0.25992808	-0.17546420	2.25027823
-0.25882947	-0.17545086	2.25025034
-0.25800422	-0.17503446	2.25022650
-0.25732955	-0.17531094	2.25021148
-0.25611636	-0.17505132	2.25017905
-0.25453702	-0.17538875	2.25014162
-0.25351050	-0.17535278	2.25011563
-0.25031468	-0.17677376	2.25004530
-0.24929619	-0.17539534	2.25000954
-0.24717778	-0.17638987	2.24996328
-0.24612260	-0.17606333	2.24993443
-0.24427721	-0.17665447	2.24989200
-0.24322933	-0.17617859	2.24986219
-0.24181509	-0.17629954	2.24982738
-0.24104708	-0.17615888	2.24980688
-0.23979819	-0.17606351	2.24977469
-0.23905212	-0.17516963	2.24974942
-0.23807546	-0.17555864	2.24972773
-0.23745143	-0.17506711	2.24970841
-0.23677662	-0.17503817	2.24969101
-0.23586521	-0.17436060	2.24966311
-0.23519075	-0.17463720	2.24964809
-0.23452321	-0.17445895	2.24962997
-0.23313761	-0.17456514	2.24959588
-0.23236948	-0.17442444	2.24957538
-0.23137894	-0.17422438	2.24954891
-0.23088410	-0.17368048	2.24953246
-0.22985771	-0.17364454	2.24950647
-0.22901022	-0.17398122	2.24948740
-0.22814885	-0.17372876	2.24946404
-0.22723755	-0.17305119	2.24943590
-0.22674286	-0.17250746	2.24941945
-0.22615480	-0.17215723	2.24940228
-0.22509223	-0.17228521	2.24937630
-0.22459006	-0.17189062	2.24936080
-0.22375777	-0.17223442	2.24934220
-0.22329149	-0.17167573	2.24932647
-0.22143874	-0.17241617	2.24928498
-0.21910641	-0.17292523	2.24922991
-0.21686679	-0.17262971	2.24917126
-0.21602875	-0.17134738	2.24914074
-0.21518877	-0.17153484	2.24912095
-0.21391761	-0.17219259	2.24909377
-0.21121758	-0.17326988	2.24903345
-0.21016321	-0.17205556	2.24899793
-0.20851162	-0.17211020	2.24895668
-0.20693308	-0.17155991	2.24891305
-0.20478588	-0.17226383	2.24886394
-0.20318523	-0.17216136	2.24882269
-0.20237359	-0.17233391	2.24880362
-0.20085961	-0.17160474	2.24875998
-0.19962457	-0.17179307	2.24873018
-0.19846869	-0.17180935	2.24870133
-0.19605574	-0.17307255	2.24864960
-0.19497266	-0.17156760	2.24861121
-0.19350854	-0.17126361	2.24857211
-0.19210261	-0.17004225	2.24852777
-0.19143540	-0.17016953	2.24851179
-0.19049469	-0.17039448	2.24848986
-0.18977743	-0.16979124	2.24846721
-0.18862793	-0.17024048	2.24844146
-0.18627298	-0.17058636	2.24838471
-0.18498880	-0.16946201	2.24834418
-0.18409887	-0.16922434	2.24831986
-0.18271509	-0.16755526	2.24827290
-0.18145117	-0.16775826	2.24824238
-0.18070513	-0.16686437	2.24821711
-0.17888197	-0.16670248	2.24816990
-0.17806414	-0.16613679	2.24814510
-0.17736787	-0.16566792	2.24812412
-0.17644197	-0.16559437	2.24810028
-0.17563897	-0.16473018	2.24807382
-0.17494923	-0.16499972	2.24805832
-0.17362893	-0.16403928	2.24801803
-0.17299104	-0.16295865	2.24799418
-0.17185664	-0.16341485	2.24796867
-0.17135435	-0.16271488	2.24795103
-0.16971856	-0.16188875	2.24790382
-0.16839808	-0.16062292	2.24786115
-0.16742975	-0.15997508	2.24783206
-0.16653949	-0.15912661	2.24780345
-0.16545618	-0.15942580	2.24777818
-0.16372651	-0.15757154	2.24772120
-0.16284424	-0.15749013	2.24769831
-0.16219145	-0.15670797	2.24767613
-0.16138011	-0.15688071	2.24765682
-0.16029644	-0.15687428	2.24762964
-0.15983015	-0.15631565	2.24761367
-0.15887564	-0.15595147	2.24758697
-0.15723878	-0.15601292	2.24754620
-0.15533715	-0.15513544	2.24749184
-0.15444785	-0.15370467	2.24745893
-0.15355146	-0.15242337	2.24742699
-0.15309250	-0.15171537	2.24741030
-0.15242499	-0.15153709	2.24739218
-0.15144265	-0.14999475	2.24735618
-0.15041614	-0.14995877	2.24732995
-0.14927423	-0.15056413	2.24730563
-0.14814067	-0.14982735	2.24727154
-0.14493990	-0.14842921	2.24718070
-0.14210743	-0.14435367	2.24707961
-0.14141846	-0.14373545	2.24705768
-0.14089507	-0.14290112	2.24703836
-0.13978338	-0.14141096	2.24699950
-0.13885015	-0.14148669	2.24697638
-0.13743591	-0.14160769	2.24694180
-0.13572878	-0.13961121	2.24688411
-0.13431525	-0.13853908	2.24684072
-0.13311046	-0.13693734	2.24679852
-0.13031369	-0.13269758	2.24669719
-0.12816983	-0.12924007	2.24661779
-0.12704360	-0.12835397	2.24658298
-0.12149602	-0.11628743	2.24635530
-0.12125969	-0.11563894	2.24634457
-0.11918938	-0.10977253	2.24624968
-0.08941239	-0.01218535	2.24478793
-0.08970267	-0.00790444	2.24476409
-0.09086740	0.00401385	2.24470663
-0.09278303	0.01221913	2.24469519
-0.09574789	0.02202937	2.24469852
-0.10676664	0.03996314	2.24484587
-0.11683416	0.05305576	2.24500442
-0.11898839	0.05421438	2.24505043
-0.12120837	0.05643946	2.24509025
-0.12472898	0.06022461	2.24515152
-0.12855124	0.06442788	2.24521732
-0.13289779	0.06898978	2.24529362
-0.13391036	0.06954289	2.24531531
-0.13501644	0.06998416	2.24533987
-0.13600755	0.07097723	2.24535775
-0.13904721	0.07471715	2.24540710
-0.14088595	0.07604688	2.24544382
-0.14158940	0.07603271	2.24546170
-0.14299053	0.07763049	2.24548531
-0.14541090	0.07904291	2.24553609
-0.14672530	0.08001399	2.24556231
-0.14796036	0.08050774	2.24558973
-0.14938211	0.08077788	2.24562383
-0.15056741	0.08169664	2.24564695
-0.15210253	0.08052767	2.24569416
-0.15380555	0.08254345	2.24572253
-0.15505469	0.08244795	2.24575472
-0.15572214	0.08226970	2.24577284
-0.15745932	0.08236887	2.24581599
-0.15860766	0.08223596	2.24584579
-0.16038203	0.08338664	2.24588227
-0.16122949	0.08372332	2.24590111
-0.16307473	0.08431463	2.24594331
-0.16432452	0.08510688	2.24596906
-0.16517854	0.08470514	2.24599361
-0.16686606	0.08522931	2.24603224
-0.16739684	0.08484952	2.24604845
-0.16810757	0.08498465	2.24606538
-0.16911364	0.08627620	2.24608135
-0.16982460	0.08641121	2.24609828
-0.17086494	0.08578614	2.24612927
-0.17161083	0.08519766	2.24615216
-0.17289591	0.08526627	2.24618411
-0.17340636	0.08590857	2.24619246
-0.17428976	0.08640933	2.24621105
-0.17492115	0.08606712	2.24622941
-0.17583966	0.08584426	2.24625421
-0.17662889	0.08556919	2.24627614
-0.17768490	0.08643557	2.24629641
-0.17840332	0.08641449	2.24631476
-0.17988861	0.08597592	2.24635553
-0.18162596	0.08576968	2.24640083
-0.18256664	0.08599465	2.24642277
-0.18347770	0.08562261	2.24644852
-0.18452656	0.08603427	2.24647212
-0.18522990	0.08632553	2.24648762
-0.18598384	0.08677410	2.24650335
-0.18803698	0.08670200	2.24655581
-0.18884104	0.08672541	2.24657583
-0.19020480	0.08607823	2.24661493
-0.19167608	0.08592355	2.24665308
-0.19322610	0.08505305	2.24669862
-0.19388628	0.08472545	2.24671769
-0.19500613	0.08427235	2.24674916
-0.19547325	0.08490665	2.24675632
-0.19730377	0.08489408	2.24680257
-0.19840956	0.08533549	2.24682736
-0.29716021	0.22694668	2.24828720
-0.29735494	0.22806555	2.24828410
-0.29695424	0.22969066	2.24826217
-0.29745078	0.23122746	2.24826336
-0.29802546	0.23235419	2.24826980
-0.29763138	0.23293550	2.24825549
-0.29752424	0.23363636	2.24824762
-0.29845181	0.23564352	2.24825644
-0.29841003	0.23741093	2.24824262
-0.29903567	0.23900013	2.24824667
-0.29892293	0.24163234	2.24822474
-0.29934010	0.24269177	2.24822760
-0.30112308	0.24637808	2.24824572
-0.30099642	0.24959937	2.24821901
-0.30423716	0.25371987	2.24827075
-0.30546647	0.25614503	2.24828410
-0.30605626	0.25757009	2.24828863
-0.30957091	0.26328692	2.24833560
-0.31148329	0.26702541	2.24835682
-0.31279206	0.26992786	2.24836850
-0.31601882	0.27463746	2.24841571
-0.31692427	0.27589145	2.24842930
-0.31781596	0.27773452	2.24843836
-0.31962684	0.28024244	2.24846601
-0.32822102	0.29140937	2.24860144
-0.32912648	0.29266328	2.24861503
-0.33003196	0.29391727	2.24862885
-0.39060968	0.37403220	2.24957347
-0.38998631	0.37571687	2.24954557
-0.39153135	0.37797087	2.24956822
-0.39131710	0.37937260	2.24955249
-0.39254647	0.38179767	2.24956584
-0.39304301	0.38333452	2.24956727
-0.39260611	0.38479567	2.24954557
-0.39511397	0.38802785	2.24958539
-0.40037417	0.39518601	2.24966598
-0.40127960	0.39643997	2.24967957
-0.40106541	0.39784166	2.24966407
-0.40935290	0.40204304	2.24984241
-0.41198754	0.40205371	2.24990892
-0.41625237	0.40286446	2.25001049
-0.41879377	0.40298688	2.25007367
-0.42089015	0.40322819	2.25012493
-0.42201000	0.40308031	2.25015426
-0.42480987	0.40330756	2.25022316
-0.42617342	0.40266052	2.25026226
-0.42781007	0.40272209	2.25030303
-0.42919582	0.40282813	2.25033736
-0.43020028	0.40203896	2.25036836
-0.43090370	0.40202481	2.25038624
-0.43261257	0.40210903	2.25042868
-0.43333709	0.40165508	2.25045037
-0.43409026	0.40152133	2.25047016
-0.43699920	0.40282285	2.25053406
-0.43827567	0.40185469	2.25057340
-0.44091859	0.40320769	2.25063014
-0.44210228	0.40174031	2.25067067
-0.44348770	0.40215191	2.25070262
-0.44622388	0.40339318	2.25076270
-0.44860658	0.40256092	2.25082898
-0.45076764	0.40267566	2.25088263
-0.45288524	0.40278253	2.25093508
-0.45439202	0.40159863	2.25098181
-0.45580626	0.40171960	2.25101662
-0.45847684	0.40189439	2.25108266
-0.45919499	0.40217885	2.25109887
-0.46101806	0.40201697	2.25114584
-0.46169296	0.40198803	2.25116324
-0.46249714	0.40201128	2.25118327
-0.46320039	0.40199727	2.25120115
-0.60905039	0.49429888	2.25420833
-0.68969703	0.54333329	2.25588560
-0.69101143	0.54430431	2.25591159
-0.70718330	0.55377877	2.25625062
-0.71206003	0.55676764	2.25635195
-0.72701502	0.56748796	2.25665116
-0.75595582	0.56239301	2.25741816
-0.75801480	0.56038940	2.25748467
-0.75934237	0.55957830	2.25752425
-0.76011682	0.55869943	2.25755000
-0.76115727	0.55807412	2.25758100
-0.76188195	0.55762011	2.25760245
-0.76313019	0.55633175	2.25764346
-0.76398420	0.55592996	2.25766778
-0.76556277	0.55507427	2.25771379
-0.76891398	0.55328870	2.25781155
-0.76859003	0.55211753	2.25781178
-0.77063501	0.55070317	2.25787377
-0.77156115	0.55032414	2.25789976
-0.77255082	0.54893100	2.25793481
-0.77340484	0.54852927	2.25795937
-0.77422267	0.54796356	2.25798416
-0.77564347	0.54734617	2.25802445
-0.77619565	0.54652643	2.25804424
-0.77720004	0.54573727	2.25807548
-0.77822584	0.54450822	2.25811028
-0.77846211	0.54385978	2.25812101
-0.78055042	0.54275858	2.25818157
-0.78159100	0.54213339	2.25821257
-0.78251600	0.54086685	2.25824499
-0.78314757	0.54052442	2.25826335
-0.78779113	0.53865147	2.25839424
-0.88880944	0.50413865	2.26119375
-0.97443068	0.47588351	2.26355934
-0.97571564	0.47595212	2.26359129
-0.97692966	0.47658026	2.26361752
-0.97730356	0.47732630	2.26362133
-0.97818696	0.47782710	2.26364017
-0.97937882	0.47770196	2.26367092
-0.97991037	0.47851536	2.26367855
-0.98094434	0.47862852	2.26370382
-0.98163366	0.47920358	2.26371694
-0.98246634	0.47924179	2.26373768
-0.98327780	0.47941437	2.26375699
-0.98394620	0.48012373	2.26376867
-0.98470038	0.48057219	2.26378441
-0.98551905	0.48119944	2.26380038
-0.98656046	0.48146203	2.26382470
-0.98721391	0.48187307	2.26383829
-0.98858559	0.48256826	2.26386786
-0.98920333	0.48281503	2.26388168
-0.98994273	0.48296499	2.26389909
-0.99058890	0.48292115	2.26391578
-0.99101996	0.48339158	2.26392317
-0.99181664	0.48326558	2.26394439
-0.99203265	0.48394477	2.26394486
-0.99358344	0.48426718	2.26398158
-0.99474669	0.48443279	2.26400971
-0.99669248	0.48506165	2.26405430
-0.99833667	0.48527247	2.26409411
-0.99908328	0.48557168	2.26411080
-0.99992347	0.48575896	2.26413059
-1.00121582	0.48597705	2.26416159
-1.00196254	0.48627615	2.26417828
-1.00343406	0.48612124	2.26421642
-1.00479102	0.48621270	2.26425004
-1.00607598	0.48628125	2.26428199
-1.00674355	0.48610303	2.26430011
-1.00768423	0.48632792	2.26432228
-1.00947154	0.48600191	2.26436973
-1.01011777	0.48595825	2.26438642
-1.01107943	0.48604879	2.26441002
-1.01175439	0.48601985	2.26442719
-1.01243663	0.48614022	2.26444340
-1.01486266	0.48562118	2.26450849
-1.01607585	0.48536158	2.26454091
-1.01878142	0.48481289	2.26461315
-1.02130079	0.48418218	2.26468134
-1.02579391	0.48300201	2.26480341
-1.03018856	0.48264328	2.26491690
-1.03942549	0.48023838	2.26516724
-1.06029129	0.47502220	2.26573157
-1.06199265	0.47495726	2.26577497
-1.06412506	0.47536251	2.26582599
-1.06614196	0.47543189	2.26587629
-1.06759965	0.47586623	2.26590991
-1.06911445	0.47602472	2.26594687
-1.07052135	0.47569093	2.26598477
-1.07122493	0.47567683	2.26600266
-1.07190692	0.47610259	2.26601672
-1.07254636	0.47710261	2.26602554
-1.07518125	0.47711334	2.26609206
-1.07620752	0.47707731	2.26611829
-1.07799649	0.47672257	2.26616597
-1.07831025	0.47749653	2.26616812
-1.07928681	0.47788551	2.26619005
-1.08042860	0.47849098	2.26621437
-1.08139801	0.47873074	2.26623702
-1.08237469	0.47911981	2.26625896
-1.08307159	0.47984412	2.26627111
-1.08449304	0.48011422	2.26630497
-1.08524013	0.48041341	2.26632166
-1.08633828	0.48070571	2.26634741
-1.08696330	0.48110163	2.26636028
-1.08758080	0.48134851	2.26637387
-1.08875120	0.48196885	2.26639891
-1.09010851	0.48206007	2.26643252
-1.09066856	0.48258281	2.26644278
-1.09138691	0.48286706	2.26645899
-1.09298825	0.48395771	2.26649141
-1.09399366	0.48405612	2.26651597
-1.09430265	0.48492885	2.26651740
-1.09520018	0.48484036	2.26654077
-1.09611225	0.48505047	2.26656222
-1.09665871	0.48616233	2.26656795
-1.09803700	0.48611918	2.26660299
-1.09909272	0.48698568	2.26662326
-1.10168493	0.48787612	2.26668215
-1.10291266	0.48791528	2.26671290
-1.10350144	0.48845267	2.26672387
-1.10440624	0.48851347	2.26674628
-1.10510969	0.48849928	2.26676416
-1.10674655	0.48825553	2.26680708
-1.10739267	0.48851728	2.26682162
-1.10804605	0.48892814	2.26683497
-1.10988414	0.48906484	2.26688051
-1.11048031	0.48975146	2.26689053
-1.11155033	0.49002865	2.26691532
-1.11250556	0.49085772	2.26693344
-1.11402786	0.49116546	2.26696968
-1.11558700	0.49283025	2.26699686
-1.11703062	0.49385360	2.26702595
-1.11838090	0.49498892	2.26705170
-1.12040544	0.49490210	2.26710343
-1.12179184	0.49620119	2.26712894
-1.12263191	0.49638873	2.26714873
-1.12323558	0.49722466	2.26715779
-1.12654507	0.49720645	2.26724148
-1.12815332	0.49725306	2.26728177
-1.12866378	0.49820083	2.26728773
-1.12961900	0.49902984	2.26730561
-1.13675416	0.49800956	2.26749301
-1.13845539	0.49794462	2.26753640
-1.13918829	0.49883297	2.26754856
-1.14021492	0.49879682	2.26757479
-1.14357424	0.49835360	2.26766276
-1.15109098	0.49731234	2.26785994
-1.15254128	0.49729198	2.26789665
-1.15268528	0.49794823	2.26789546
-1.15334630	0.49850839	2.26790810
-1.15406430	0.49879286	2.26792407
-1.15431631	0.49963579	2.26792431
-1.15652072	0.50036937	2.26797462
-1.15807152	0.50069201	2.26801133
-1.15914130	0.50096929	2.26803637
-1.16004622	0.50103015	2.26805878
-1.16143155	0.50144172	2.26809072
-1.16262352	0.50131661	2.26812172
-1.16358519	0.50171256	2.26814294
-1.16425371	0.50211668	2.26815701
-1.16536593	0.50212502	2.26818490
-1.16548109	0.50276661	2.26818323
-1.16697586	0.50394708	2.26821232
-1.17525268	0.50383770	2.26842189
-1.20316267	0.50098681	2.26914668
-1.24868298	0.49030492	2.27037287
-1.29767716	0.44841874	2.27191377
-1.30461264	0.43278053	2.27220249
-1.41642714	0.31292284	2.27589583
-1.41760492	0.31369230	2.27591991
-1.41985202	0.31354606	2.27597785
-1.42133164	0.31473354	2.27600646
-1.42307472	0.31290114	2.27606368
-1.43128777	0.30413407	2.27633476
-1.43353331	0.30190691	2.27640772
-1.43471694	0.30074507	2.27644587
-1.43939400	0.29606768	2.27659798
-1.44171858	0.29431814	2.27666950
-1.44466007	0.29162219	2.27676320
-1.44572258	0.29175043	2.27678919
-1.44672704	0.29096109	2.27682018
-1.44822645	0.28962803	2.27686763
-1.44968319	0.28886926	2.27691007
-1.45164263	0.28710496	2.27697229
-1.45380068	0.28486234	2.27704310
-1.45473409	0.28493804	2.27706599
-1.46002865	0.28050745	2.27723193
-1.46255374	0.27794528	2.27731419
-1.46374488	0.27693251	2.27735162
-1.46443355	0.27631444	2.27737355
-1.46532345	0.27607679	2.27739763
-1.46866632	0.27294901	2.27750468
-1.47437024	0.26823556	2.27768302
-1.49397063	0.23202486	2.27844119
-1.50277948	0.21307932	2.27880120
-1.51997423	0.16125301	2.27961230
-1.52931428	0.10898547	2.28022861
-1.53040779	0.10273018	2.28030181
-1.53070712	0.09987435	2.28033018
-1.53092742	0.09654115	2.28035998
-1.53087819	0.08879274	2.28041506
-1.53041697	0.08622685	2.28042221
-1.52928805	0.08383924	2.28041101
-1.46360195	-0.05037770	2.27973127
-1.44307566	-0.09174666	2.27951479
-1.43897033	-0.09977612	2.27946973
-1.43381310	-0.10362287	2.27936769
-1.43177414	-0.10414003	2.27932000
-1.42902398	-0.10479219	2.27925539
-1.42153192	-0.11181104	2.27911735
-1.41876054	-0.11202328	2.27904916
-1.41473460	-0.11020875	2.27893424
-1.41387320	-0.10995632	2.27891064
-1.41154122	-0.10866146	2.27884245
-1.41068721	-0.10825972	2.27881813
-1.40591443	-0.10674435	2.27868652
-1.40425396	-0.10963979	2.27866578
-1.40241528	-0.11096954	2.27862906
-1.39888334	-0.11089191	2.27853942
-1.39378166	-0.11709518	2.27845597
-1.39193726	-0.11649337	2.27840495
-1.39091074	-0.11645742	2.27837873
-1.38937950	-0.11930054	2.27836084
-1.25418818	-0.21343142	2.27563596
-1.24489319	-0.22131050	2.27545881
-1.24206161	-0.22360432	2.27540421
-1.23874331	-0.22612150	2.27533889
-1.23931682	-0.22738114	2.27536249
-1.23882592	-0.23084936	2.27537537
-1.23765874	-0.23636943	2.27538610
-1.23721290	-0.23744364	2.27538252
-1.23462009	-0.23952723	2.27533245
-1.23574543	-0.24130088	2.27537370
-1.23565888	-0.24223296	2.27537823
-1.24113750	-0.24985532	2.27557206
-1.23640966	-0.25531256	2.27549243
-1.23428321	-0.25764936	2.27545595
-1.23280263	-0.26002997	2.27543592
-1.23215568	-0.26117918	2.27542782
-1.23182440	-0.26249969	2.27542901
-1.23253441	-0.26355761	2.27545476
-1.23128378	-0.26554286	2.27543759
-1.23023355	-0.26834083	2.27543163
-1.22838008	-0.27027440	2.27539897
-1.22825730	-0.27106506	2.27540159
-1.22765374	-0.27190101	2.27539229
-1.22953355	-0.27414265	2.27545619
-1.22760105	-0.27655381	2.27542496
-1.22762144	-0.27788126	2.27543521
-1.22639203	-0.28030643	2.27542186
-1.22603178	-0.28103071	2.27541804
-1.22660637	-0.28170809	2.27543736
-1.22565746	-0.28327537	2.27542496
-1.22582936	-0.28410280	2.27543521
-1.22572064	-0.28548270	2.27544260
-1.22398889	-0.28751314	2.27541351
-1.22355652	-0.28826019	2.27540803
-1.22498405	-0.28992146	2.27545619
-1.23076034	-0.29552853	2.27564287
-1.23009109	-0.29743093	2.27563977
-1.22879052	-0.29899117	2.27561831
-1.22920442	-0.30209309	2.27565145
-1.22885847	-0.30401748	2.27565670
-1.22773719	-0.30595049	2.27564240
-1.22714722	-0.30737555	2.27563787
-1.22396386	-0.31177190	2.27558970
-1.22338128	-0.31274223	2.27558208
-1.22261882	-0.31453294	2.27557588
-1.22176230	-0.31679416	2.27557063
-1.22246313	-0.32008207	2.27561235
-1.22042155	-0.32387292	2.27558827
-1.22039950	-0.32462606	2.27559328
-1.21870422	-0.32679811	2.27556634
-1.21941400	-0.32755053	2.27558970
-1.22051811	-0.32918984	2.27562952
-1.21996450	-0.33045095	2.27562475
-1.22107613	-0.33194095	2.27566361
-1.22100258	-0.33434981	2.27567935
-1.22020507	-0.33541709	2.27566695
-1.21947801	-0.33823681	2.27566910
-1.21923971	-0.33966887	2.27567363
-1.21838844	-0.34536013	2.27569366
-1.21683502	-0.34895641	2.27568054
-1.21680570	-0.34985894	2.27568650
-1.21552634	-0.35185891	2.27566862
-1.21767855	-0.35397428	2.27573848
-1.21510458	-0.35946599	2.27571344
-1.21382523	-0.36146605	2.27569580
-1.21373773	-0.36328581	2.27570677
-1.21293950	-0.36524063	2.27570081
-1.21214104	-0.36719540	2.27569485
-1.21197498	-0.36829939	2.27569890
-1.21217525	-0.36911201	2.27570987
-1.21185136	-0.37028316	2.27571011
-1.21240354	-0.37110290	2.27573013
-1.21147609	-0.37311006	2.27572131
-1.21050501	-0.37543046	2.27571368
-1.21016741	-0.37601256	2.27570939
-1.21038163	-0.37741420	2.27572489
-1.21019268	-0.38046458	2.27574253
-1.21166182	-0.38389310	2.27580452
-1.20733476	-0.39097548	2.27574682
-1.20606124	-0.39490700	2.27574348
-1.20712948	-0.39671046	2.27578354
-1.20704210	-0.39853024	2.27579451
-1.20665264	-0.40076786	2.27580094
-1.20615613	-0.40230468	2.27579951
-1.20593953	-0.40417683	2.27580786
-1.20728767	-0.40631545	2.27585745
-1.20681226	-0.40829206	2.27585983
-1.20720577	-0.41006652	2.27588272
-1.20812154	-0.41536713	2.27594423
-1.20345557	-0.42361376	2.27588677
-1.20593715	-0.42648914	2.27597022
-1.20561099	-0.43093413	2.27599430
-1.21163845	-0.43447646	2.27617216
-1.21094728	-0.43713206	2.27617407
-1.20672035	-0.44567540	2.27612972
-1.20809031	-0.44706082	2.27617431
-1.21366334	-0.45390737	2.27636480
-1.21376228	-0.45595050	2.27638221
-1.21533346	-0.45695549	2.27642918
-1.21757221	-0.45844406	2.27649641
-1.21975398	-0.45965683	2.27656031
-1.22054791	-0.46275106	2.27660275
-1.22096252	-0.46496531	2.27662945
-1.21914363	-0.46881559	2.27661157
-1.21995330	-0.47072363	2.27664590
-1.22309613	-0.47303903	2.27674198
-1.22264278	-0.47426248	2.27673960
-1.22233295	-0.47602284	2.27674460
-1.22215199	-0.47773078	2.27675247
-1.22168350	-0.48044592	2.27676034
-1.22227073	-0.48229453	2.27678871
-1.22074604	-0.48587608	2.27677631
-1.22075176	-0.48780745	2.27679038
-1.22138071	-0.49142355	2.27683258
-1.22058249	-0.49337831	2.27682662
-1.21961176	-0.49600425	2.27682137
-1.21921432	-0.49958438	2.27683735
-1.21886814	-0.50120318	2.27684045
-1.21874559	-0.50229931	2.27684546
-1.21957755	-0.50345433	2.27687478
-1.21790874	-0.50738657	2.27686119
-1.21733403	-0.50881863	2.27685714
-1.21848786	-0.51057756	2.27689910
-1.21812797	-0.51191288	2.27689981
-1.21875954	-0.51225507	2.27691817
-1.21972060	-0.51335758	2.27695036
-1.21086431	-0.53090006	2.27685475
-1.21050310	-0.53251189	2.27685738
-1.20949626	-0.53499639	2.27684999
-1.21075916	-0.53568101	2.27688694
-1.21003199	-0.53850073	2.27688909
-1.20906973	-0.54039520	2.27687860
-1.20973611	-0.54085028	2.27689886
-1.20962071	-0.54149175	2.27690053
-1.21082473	-0.54398119	2.27694893
-1.19545388	-0.57421738	2.27678156
-1.19495726	-0.57575417	2.27678013
-1.19534421	-0.57679021	2.27679753
-1.19530666	-0.57903498	2.27681279
-1.19471443	-0.58373392	2.27683210
-1.19252157	-0.58833027	2.27681017
-1.19399953	-0.58922338	2.27685404
-1.19061315	-0.59608084	2.27681851
-1.19048238	-0.59821391	2.27683067
-1.19038677	-0.60137606	2.27685142
-1.18956637	-0.60408401	2.27685046
-1.18916309	-0.60573250	2.27685213
-1.18748069	-0.60938120	2.27683640
-1.18454683	-0.61620826	2.27681208
-1.18355465	-0.61839432	2.27680302
-1.18258381	-0.62071472	2.27679539
-1.18235314	-0.62230307	2.27680111
-1.18185663	-0.62383986	2.27679968
-1.15636158	-0.67656517	2.27654052
-1.15075350	-0.68772817	2.27648044
-1.14703023	-0.69397473	2.27643204
-1.14403296	-0.69798356	2.27638555
-1.09455538	-0.75157136	2.27552772
-1.08461583	-0.75763124	2.27532101
-1.07818079	-0.76109201	2.27518392
-1.06663311	-0.76719874	2.27493715
-1.03337502	-0.78449619	2.27422404
-1.02918136	-0.78617185	2.27413034
-1.02397513	-0.78809524	2.27401304
-1.02072895	-0.78878570	2.27393627
-1.01866865	-0.78886288	2.27388477
-1.01704645	-0.78832036	2.27383995
-1.01641512	-0.78797817	2.27382159
-1.00190043	-0.78663170	2.27344561
-0.99969667	-0.78586662	2.27338433
-0.99716270	-0.78583986	2.27332020
-0.99544728	-0.78518569	2.27327228
-0.98995203	-0.78205204	2.27311087
-0.98963296	-0.77667570	2.27306366
-0.98917407	-0.77596772	2.27304697
-0.98832774	-0.77330726	2.27300620
-0.98829997	-0.77212912	2.27299690
-0.98399460	-0.77089560	2.27287936
-0.98288304	-0.76940560	2.27284050
-0.98230267	-0.76649129	2.27280450
-0.98180038	-0.76609683	2.27278900
-0.98023570	-0.76583016	2.27274752
-0.97915190	-0.76551825	2.27271795
-0.97780383	-0.76337975	2.27266836
-0.97672009	-0.76306790	2.27263880
-0.97574067	-0.75916803	2.27258563
-0.97502279	-0.75764847	2.27255654
-0.97473758	-0.75599277	2.27253723
-0.97406280	-0.75596380	2.27252007
-0.97382641	-0.75531530	2.27250934
-0.97271478	-0.75382507	2.27247047
-0.97247922	-0.75228888	2.27245331
-0.97225010	-0.75118572	2.27243948
-0.97148937	-0.75089574	2.27241826
-0.97075737	-0.75059116	2.27239752
-0.97044253	-0.74953228	2.27238178
-0.97022676	-0.74810183	2.27236605
-0.96946615	-0.74781191	2.27234483
-0.96893698	-0.74504608	2.27231121
-0.96829939	-0.74488163	2.27229404
-0.96735919	-0.74360806	2.27226090
-0.96713793	-0.74296653	2.27225065
-0.96680832	-0.74220634	2.27223682
-0.96613306	-0.74156636	2.27221513
-0.96492898	-0.73907697	2.27216673
-0.96452123	-0.73821193	2.27215004
-0.96431327	-0.73754847	2.27214003
-0.96212363	-0.73737276	2.27208352
-0.96117884	-0.73358560	2.27203202
-0.95972300	-0.73224449	2.27198553
-0.78730404	-0.74150044	2.26770353
-0.78628439	-0.74281365	2.26768732
-0.78656816	-0.74716091	2.26772618
-0.78042161	-0.74781078	2.26757598
-0.77989012	-0.74862403	2.26756835
-0.77959394	-0.75066799	2.26757574
-0.77804297	-0.75099051	2.26753902
-0.77712369	-0.75165534	2.26752067
-0.77582312	-0.75321555	2.26749921
-0.77206051	-0.75442088	2.26741314
-0.77110356	-0.75733054	2.26741004
-0.76744807	-0.75923663	2.26733184
-0.76602656	-0.75950688	2.26729798
-0.76497787	-0.76022393	2.26727676
-0.76369929	-0.76103103	2.26725030
-0.76268685	-0.76188958	2.26723099
-0.76196873	-0.76217401	2.26721501
-0.76196051	-0.76351631	2.26722455
-0.75984198	-0.76451075	2.26717830
-0.75925964	-0.76578659	2.26717281
-0.75376618	-0.76782930	2.26704931
-0.75388867	-0.76914805	2.26706195
-0.75416613	-0.77275711	2.26709509
-0.75351250	-0.77316791	2.26708174
-0.74533302	-0.77446222	2.26688480
-0.74412024	-0.77450830	2.26685452
-0.74320829	-0.77532911	2.26683760
-0.74278337	-0.77592701	2.26683116
-0.74270988	-0.77833587	2.26684690
-0.74251509	-0.77945465	2.26684999
-0.74079740	-0.78207439	2.26682591
-0.74008673	-0.78220946	2.26680875
-0.73691952	-0.78392106	2.26674151
-0.73635179	-0.78459293	2.26673198
-0.73508084	-0.78525090	2.26670480
-0.73399621	-0.78613204	2.26668382
-0.73260242	-0.78758049	2.26665926
-0.72960854	-0.78773338	2.26658463
-0.72845948	-0.78848809	2.26656127
-0.72703773	-0.78875834	2.26652741
-0.72575444	-0.78946650	2.26650023
-0.72466826	-0.79001367	2.26647663
-0.72404498	-0.79074395	2.26646638
-0.72338396	-0.79130399	2.26645374
-0.72242874	-0.79213309	2.26643562
-0.72154534	-0.79263377	2.26641703
-0.72068310	-0.79357433	2.26640224
-0.71984309	-0.79376185	2.26638222
-0.71843547	-0.79462117	2.26635313
-0.71671826	-0.79543692	2.26631570
-0.71542591	-0.79565477	2.26628470
-0.71498680	-0.79777288	2.26628900
-0.71347761	-0.79986286	2.26626611
-0.71278077	-0.80058706	2.26625395
-0.71163148	-0.80134177	2.26623034
-0.70766032	-0.80307674	2.26614285
-0.70463681	-0.80352128	2.26606989
-0.70408458	-0.80511642	2.26606750
-0.70312178	-0.80609459	2.26605034
-0.70247704	-0.80638492	2.26603603
-0.70092475	-0.80667877	2.26599908
-0.70032263	-0.80754346	2.26599026
-0.69998348	-0.80840218	2.26598787
-0.69986737	-0.80993140	2.26599622
-0.69942886	-0.81055093	2.26598954
-0.69895369	-0.81252766	2.26599193
-0.69739544	-0.81299943	2.26595616
-0.69501841	-0.81409854	2.26590419
-0.69383323	-0.81501728	2.26588106
-0.69229746	-0.81534696	2.26584458
-0.68987823	-0.81648248	2.26579189
-0.68884349	-0.81748343	2.26577306
-0.68862736	-0.81816238	2.26577258
-0.68821013	-0.81922179	2.26576972
-0.68755674	-0.81963277	2.26575613
-0.68675286	-0.81996161	2.26573825
-0.68551016	-0.82029909	2.26570940
-0.68484920	-0.82085919	2.26569676
-0.68445349	-0.82235861	2.26569772
-0.68301719	-0.82323283	2.26566792
-0.68267947	-0.82381487	2.26566362
-0.68198252	-0.82453907	2.26565123
-0.68107045	-0.82474923	2.26562977
-0.68119866	-0.82588983	2.26564145
-0.68073928	-0.82637507	2.26563334
-0.68068111	-0.82729226	2.26563859
-0.67920816	-0.82921827	2.26561546
-0.67894131	-0.83066511	2.26561928
-0.67828059	-0.83122540	2.26560664
-0.67778403	-0.83276218	2.26560521
-0.67571449	-0.83537477	2.26557207
-0.67405504	-0.83707726	2.26554275
-0.67327225	-0.83754039	2.26552629
-0.67299807	-0.83913660	2.26553106
-0.66985232	-0.84128815	2.26546741
-0.66733062	-0.84393120	2.26542282
-0.66078925	-0.84549809	2.26526928
-0.65930218	-0.84683478	2.26524162
-0.65856940	-0.84772319	2.26522946
-0.65782273	-0.84802228	2.26521277
-0.65744156	-0.84891766	2.26520967
-0.65678054	-0.84947789	2.26519728
-0.65623415	-0.85058969	2.26519156
-0.65425879	-0.85212088	2.26515293
-0.65343267	-0.85289752	2.26513767
-0.65131408	-0.85389185	2.26509142
-0.64913833	-0.85461056	2.26504183
-0.59465235	-0.86223984	2.26372290
-0.58351010	-0.86311877	2.26344824
