//X	Y	Z
0.06149937	-0.33011705	3.56625390
0.06354035	-0.32008255	3.56625247
0.06420739	-0.31411570	3.56625175
0.06518093	-0.30279398	3.56625032
0.06604304	-0.29254621	3.56624913
0.06612471	-0.28858829	3.56624866
0.06647853	-0.26405543	3.56624556
0.06642886	-0.26204181	3.56624532
0.06574757	-0.25069085	3.56624389
0.06546877	-0.24734481	3.56624365
0.06465800	-0.23991641	3.56624269
0.06354852	-0.23001233	3.56624150
0.06311235	-0.22722822	3.56624126
0.06271803	-0.22345436	3.56624079
0.06211851	-0.21897960	3.56624007
0.06103495	-0.21045779	3.56623912
0.05990756	-0.20340240	3.56623840
0.05949331	-0.20049885	3.56623793
0.05894573	-0.19878873	3.56623769
0.05851163	-0.19675553	3.56623745
0.05795777	-0.19279259	3.56623697
0.05738626	-0.19045103	3.56623673
0.05701970	-0.18881023	3.56623650
0.05683661	-0.18798999	3.56623650
0.05663141	-0.18728904	3.56623650
0.05605384	-0.18269481	3.56623578
0.05550400	-0.18023363	3.56623554
0.05506987	-0.17820041	3.56623530
0.05420367	-0.17611241	3.56623507
0.05399442	-0.17390971	3.56623483
0.05362606	-0.17151818	3.56623459
0.05305635	-0.16992734	3.56623435
0.05301064	-0.16941546	3.56623435
0.05269205	-0.16903758	3.56623435
0.05230355	-0.16751625	3.56623411
0.05209452	-0.16531365	3.56623387
0.05170406	-0.16304144	3.56623363
0.05149500	-0.16083887	3.56623340
0.05078793	-0.15893966	3.56623316
0.05057884	-0.15673709	3.56623292
0.05018838	-0.15446487	3.56623268
0.04991157	-0.15186971	3.56623220
0.04927223	-0.15036306	3.56623220
0.04883608	-0.14757895	3.56623173
0.04812915	-0.14567991	3.56623149
0.04808329	-0.14516787	3.56623149
0.04737033	-0.14101616	3.56623101
0.04654169	-0.13520895	3.56623030
0.03664875	0.03514317	3.56620979
0.03585809	0.04466924	3.56620860
0.03605905	0.04547018	3.56620836
0.03671625	0.04558474	3.56620836
0.03615856	0.05227685	3.56620765
0.03559482	0.06122155	3.56620646
0.03489773	0.06897287	3.56620550
0.03486973	0.07110605	3.56620526
0.03433194	0.07866846	3.56620431
0.03311303	0.08674774	3.56620336
0.02962359	0.10656561	3.56620121
0.02886881	0.10972756	3.56620073
0.02523199	0.12400168	3.56619906
0.02212530	0.13494417	3.56619787
0.01320700	0.15976718	3.56619501
0.01061005	0.16528052	3.56619453
0.00591998	0.17435811	3.56619334
0.00491835	0.17600363	3.56619334
0.00234722	0.18013471	3.56619287
0.00045922	0.18299808	3.56619263
-0.00377277	0.18941112	3.56619191
-0.00616047	0.19272169	3.56619143
-0.00907014	0.19636035	3.56619120
-0.01206917	0.19904444	3.56619096
-0.01749608	0.20329869	3.56619048
-0.02047136	0.20535147	3.56619048
-0.03597699	0.21459484	3.56618977
-0.04623494	0.21890254	3.56618953
-0.05435805	0.22186337	3.56618929
-0.05780727	0.22298115	3.56618929
-0.06127841	0.22397952	3.56618929
-0.07479444	0.22558126	3.56618953
-0.08862708	0.22681002	3.56618977
-0.09992062	0.22754262	3.56619000
-0.12134469	0.22642240	3.56619072
-0.26674777	0.20653383	3.56619716
-0.27209702	0.20541373	3.56619740
-0.27878216	0.20394483	3.56619787
-0.28322315	0.20295383	3.56619811
-0.30697304	0.19739783	3.56619954
-0.31646609	0.19478917	3.56620002
-0.33674490	0.18823485	3.56620145
-0.35491484	0.18171589	3.56620288
-0.36123571	0.17935720	3.56620312
-0.36805445	0.17669509	3.56620383
-0.37355873	0.17426202	3.56620431
-0.37937969	0.17145598	3.56620479
-0.40218341	0.15891407	3.56620693
-0.40682536	0.15589465	3.56620741
-0.40834093	0.15486470	3.56620765
-0.41329947	0.15147229	3.56620812
-0.42439178	0.14339912	3.56620932
-0.42547908	0.14258851	3.56620955
-0.43258443	0.13666928	3.56621051
-0.43835545	0.13184944	3.56621122
-0.44600463	0.12491117	3.56621242
-0.45098117	0.11989767	3.56621313
-0.45636600	0.11430754	3.56621385
-0.46654397	0.10288333	3.56621552
-0.46781051	0.10139136	3.56621575
-0.47002691	0.09878032	3.56621623
-0.50090557	0.05666164	3.56622219
-0.51916659	0.02949839	3.56622601
-0.52138108	0.02613651	3.56622648
-0.52373087	0.02233213	3.56622720
-0.52811176	0.01434543	3.56622815
-0.53678238	-0.00265166	3.56623054
-0.54599243	-0.02094214	3.56623316
-0.55499321	-0.05226940	3.56623721
-0.55652624	-0.06698236	3.56623912
-0.55744600	-0.08181946	3.56624079
-0.55812281	-0.09363852	3.56624246
-0.55829602	-0.09780009	3.56624293
-0.55813253	-0.11032481	3.56624436
-0.55696929	-0.12374433	3.56624603
-0.55599314	-0.13484183	3.56624722
-0.55519062	-0.13926658	3.56624794
-0.55466276	-0.14184716	3.56624818
-0.55057013	-0.15803491	3.56625009
-0.54673624	-0.16877893	3.56625128
-0.53692007	-0.18971810	3.56625342
-0.53318596	-0.19643459	3.56625438
-0.52988595	-0.20234534	3.56625485
-0.52271855	-0.21377921	3.56625605
-0.51978505	-0.21804920	3.56625652
-0.51193845	-0.22924909	3.56625772
-0.51055241	-0.23091416	3.56625795
-0.48434234	-0.26183796	3.56626081
-0.47780034	-0.26741469	3.56626153
-0.46103796	-0.28101832	3.56626272
-0.44543478	-0.29353824	3.56626368
-0.44289157	-0.29553616	3.56626391
-0.43769199	-0.29920879	3.56626415
-0.43471676	-0.30126154	3.56626439
-0.42118457	-0.31009784	3.56626511
-0.41782504	-0.31217000	3.56626511
-0.40670067	-0.31856588	3.56626558
-0.40036771	-0.32194000	3.56626582
-0.37060916	-0.33756834	3.56626701
-0.35599169	-0.34484315	3.56626749
-0.34289590	-0.35089523	3.56626773
-0.33409160	-0.35437298	3.56626797
-0.25565195	-0.38152158	3.56626916
-0.24004279	-0.38668767	3.56626940
-0.21676469	-0.39365149	3.56626964
-0.21177413	-0.39512154	3.56626964
-0.19641602	-0.39907464	3.56626964
-0.17484242	-0.40399560	3.56626964
-0.15195459	-0.40868741	3.56626964
-0.11881673	-0.41468346	3.56626940
-0.06357788	-0.41857445	3.56626821
-0.05881643	-0.41871211	3.56626821
-0.02964970	-0.41242844	3.56626654
-0.01666340	-0.40947133	3.56626582
0.00646106	-0.39805818	3.56626368
0.01651369	-0.39205843	3.56626272
0.02054228	-0.38891470	3.56626225
0.03427904	-0.37678361	3.56626034
0.04592894	-0.36456850	3.56625843
0.04764750	-0.36226103	3.56625819
0.05618247	-0.34570628	3.56625581
