//X	Y	Z
-0.51206279	0.46541804	4.56749105
-0.51631415	0.46044010	4.56746817
-0.62006927	0.32555369	4.56686640
-0.62361366	0.32124299	4.56684637
-0.62479794	0.31976739	4.56683969
-0.62730908	0.31662530	4.56682539
-0.64558142	0.29201704	4.56671715
-0.64800566	0.28854269	4.56670237
-0.65465373	0.26244050	4.56661701
-0.65530622	0.25507429	4.56659603
-0.65540326	0.25294054	4.56658983
-0.65492272	0.23322903	4.56653833
-0.65464979	0.23217615	4.56653595
-0.65378481	0.22942500	4.56653070
-0.65254462	0.22655159	4.56652594
-0.65164673	0.22529499	4.56652451
-0.65162390	0.22432363	4.56652212
-0.65087003	0.22052595	4.56651354
-0.64906538	0.21812871	4.56651115
-0.64818245	0.21073705	4.56649351
-0.63377142	0.03879905	4.56606627
-0.63395190	0.03831652	4.56606483
-0.63469684	0.03735787	4.56606007
-0.63488603	0.03675944	4.56605816
-0.63567781	0.03539348	4.56605291
-0.63600099	0.03471994	4.56605005
-0.63649583	0.03367981	4.56604624
-0.63721305	0.03054664	4.56603622
-0.63778603	0.02995458	4.56603336
-0.63819945	0.02978542	4.56603193
-0.63832271	0.02730399	4.56602478
-0.63924462	0.02718189	4.56602240
-0.63948435	0.02485710	4.56601572
-0.64015633	0.02465349	4.56601381
-0.64088732	0.02260762	4.56600666
-0.64188230	0.02173045	4.56600189
-0.64254397	0.01912057	4.56599331
-0.64316744	0.01680216	4.56598568
-0.64440387	0.01612237	4.56598091
-0.64458442	0.01563990	4.56597900
-0.64479262	0.01245967	4.56597042
-0.64574927	0.00700176	4.56595325
-0.64635170	0.00623417	4.56594992
-0.64662933	0.00361791	4.56594229
-0.64729095	0.00100806	4.56593370
-0.64759660	0.00056633	4.56593180
-0.64754081	-0.00378263	4.56592035
-0.64781845	-0.00639889	4.56591272
-0.64867443	-0.00840408	4.56590509
-0.64885497	-0.00888652	4.56590366
-0.64906323	-0.01206681	4.56589460
-0.64914995	-0.01660675	4.56588221
-0.64945698	-0.01939857	4.56587410
-0.64986426	-0.03051531	4.56584311
-0.65110946	-0.05802211	4.56576681
-0.64966190	-0.06980979	4.56573868
-0.64918065	-0.07255459	4.56573248
-0.64856565	-0.07522434	4.56572676
-0.64617348	-0.08298901	4.56571150
-0.64084923	-0.09942093	4.56567955
-0.63734752	-0.10881516	4.56566238
-0.62789136	-0.12630379	4.56563759
-0.62606418	-0.12967241	4.56563282
-0.61910617	-0.14164591	4.56561708
-0.61542380	-0.14568543	4.56561470
-0.60801268	-0.15335715	4.56561136
-0.59760392	-0.16183460	4.56561279
-0.59017372	-0.16692454	4.56561613
-0.58556592	-0.16952287	4.56561995
-0.58167040	-0.17158531	4.56562328
-0.56912893	-0.17811748	4.56563520
-0.56383181	-0.18028045	4.56564140
-0.56172669	-0.18103278	4.56564426
-0.55735373	-0.18228690	4.56565094
-0.55232048	-0.18328115	4.56566000
-0.49513975	-0.19179897	4.56576967
-0.49279863	-0.19154562	4.56577587
-0.49210912	-0.19111024	4.56577873
-0.48943990	-0.19138645	4.56578398
-0.48524374	-0.19180401	4.56579256
-0.48422593	-0.19189824	4.56579494
-0.48348966	-0.19105543	4.56579876
-0.48107916	-0.19136609	4.56580353
-0.47750849	-0.19157983	4.56581116
-0.47529227	-0.19128576	4.56581688
-0.47223905	-0.19156839	4.56582355
-0.30160928	-0.20652480	4.56617880
-0.29869837	-0.20699850	4.56618404
-0.29811150	-0.20749363	4.56618404
-0.29736122	-0.20773818	4.56618500
-0.29650646	-0.20808306	4.56618643
-0.29449725	-0.20861912	4.56618929
-0.29391029	-0.20911434	4.56618929
-0.29331446	-0.20949361	4.56618977
-0.29002845	-0.21008952	4.56619596
-0.28955770	-0.21042809	4.56619596
-0.28880751	-0.21067257	4.56619692
-0.28619373	-0.21147205	4.56620121
-0.28560656	-0.21196723	4.56620121
-0.28350168	-0.21271962	4.56620407
-0.28223374	-0.21289530	4.56620646
-0.28114668	-0.21355350	4.56620741
-0.27861089	-0.21390492	4.56621218
-0.27802396	-0.21440011	4.56621218
-0.27600580	-0.21482028	4.56621552
-0.27453476	-0.21548480	4.56621742
-0.27317119	-0.21587683	4.56621933
-0.27203721	-0.21612771	4.56622124
-0.27064431	-0.21634410	4.56622410
-0.27069122	-0.21675146	4.56622267
-0.26833621	-0.21758536	4.56622601
-0.26597232	-0.21830334	4.56622982
-0.26508841	-0.21847267	4.56623125
-0.26374239	-0.21909648	4.56623268
-0.26353920	-0.21958537	4.56623173
-0.26110584	-0.22086734	4.56623411
-0.23118688	-0.22354575	4.56629610
-0.21029392	-0.22530124	4.56633997
-0.20901735	-0.22536100	4.56634283
-0.20527478	-0.22520822	4.56635189
-0.18407649	-0.22164968	4.56641054
-0.17503569	-0.21792878	4.56644106
-0.15953569	-0.21094160	4.56649590
-0.09827664	-0.17501155	4.56673384
0.02316854	-0.09446834	4.56723118
0.08202533	-0.05496433	4.56747341
0.10052114	-0.04138860	4.56755257
0.16785868	0.04470079	4.56793928
0.17435864	0.05633961	4.56798553
0.19663437	0.10658151	4.56817150
0.20079125	0.11899799	4.56821442
0.21431491	0.16871132	4.56837893
0.21592434	0.17666321	4.56840420
0.21906637	0.19536515	4.56846142
0.22414428	0.22888379	4.56856298
0.22718723	0.27955753	4.56870556
0.22702031	0.28285998	4.56871414
0.21933472	0.33480215	4.56883574
0.21298322	0.36095679	4.56889105
0.20887996	0.37680566	4.56892395
0.20700225	0.38332009	4.56893682
0.18392226	0.43837929	4.56903124
0.16366482	0.46910810	4.56906652
0.15821949	0.47715539	4.56907558
0.13459815	0.50405592	4.56909275
0.13044186	0.50860614	4.56909513
0.12422761	0.51431608	4.56909609
0.09829131	0.53494757	4.56909132
0.06706692	0.55447686	4.56907129
0.06161331	0.55753613	4.56906700
-0.00869375	0.59388918	4.56900120
-0.01138580	0.59513676	4.56899834
-0.01188594	0.59529972	4.56899786
-0.03074211	0.59921688	4.56896448
-0.04962751	0.60295844	4.56893063
-0.08679056	0.61000609	4.56886387
-0.10535648	0.61310220	4.56882906
-0.16100705	0.61792552	4.56871271
-0.16702646	0.61815852	4.56869984
-0.17149879	0.61830986	4.56868982
-0.20650762	0.61910921	4.56861067
-0.24132931	0.61666578	4.56852341
-0.28182167	0.60338205	4.56839418
-0.30206481	0.59656799	4.56832886
-0.33563414	0.58506513	4.56822014
-0.36404377	0.57361978	4.56812382
-0.37660727	0.56650668	4.56807566
-0.42121959	0.54023904	4.56790209
-0.43733570	0.53019041	4.56783772
-0.49624926	0.48121610	4.56757021
