//X	Y	Z
-0.65556389	-0.21757695	5.40694952
-0.65526211	-0.20617048	5.40694952
-0.65507692	-0.19684172	5.40694952
-0.65477556	-0.16986173	5.40694904
-0.66841340	-0.12612316	5.40694904
-0.66982663	-0.12191469	5.40694904
-0.67257750	-0.12228505	5.40694904
-0.68282050	-0.09730467	5.40694857
-0.68326640	-0.09626283	5.40694857
-0.68630850	-0.09484977	5.40694857
-0.80672872	0.01742561	5.40694809
-0.82937294	0.03924133	5.40694761
-0.83480608	0.04575171	5.40694761
-0.83517450	0.04716436	5.40694761
-0.83686614	0.05222626	5.40694761
-0.83715731	0.05400964	5.40694761
-0.83859360	0.05687034	5.40694761
-0.83935332	0.05834779	5.40694761
-0.83960873	0.06054903	5.40694761
-0.84509629	0.06803645	5.40694761
-0.85679257	0.08315259	5.40694761
-0.85769624	0.08616625	5.40694761
-0.85720384	0.08782000	5.40694761
-0.85762632	0.09020966	5.40694761
-0.85422742	0.09601839	5.40694761
-0.85446566	0.10003242	5.40694714
-0.85664481	0.10618332	5.40694714
-0.85610825	0.11228673	5.40694714
-0.85849476	0.12012681	5.40694714
-0.85377133	0.13465196	5.40694714
-0.85389209	0.13753602	5.40694714
-0.85021168	0.14073727	5.40694714
-0.85198677	0.14589341	5.40694714
-0.85248649	0.14791232	5.40694714
-0.85222149	0.15119648	5.40694714
-0.85059232	0.15399195	5.40694714
-0.84965712	0.15635787	5.40694666
-0.84763175	0.16183123	5.40694666
-0.84718388	0.16528609	5.40694666
-0.84592313	0.16949420	5.40694666
-0.84489197	0.17083596	5.40694666
-0.84433585	0.17233677	5.40694666
-0.84423524	0.17405534	5.40694666
-0.84392226	0.17682743	5.40694666
-0.84375787	0.17839307	5.40694666
-0.84544349	0.18299000	5.40694666
-0.83860713	0.19327131	5.40694666
-0.83745956	0.19669074	5.40694666
-0.83681393	0.19763234	5.40694666
-0.83525002	0.19912714	5.40694666
-0.83183020	0.20178691	5.40694666
-0.83335596	0.20520675	5.40694666
-0.83290553	0.20690764	5.40694666
-0.83264524	0.20744909	5.40694666
-0.83309102	0.20849094	5.40694666
-0.83142042	0.21123931	5.40694618
-0.83089274	0.22422302	5.40694618
-0.82993889	0.22519404	5.40694618
-0.82687759	0.23009053	5.40694618
-0.82649207	0.23049070	5.40694618
-0.82619250	0.23740046	5.40694618
-0.82426769	0.24115524	5.40694618
-0.82084697	0.26243156	5.40694618
-0.81944263	0.26510340	5.40694618
-0.82045180	0.26831713	5.40694571
-0.81827164	0.26987070	5.40694571
-0.81868792	0.27179539	5.40694571
-0.81775391	0.27736896	5.40694571
-0.81943452	0.28470868	5.40694571
-0.81800938	0.29048240	5.40694571
-0.81869829	0.29279554	5.40694571
-0.81041211	0.29607850	5.40694571
-0.80847007	0.30164608	5.40694571
-0.80839664	0.30697858	5.40694571
-0.80672610	0.30972689	5.40694571
-0.80477059	0.31115684	5.40694571
-0.80592734	0.32552984	5.40694523
-0.80496728	0.32603586	5.40694523
-0.80683947	0.33542389	5.40694523
-0.80668515	0.35798964	5.40694523
-0.80552876	0.35919011	5.40694523
-0.80642748	0.36494648	5.40694523
-0.80713487	0.36865452	5.40694523
-0.80822754	0.37196252	5.40694523
-0.81336761	0.38584754	5.40694475
-0.86722565	0.50055581	5.40694427
-0.88484770	0.52052867	5.40694380
-0.91032499	0.54352188	5.40694380
-0.98098648	0.54622781	5.40694380
-0.98164427	0.54621613	5.40694380
-0.98702729	0.54579908	5.40694380
-0.98924911	0.54429257	5.40694380
-0.99195856	0.54387510	5.40694380
-0.99611247	0.54228652	5.40694380
-0.99907565	0.54086262	5.40694380
-1.00238883	0.53945649	5.40694380
-1.00478387	0.53860348	5.40694380
-1.00627661	0.53794438	5.40694380
-1.01228642	0.53519088	5.40694427
-1.02100980	0.53073066	5.40694427
-1.02248645	0.53043079	5.40694427
-1.02440619	0.52941871	5.40694427
-1.02462482	0.52883011	5.40694427
-1.02663457	0.52837729	5.40694427
-1.02901101	0.52612936	5.40694427
-1.03027904	0.52559388	5.40694427
-1.03065813	0.52472883	5.40694427
-1.03969443	0.51749653	5.40694427
-1.04351568	0.51407743	5.40694427
-1.04545128	0.50804496	5.40694427
-1.04808807	0.50525552	5.40694427
-1.05096197	0.50327247	5.40694427
-1.05385876	0.49994156	5.40694427
-1.05561304	0.49728739	5.40694427
-1.05679750	0.49665779	5.40694427
-1.05670655	0.49289092	5.40694427
-1.06039786	0.48741192	5.40694427
-1.06450140	0.47889590	5.40694475
-1.06687903	0.46894351	5.40694475
-1.06719816	0.46663636	5.40694475
-1.06714284	0.46245164	5.40694475
-1.06921828	0.45299363	5.40694475
-1.05728126	0.43210945	5.40694475
-1.05418241	0.42330402	5.40694523
-1.05141401	0.40991372	5.40694523
-1.05230033	0.40382800	5.40694523
-1.05292141	0.40102649	5.40694523
-1.05228889	0.39519358	5.40694523
-1.05237710	0.39254510	5.40694523
-1.05016494	0.37765399	5.40694523
-1.05034661	0.37427557	5.40694523
-1.05061173	0.37099141	5.40694523
-1.17696226	0.28152966	5.40694618
-1.23251212	0.34062427	5.40694571
-1.24216712	0.35066071	5.40694571
-1.25359333	0.35623035	5.40694571
-1.28116167	0.45961070	5.40694523
-1.28195238	0.46341294	5.40694523
-1.29721332	0.46970114	5.40694475
-1.29758310	0.47432140	5.40694475
-1.30026889	0.47525179	5.40694475
-1.30206740	0.47906008	5.40694475
-1.30528140	0.48258013	5.40694475
-1.30559564	0.48301572	5.40694475
-1.30811727	0.48551166	5.40694475
-1.30838954	0.48590019	5.40694475
-1.30998409	0.48673025	5.40694475
-1.31882143	0.49560136	5.40694475
-1.32006037	0.49594867	5.40694475
-1.32147217	0.49694949	5.40694475
-1.32373083	0.49823290	5.40694475
-1.32872188	0.49775106	5.40694475
-1.34160280	0.49666405	5.40694475
-1.34596705	0.49851868	5.40694475
-1.34759712	0.49893093	5.40694475
-1.34827363	0.50031412	5.40694475
-1.35039735	0.50228029	5.40694475
-1.35882580	0.50198722	5.40694475
-1.35948980	0.50244051	5.40694475
-1.35957956	0.50299966	5.40694475
-1.36426878	0.50301224	5.40694475
-1.36519945	0.50338894	5.40694475
-1.37078965	0.50466114	5.40694475
-1.37223697	0.50524402	5.40694475
-1.37250936	0.50563252	5.40694475
-1.37483323	0.50561517	5.40694475
-1.37743568	0.50645137	5.40694475
-1.38046527	0.50693440	5.40694475
-1.38345313	0.50737035	5.40694475
-1.39234459	0.50630635	5.40694475
-1.40386641	0.50198793	5.40694475
-1.41717064	0.49558619	5.40694475
-1.42281258	0.49141997	5.40694523
-1.42210054	0.49045461	5.40694523
-1.42853379	0.48238629	5.40694523
-1.42943358	0.48043823	5.40694523
-1.43011487	0.47907874	5.40694523
-1.43107963	0.47583002	5.40694523
-1.43237114	0.47394681	5.40694523
-1.43552220	0.46960944	5.40694523
-1.43556869	0.46691385	5.40694523
-1.43655217	0.46505997	5.40694523
-1.43639588	0.46259379	5.40694523
-1.43865228	0.45746183	5.40694523
-1.43941104	0.45573157	5.40694523
-1.43921936	0.45368326	5.40694523
-1.43985271	0.45181173	5.40694523
-1.44155288	0.44818053	5.40694523
-1.44281948	0.44443744	5.40694523
-1.44336331	0.44200671	5.40694523
-1.44439316	0.43745726	5.40694523
-1.44691563	0.43224877	5.40694571
-1.44611418	0.43072420	5.40694571
-1.44774890	0.42839372	5.40694571
-1.44674504	0.42243731	5.40694571
-1.44833815	0.42005977	5.40694571
-1.45059443	0.41492772	5.40694571
-1.44952512	0.41027200	5.40694571
-1.45108163	0.40510458	5.40694571
-1.45359182	0.39896613	5.40694571
-1.45517910	0.39612356	5.40694571
-1.45548081	0.39562923	5.40694571
-1.45994163	0.39080358	5.40694571
-1.45922351	0.38937321	5.40694571
-1.45989859	0.38754880	5.40694571
-1.46049047	0.38563013	5.40694571
-1.46113598	0.38468847	5.40694571
-1.46113479	0.38148081	5.40694571
-1.46131647	0.37810242	5.40694618
-1.46142316	0.37684885	5.40694618
-1.46232915	0.37536573	5.40694618
-1.46205556	0.37176961	5.40694618
-1.46255112	0.36882675	5.40694618
-1.46393228	0.36750272	5.40694618
-1.59197009	0.25165558	5.40694714
-1.59488666	0.25292733	5.40694714
-1.60093224	0.24975587	5.40694714
-1.60185051	0.24920270	5.40694714
-1.60415602	0.24779049	5.40694714
-1.60742736	0.24633722	5.40694714
-1.60942471	0.24495436	5.40694714
-1.61209226	0.24448976	5.40694714
-1.61288500	0.24379534	5.40694714
-1.61405361	0.24352485	5.40694714
-1.61493039	0.24292454	5.40694714
-1.61619198	0.24192420	5.40694714
-1.61827898	0.24110052	5.40694714
-1.62273502	0.23901758	5.40694714
-1.62438834	0.23808205	5.40694714
-1.62565029	0.23708163	5.40694714
-1.62731016	0.23661101	5.40694714
-1.62973464	0.23487514	5.40694714
-1.63030303	0.23430428	5.40694714
-1.63485944	0.23050280	5.40694761
-1.63616931	0.23001446	5.40694761
-1.64108825	0.22716060	5.40694761
-1.64281297	0.22538929	5.40694761
-1.65952933	0.20174304	5.40694761
-1.66430354	0.19414528	5.40694761
-1.66968083	0.18555880	5.40694761
-1.67363715	0.17679562	5.40694809
-1.67379308	0.16834965	5.40694809
-1.67329812	0.16358803	5.40694809
-1.66773105	0.15005602	5.40694809
-1.66150582	0.14744775	5.40694809
-1.65913284	0.14374535	5.40694809
-1.65717614	0.14196759	5.40694809
-1.65406787	0.13864754	5.40694809
-1.65168273	0.13401517	5.40694809
-1.65101242	0.13309690	5.40694809
-1.64894736	0.12936507	5.40694809
-1.64252210	0.11782817	5.40694809
-1.64024019	0.11789259	5.40694809
-1.63803899	0.11629722	5.40694809
-1.63652802	0.11556130	5.40694857
-1.63517630	0.11600254	5.40694809
-1.63423991	0.11516076	5.40694857
-1.63105416	0.11221152	5.40694857
-1.63007569	0.11132264	5.40694857
-1.62802947	0.10898568	5.40694857
-1.62470257	0.10625429	5.40694857
-1.62278759	0.10452364	5.40694857
-1.61965597	0.10255140	5.40694857
-1.61474681	0.09991986	5.40694857
-1.61443269	0.09948426	5.40694857
-1.59492838	0.06003550	5.40694857
-1.59015417	0.05672110	5.40694857
-1.58848703	0.05351909	5.40694857
-1.58656108	0.05406618	5.40694857
-1.58318639	0.05082265	5.40694857
-1.58141875	0.04933919	5.40694857
-1.57510877	0.03251691	5.40694904
-1.56820238	0.03126813	5.40694904
-1.56724727	0.02903146	5.40694904
-1.56649351	0.02801903	5.40694904
-1.56420398	0.02441077	5.40694904
-1.56175506	0.02428677	5.40694904
-1.55955517	0.02123771	5.40694904
-1.55607390	0.01924777	5.40694904
-1.55342805	0.01515687	5.40694904
-1.55176127	0.01195481	5.40694904
-1.54516637	-0.00618587	5.40694904
-1.50319874	-0.16890202	5.40695047
-1.49476457	-0.20326392	5.40695047
-1.49443197	-0.20509446	5.40695095
-1.49304330	-0.20744297	5.40695095
-1.48593068	-0.21808538	5.40695095
-1.47033298	-0.23116578	5.40695095
-1.38661504	-0.30052912	5.40695143
-1.36484146	-0.31249785	5.40695143
-1.35630977	-0.31690162	5.40695143
-1.28709412	-0.34405655	5.40695143
-1.26935458	-0.34958589	5.40695143
-1.25579000	-0.35355484	5.40695143
-1.21973240	-0.36321840	5.40695143
-1.21829116	-0.36333638	5.40695143
-1.21724153	-0.36338952	5.40695143
-1.04512572	-0.36298501	5.40695143
-1.04219782	-0.36197895	5.40695143
-1.02371562	-0.35988638	5.40695143
-1.01691747	-0.35918108	5.40695143
-1.01447463	-0.35884005	5.40695143
-1.01096630	-0.35819307	5.40695143
-0.99232090	-0.35132718	5.40695143
-0.98905563	-0.34940892	5.40695095
-0.96320552	-0.34458646	5.40695095
-0.79968172	-0.32742417	5.40695095
-0.78740472	-0.32732591	5.40695095
-0.77911633	-0.33045831	5.40695095
-0.77086312	-0.33400854	5.40695095
-0.75802398	-0.33287442	5.40695095
-0.75105274	-0.33282253	5.40695047
-0.74973047	-0.33326411	5.40695047
-0.73846143	-0.33315986	5.40695047
-0.72026449	-0.31883672	5.40695047
-0.70946330	-0.30667257	5.40695047
-0.70475447	-0.30037552	5.40695047
-0.68240368	-0.26889041	5.40695000
-0.67370170	-0.25661993	5.40695000
-0.66043711	-0.23010096	5.40694952
