//X	Y	Z
-0.39389893	0.51427615	4.49914360
-0.41270852	0.45660359	4.49913931
-0.41486210	0.44678235	4.49913836
-0.41462484	0.44143289	4.49913788
-0.41335207	0.41870034	4.49913645
-0.41212532	0.41176289	4.49913597
-0.41057619	0.40604326	4.49913549
-0.40662420	0.39962173	4.49913549
-0.40542471	0.39806291	4.49913549
-0.40422529	0.39650396	4.49913502
-0.40261614	0.39507121	4.49913502
-0.39805102	0.39404792	4.49913502
-0.39230108	0.38911742	4.49913502
-0.39027691	0.38787991	4.49913502
-0.38844746	0.38640845	4.49913502
-0.38632566	0.38401139	4.49913502
-0.38150764	0.37743402	4.49913454
-0.37779278	0.37636200	4.49913454
-0.37609103	0.37390664	4.49913454
-0.37318566	0.37230837	4.49913454
-0.37227863	0.37167501	4.49913454
-0.37047997	0.37061304	4.49913454
-0.36329061	0.36629626	4.49913454
-0.36214274	0.36528260	4.49913454
-0.35816634	0.36369446	4.49913454
-0.35406160	0.36053729	4.49913454
-0.35059807	0.35991338	4.49913454
-0.34705228	0.35833478	4.49913454
-0.34657568	0.35771096	4.49913454
-0.34389544	0.35628837	4.49913454
-0.34008309	0.35405684	4.49913406
-0.33902261	0.35413474	4.49913454
-0.33549219	0.35276082	4.49913454
-0.33046579	0.35131845	4.49913454
-0.32756025	0.34972030	4.49913454
-0.32372206	0.34721607	4.49913454
-0.32137480	0.34464344	4.49913406
-0.29642096	0.17517859	4.49912310
-0.29801214	0.16874778	4.49912262
-0.29833296	0.16242397	4.49912214
-0.29799944	0.16102099	4.49912214
-0.29742509	0.15923768	4.49912214
-0.29502550	0.15356684	4.49912167
-0.26835951	0.09274486	4.49911833
-0.26717472	0.08883765	4.49911833
-0.26766002	0.08442351	4.49911785
-0.26798236	0.08320567	4.49911785
-0.26993889	0.08114010	4.49911785
-0.27052617	0.07546940	4.49911737
-0.27040106	0.06893134	4.49911690
-0.27104080	0.06635872	4.49911642
-0.27143431	0.06347480	4.49911642
-0.27126455	0.06142840	4.49911642
-0.27144805	0.05857366	4.49911594
-0.27139148	0.05789155	4.49911594
-0.27140525	0.05299044	4.49911547
-0.27182463	0.05037904	4.49911547
-0.27178177	0.04479578	4.49911499
-0.27202183	0.04262319	4.49911499
-0.27167210	0.03846252	4.49911451
-0.27109772	0.03667924	4.49911451
-0.26977423	0.03113505	4.49911404
-0.26668712	0.02231663	4.49911356
-0.26695290	0.02041674	4.49911356
-0.26633734	0.01815602	4.49911356
-0.26650625	0.01764950	4.49911356
-0.26536095	0.00911385	4.49911261
-0.26487163	0.00076321	4.49911213
-0.26187366	-0.00185770	4.49911213
-0.24222749	-0.01231387	4.49911213
-0.23979858	-0.01328820	4.49911213
-0.23352742	-0.01435083	4.49911213
-0.23013592	-0.01408786	4.49911213
-0.22395192	-0.01405871	4.49911261
-0.22220477	-0.01457542	4.49911261
-0.20691708	-0.01376733	4.49911308
-0.20373541	-0.01353341	4.49911308
-0.19849989	-0.01239371	4.49911356
-0.19379139	-0.01263770	4.49911356
-0.19294094	-0.01258895	4.49911356
-0.19143462	-0.01272529	4.49911356
-0.18993868	-0.01279375	4.49911356
-0.18712069	-0.01330039	4.49911356
-0.18161832	-0.01281348	4.49911404
-0.18030661	-0.01318377	4.49911404
-0.17902070	-0.01328143	4.49911404
-0.17520909	-0.01296011	4.49911404
-0.17328274	-0.01303816	4.49911404
-0.17110500	-0.01356429	4.49911404
-0.16860510	-0.01287264	4.49911451
-0.16773923	-0.01302862	4.49911451
-0.16473693	-0.01323348	4.49911451
-0.16158120	-0.01272696	4.49911451
-0.15943426	-0.01284361	4.49911451
-0.15472600	-0.01308772	4.49911451
-0.15241043	-0.01269796	4.49911499
-0.14986917	-0.01248363	4.49911499
-0.14671342	-0.01197717	4.49911499
-0.14505367	-0.01140219	4.49911499
-0.14295843	-0.01097369	4.49911547
-0.13878313	-0.00991178	4.49911547
-0.13093452	-0.00944471	4.49911594
-0.12461255	-0.00849953	4.49911594
-0.12398248	-0.00841209	4.49911594
-0.11999168	-0.00765210	4.49911642
-0.11695836	-0.00826627	4.49911642
-0.11567752	-0.00822711	4.49911642
-0.11503202	-0.00834432	4.49911642
-0.11288528	-0.00846106	4.49911642
-0.10875051	-0.00947484	4.49911642
-0.10724427	-0.00961122	4.49911642
-0.10615288	-0.00994277	4.49911642
-0.10315044	-0.01014748	4.49911642
-0.10225883	-0.01057604	4.49911642
-0.10098828	-0.01046896	4.49911642
-0.09946658	-0.01081008	4.49911642
-0.09796028	-0.01094645	4.49911690
-0.09452251	-0.01129767	4.49911690
-0.09365663	-0.01145363	4.49911690
-0.08561751	-0.01316863	4.49911690
-0.08340908	-0.01410437	4.49911690
-0.08093920	-0.01555625	4.49911690
-0.08026793	-0.01594612	4.49911690
-0.07982194	-0.01616028	4.49911690
-0.07868946	-0.01696917	4.49911690
-0.07762899	-0.01689127	4.49911690
-0.07718316	-0.01710555	4.49911690
-0.07473898	-0.01828477	4.49911690
-0.07252027	-0.01928839	4.49911690
-0.06984034	-0.02071106	4.49911690
0.06353381	-0.12794751	4.49911356
0.06698366	-0.13347247	4.49911356
0.06905037	-0.14029342	4.49911308
0.06882659	-0.14522369	4.49911261
0.07033373	-0.14791295	4.49911261
0.07166167	-0.15104094	4.49911213
0.07211865	-0.15387610	4.49911213
0.07432444	-0.16233376	4.49911165
0.07829197	-0.16895992	4.49911118
0.08174089	-0.17193204	4.49911118
0.08161399	-0.17546883	4.49911070
0.08609423	-0.18305936	4.49911070
0.08871844	-0.18635283	4.49911022
0.09018442	-0.18856478	4.49911022
0.09490386	-0.19142969	4.49911022
0.09669228	-0.19242378	4.49911022
0.09790704	-0.19418749	4.49911022
0.10678697	-0.19833888	4.49911022
0.12782559	-0.20501408	4.49911022
0.13427529	-0.20308502	4.49911070
0.15136690	-0.18829487	4.49911213
0.15346132	-0.18531346	4.49911261
0.15355842	-0.18391989	4.49911261
0.15488467	-0.18194196	4.49911261
0.15887885	-0.17621294	4.49911308
0.27524576	-0.05140062	4.49912548
0.28232384	-0.04427814	4.49912643
0.28779706	-0.03330690	4.49912739
0.28735131	-0.03309260	4.49912739
0.28786656	-0.02653500	4.49912786
0.28817284	-0.02255934	4.49912786
0.28929254	-0.01564160	4.49912834
0.32805502	0.12918846	4.49913979
0.32868433	0.13182886	4.49913979
0.32865688	0.13720737	4.49914026
0.32878309	0.14329731	4.49914074
0.37739211	0.30536333	4.49915314
0.37820160	0.30588961	4.49915361
0.37853935	0.30690271	4.49915361
0.37931785	0.30783832	4.49915361
0.37996334	0.30772108	4.49915361
0.38238958	0.31440541	4.49915409
0.38476369	0.32418811	4.49915504
0.38408208	0.32464588	4.49915504
0.36330545	0.34598595	4.49915552
0.35991368	0.34572288	4.49915552
0.35143930	0.34758437	4.49915552
0.34866232	0.34761351	4.49915552
0.34674615	0.34762362	4.49915552
0.34564450	0.34802306	4.49915552
0.33987999	0.35060537	4.49915552
0.33857867	0.35090774	4.49915504
0.33728242	0.35107327	4.49915504
0.33556587	0.35118034	4.49915504
0.33342949	0.35122919	4.49915504
0.33148772	0.35151199	4.49915504
0.33123657	0.35196018	4.49915504
0.32817769	0.35284716	4.49915504
0.32013845	0.35456210	4.49915504
0.31808352	0.35620916	4.49915504
0.31305635	0.36020446	4.49915504
0.30946940	0.36226049	4.49915504
0.30671835	0.36201712	4.49915504
0.30010322	0.36455050	4.49915504
0.29897064	0.36535943	4.49915504
0.29386196	0.36775655	4.49915504
0.29234025	0.36809766	4.49915504
0.29076180	0.36912078	4.49915504
0.28831765	0.37029999	4.49915504
0.28781524	0.37119639	4.49915504
0.28597036	0.37287265	4.49915504
0.28490990	0.37279469	4.49915504
0.28446409	0.37300897	4.49915504
0.28303927	0.37474352	4.49915504
0.28135291	0.37699413	4.49915552
0.27469078	0.38269478	4.49915552
0.26433289	0.39423186	4.49915600
0.26053572	0.39625859	4.49915600
0.25860852	0.39888954	4.49915600
0.25502157	0.40094554	4.49915600
0.25315094	0.40289441	4.49915600
0.25226957	0.40325511	4.49915600
0.25109595	0.40454143	4.49915648
0.25017351	0.40537953	4.49915648
0.24861063	0.40619802	4.49915648
0.24721664	0.40752310	4.49915648
0.24630961	0.40815639	4.49915648
0.24367084	0.40910172	4.49915648
0.24215947	0.40937495	4.49915648
0.23748608	0.41162550	4.49915648
0.23360255	0.41219109	4.49915600
0.23245975	0.41306788	4.49915648
0.22935891	0.41698518	4.49915648
0.22462463	0.41750181	4.49915648
0.22388646	0.41864175	4.49915648
0.22081225	0.41973341	4.49915648
0.20055032	0.59171182	4.49916744
0.20889987	0.59638846	4.49916840
0.21171719	0.59843487	4.49916840
0.21212186	0.59869802	4.49916840
0.22098827	0.60482633	4.49916935
0.22205308	0.60732031	4.49916935
0.22308269	0.60780782	4.49916935
0.22390738	0.60812914	4.49916935
0.22609979	0.60995126	4.49916983
0.23030484	0.61315650	4.49916983
0.23206151	0.61512482	4.49917030
0.23679483	0.61716115	4.49917030
0.23767529	0.61935341	4.49917078
0.24271642	0.62025928	4.49917078
0.24355146	0.62051284	4.49917078
0.24639942	0.62214959	4.49917126
0.25195673	0.62706029	4.49917173
0.25433314	0.62918401	4.49917173
0.25714016	0.63129830	4.49917221
0.25751397	0.63197082	4.49917221
0.25846642	0.63327622	4.49917221
0.25998729	0.63548803	4.49917269
0.26131356	0.63746595	4.49917269
0.26283458	0.63967788	4.49917269
0.26487324	0.64078856	4.49917316
0.26544687	0.64155817	4.49917316
0.26815680	0.64227891	4.49917316
0.27357090	0.64641035	4.49917364
0.27610159	0.64669251	4.49917364
0.27882123	0.64989841	4.49917412
0.28689384	0.65529591	4.49917459
0.29212937	0.65643561	4.49917507
0.30026966	0.65853012	4.49917555
0.30360460	0.65947533	4.49917555
0.30483407	0.66005981	4.49917555
0.30561781	0.66085869	4.49917555
0.31106257	0.66458052	4.49917603
0.31223536	0.66584712	4.49917603
0.31706557	0.66927683	4.49917650
0.31869957	0.67012441	4.49917650
0.32566547	0.67605823	4.49917746
0.32625443	0.67662311	4.49917746
0.32619786	0.67730522	4.49917746
0.32816470	0.67930281	4.49917746
0.32911712	0.68060815	4.49917793
0.33006454	0.68205041	4.49917793
0.33235350	0.68526572	4.49917793
0.33553857	0.69046873	4.49917841
0.33560973	0.69213474	4.49917889
0.33876458	0.69519413	4.49917889
0.33869278	0.69608116	4.49917889
0.34006023	0.69758165	4.49917936
0.33968556	0.69946200	4.49917936
0.33750552	0.70764709	4.49917984
0.33005297	0.71758580	4.49918032
0.32286283	0.72445554	4.49918079
0.31806087	0.72827518	4.49918079
0.31579590	0.72989309	4.49918079
0.30161333	0.73365462	4.49918032
0.29732513	0.73395705	4.49918032
0.29539877	0.73403513	4.49918032
0.28622788	0.73400605	4.49918032
0.27522343	0.73303246	4.49917984
0.27438837	0.73277891	4.49917984
0.26869133	0.73205805	4.49917936
0.26274335	0.73178560	4.49917936
0.25341398	0.73118210	4.49917889
0.25028914	0.73026621	4.49917889
0.24965897	0.73017871	4.49917889
0.24359852	0.72871745	4.49917841
0.23790175	0.72799677	4.49917793
0.23608837	0.72671044	4.49917793
0.23505363	0.72635984	4.49917793
0.23356274	0.72629142	4.49917793
0.23297378	0.72572654	4.49917793
0.23150864	0.72538555	4.49917793
0.22792234	0.72488856	4.49917746
0.22135960	0.72432381	4.49917746
0.21510455	0.72262865	4.49917698
0.20729688	0.72168410	4.49917698
0.20288686	0.71831286	4.49917650
0.20225675	0.71822536	4.49917650
0.19935204	0.71727049	4.49917603
0.19565362	0.71558487	4.49917603
0.19547439	0.71514630	4.49917603
0.19121261	0.71262300	4.49917555
0.19082339	0.71215528	4.49917555
0.18713519	0.71040177	4.49917555
0.18100865	0.70713758	4.49917507
0.17606610	0.70251918	4.49917459
0.17338195	0.70152581	4.49917412
0.16800825	0.69947004	4.49917412
0.16745014	0.69849563	4.49917412
0.16682005	0.69840813	4.49917412
0.16664064	0.69796932	4.49917364
0.16541129	0.69738489	4.49917364
0.16485317	0.69641054	4.49917364
0.16246642	0.69435465	4.49917364
0.16021772	0.69321483	4.49917316
0.15015174	0.68864524	4.49917269
0.14893779	0.68785608	4.49917269
0.14519304	0.68678468	4.49917221
0.14178680	0.68417335	4.49917221
0.14078286	0.68341333	4.49917221
0.13888225	0.68321872	4.49917221
0.13691556	0.68122119	4.49917173
0.13308921	0.67855155	4.49917126
0.13245916	0.67846411	4.49917126
0.13003124	0.67688560	4.49917126
0.12203143	0.66804832	4.49917030
0.12047975	0.66624594	4.49917030
0.11989570	0.66554415	4.49917030
0.11810822	0.66398525	4.49916983
0.11331914	0.66007817	4.49916935
0.11249441	0.65975678	4.49916935
0.10597432	0.65360868	4.49916887
0.10305521	0.65030581	4.49916840
0.10188241	0.64903921	4.49916840
0.10156009	0.64782143	4.49916840
0.09969030	0.64721727	4.49916840
0.09942435	0.64531720	4.49916792
0.09592137	0.64131254	4.49916792
0.09534785	0.64054292	4.49916744
0.09161925	0.63671374	4.49916744
0.08842311	0.63413179	4.49916697
0.08472028	0.63003004	4.49916649
0.08454106	0.62959135	4.49916649
0.08015678	0.62594742	4.49916601
0.07898381	0.62468076	4.49916601
0.07842570	0.62370634	4.49916601
0.07604928	0.62158263	4.49916553
0.07385707	0.61976063	4.49916553
0.07352449	0.61861074	4.49916553
0.07193135	0.61728561	4.49916553
-0.09834877	0.59057593	4.49915838
-0.10181318	0.59375274	4.49915838
-0.10389385	0.59567243	4.49915838
-0.10524670	0.59652007	4.49915838
-0.10706095	0.59778666	4.49915838
-0.10887501	0.59905338	4.49915838
-0.10936702	0.59988201	4.49915838
-0.11116567	0.60094392	4.49915838
-0.11164229	0.60156775	4.49915838
-0.11532697	0.60478318	4.49915838
-0.11598282	0.60496843	4.49915838
-0.11696183	0.60648865	4.49915886
-0.11785346	0.60691720	4.49915886
-0.12059077	0.61157495	4.49915886
-0.12374312	0.61603755	4.49915934
-0.12466551	0.61687559	4.49915934
-0.12604931	0.61813271	4.49915934
-0.12787879	0.61960417	4.49915934
-0.13052875	0.62317032	4.49915934
-0.13142541	0.62373579	4.49915934
-0.13295829	0.62669772	4.49915981
-0.13413192	0.62798405	4.49915981
-0.13827783	0.63161862	4.49915981
-0.13899106	0.63503873	4.49915981
-0.14002243	0.63965726	4.49916029
-0.14189304	0.64160609	4.49916029
-0.14296895	0.64173293	4.49916029
-0.14445035	0.64414954	4.49916029
-0.14587519	0.64588404	4.49916029
-0.14886290	0.64843714	4.49916077
-0.15025689	0.64976215	4.49916077
-0.15198943	0.65262699	4.49916077
-0.15391667	0.65525794	4.49916077
-0.15730920	0.65754777	4.49916077
-0.15736558	0.65823001	4.49916077
-0.15910870	0.66116267	4.49916124
-0.15982111	0.66202998	4.49916124
-0.16121507	0.66335499	4.49916124
-0.16370124	0.66756451	4.49916124
-0.16543379	0.67042935	4.49916172
-0.16565481	0.67302114	4.49916172
-0.16657729	0.67385924	4.49916172
-0.16781865	0.67844856	4.49916220
-0.17309722	0.68289196	4.49916220
-0.17460436	0.68558121	4.49916220
-0.17496851	0.68739378	4.49916267
-0.17547087	0.68829024	4.49916267
-0.17595780	0.68898189	4.49916267
-0.17704917	0.68931347	4.49916267
-0.17792621	0.69209027	4.49916267
-0.18112475	0.69716704	4.49916315
-0.18189375	0.69871646	4.49916315
-0.18440500	0.70064557	4.49916315
-0.18684983	0.70437777	4.49916315
-0.19008890	0.70737892	4.49916315
-0.19061702	0.70854801	4.49916363
-0.19180605	0.71003902	4.49916363
-0.19261621	0.71206582	4.49916363
-0.19575733	0.71390760	4.49916363
-0.19830954	0.71631414	4.49916363
-0.19861732	0.71744448	4.49916363
-0.20664766	0.72419751	4.49916410
-0.20911753	0.72564942	4.49916410
-0.20998344	0.72580540	4.49916410
-0.21208982	0.72799766	4.49916410
-0.21674258	0.73011249	4.49916410
-0.21917129	0.73108703	4.49916410
-0.22024727	0.73121381	4.49916410
-0.22485358	0.73271453	4.49916410
-0.23092514	0.73387402	4.49916410
-0.23462442	0.73474139	4.49916363
-0.23785217	0.73512179	4.49916363
-0.23998857	0.73517072	4.49916363
-0.24170506	0.73527777	4.49916363
-0.24488655	0.73504394	4.49916363
-0.24861585	0.73376775	4.49916315
-0.25026524	0.73312497	4.49916315
-0.26027474	0.72787333	4.49916267
-0.26329163	0.72573006	4.49916220
-0.26319391	0.72457051	4.49916220
-0.26390547	0.72288477	4.49916220
-0.26500642	0.72073120	4.49916172
-0.26524648	0.71855867	4.49916172
-0.26683852	0.71468067	4.49916124
-0.26851285	0.71175754	4.49916124
-0.26865092	0.71084154	4.49916124
-0.26795325	0.70762593	4.49916077
-0.26879251	0.70495629	4.49916077
-0.26919633	0.70214033	4.49916077
-0.26940554	0.69955820	4.49916029
-0.27009138	0.69760001	4.49916029
-0.27147272	0.69119823	4.49915981
-0.27031451	0.69011658	4.49915981
-0.27020133	0.68875229	4.49915981
-0.27003679	0.68684286	4.49915934
-0.26972899	0.68571252	4.49915934
-0.26981050	0.68411434	4.49915934
-0.26961502	0.68179530	4.49915934
-0.26983896	0.67686492	4.49915886
-0.26935181	0.67617327	4.49915886
-0.26957661	0.67379582	4.49915838
-0.26941034	0.66678041	4.49915791
-0.37146351	0.52897877	4.49914551
-0.37394878	0.53063530	4.49914551
-0.37862474	0.52536392	4.49914503
-0.38504854	0.52316236	4.49914455
-0.38758892	0.52039504	4.49914408
-0.39187571	0.51559156	4.49914360
