//X	Y	Z
-1.01107216	0.26627102	1.61368823
-1.01161993	0.26596072	1.61367834
-1.01619887	0.26073164	1.61357951
-1.01880729	0.25335115	1.61349583
-1.02066493	0.23875113	1.61337817
-1.02069783	0.23647495	1.61336350
-1.02012229	0.23134211	1.61334002
-1.01984036	0.23005432	1.61333609
-1.01848769	0.22661814	1.61333430
-1.01748383	0.22545451	1.61334157
-1.01610363	0.22462313	1.61335647
-1.01549911	0.22421828	1.61336267
-1.01452053	0.22430964	1.61337745
-1.01360261	0.22315711	1.61338353
-1.01133811	0.22079712	1.61340165
-1.01030540	0.22033767	1.61341381
-1.00947547	0.21936026	1.61341977
-1.00864565	0.21838273	1.61342573
-1.00686610	0.21679245	1.61344159
-0.98137426	0.17680846	1.61356235
-0.98049641	0.17750901	1.61357951
-0.97594607	0.17359892	1.61362112
-0.97312003	0.17285156	1.61365736
-0.97196764	0.17275697	1.61367345
-0.97015786	0.17360717	1.61370504
-0.96932805	0.17262970	1.61371100
-0.96829283	0.17200613	1.61372209
-0.96786714	0.17211573	1.61372888
-0.96415329	0.16777529	1.61375570
-0.96172774	0.16605042	1.61378014
-0.95962584	0.16534314	1.61380625
-0.95853525	0.16629210	1.61382794
-0.95700002	0.16793746	1.61386037
-0.95172954	0.16643919	1.61392748
-0.95034915	0.16560765	1.61394227
-0.94842100	0.16508639	1.61396694
-0.94626504	0.16382833	1.61399043
-0.93185353	0.15226947	1.61412728
-0.93117583	0.15228765	1.61413729
-0.93052983	0.15215303	1.61414576
-0.93003124	0.15268578	1.61415637
-0.92964447	0.15236095	1.61415994
-0.92860937	0.15173738	1.61417103
-0.92823279	0.15206942	1.61417854
-0.92623663	0.15229964	1.61420894
-0.76618236	0.08930383	1.61613619
-0.76506156	0.08866934	1.61614847
-0.76385760	0.08818809	1.61616302
-0.76397455	0.08765896	1.61615801
-0.76314461	0.08668147	1.61616397
-0.76222920	0.08569308	1.61617100
-0.76105654	0.08467180	1.61618173
-0.76053524	0.08411371	1.61618578
-0.76022422	0.08353017	1.61618662
-0.75965881	0.08307803	1.61619198
-0.75911969	0.08175740	1.61619163
-0.75885522	0.08123203	1.61619222
-0.75816506	0.08081628	1.61619961
-0.75779974	0.07968182	1.61619782
-0.75641966	0.07885043	1.61621273
-0.75627971	0.07828853	1.61621118
-0.75545740	0.07780369	1.61622012
-0.75484794	0.07707051	1.61622441
-0.75419700	0.07660744	1.61623096
-0.75418919	0.07611471	1.61622798
-0.75327611	0.07529047	1.61623609
-0.75284553	0.07507174	1.61624098
-0.75141358	0.07385354	1.61625421
-0.75084305	0.07307296	1.61625755
-0.74963653	0.07242757	1.61627102
-0.74992239	0.07175615	1.61626267
-0.74926621	0.07096460	1.61626732
-0.74667704	0.06932351	1.61629462
-0.74438363	0.06766775	1.61631751
-0.74386489	0.06727395	1.61632264
-0.74295700	0.06677814	1.61633265
-0.74256516	0.06651201	1.61633670
-0.74243295	0.06605574	1.61633575
-0.74221003	0.06564728	1.61633646
-0.74113089	0.06512965	1.61634886
-0.74108422	0.06468435	1.61634684
-0.74086130	0.06427585	1.61634755
-0.74080455	0.06356078	1.61634386
-0.73986876	0.06164569	1.61634552
-0.73898458	0.06011727	1.61634886
-0.73876172	0.05970877	1.61634958
-0.73831117	0.05856352	1.61634898
-0.73709935	0.05758953	1.61636043
-0.73690808	0.05664116	1.61635733
-0.73556435	0.05559817	1.61637032
-0.73521924	0.05539021	1.61637402
-0.73047137	0.05232673	1.61642373
-0.72986680	0.05192189	1.61643004
-0.72904205	0.05127287	1.61643791
-0.72864276	0.05051410	1.61643898
-0.72867173	0.04980992	1.61643422
-0.72801554	0.04901840	1.61643875
-0.72624105	0.04775659	1.61645663
-0.72644120	0.04707425	1.61644948
-0.72552574	0.04608580	1.61645663
-0.72477406	0.04501378	1.61646092
-0.72488368	0.04437920	1.61645532
-0.72435969	0.04365683	1.61645842
-0.72393405	0.04337937	1.61646283
-0.72413170	0.04291987	1.61645710
-0.72361034	0.04236178	1.61646128
-0.72380823	0.04190241	1.61645555
-0.72366571	0.04078925	1.61645067
-0.72356266	0.04040311	1.61644971
-0.72355509	0.03991050	1.61644685
-0.72408760	0.03861487	1.61643100
-0.72377664	0.03803135	1.61643195
-0.72389364	0.03750220	1.61642694
-0.72375637	0.03710465	1.61642647
-0.72287738	0.03590467	1.61643171
-0.72245800	0.03421937	1.61642730
-0.72219104	0.03391688	1.61642933
-0.72251844	0.03297532	1.61641872
-0.72166836	0.03107116	1.61641920
-0.72053003	0.02967429	1.61642706
-0.72093791	0.02880217	1.61641562
-0.72155136	0.02757628	1.61639917
-0.72115451	0.02698170	1.61640120
-0.72075069	0.02666889	1.61640513
-0.72041941	0.02515869	1.61640060
-0.72091293	0.02429749	1.61638808
-0.72049367	0.02261217	1.61638367
-0.71988666	0.02204318	1.61638892
-0.71957308	0.02129535	1.61638880
-0.71918887	0.02074765	1.61639094
-0.71941823	0.02013540	1.61638379
-0.71906817	0.01959914	1.61638558
-0.71951509	0.01867974	1.61637342
-0.71946108	0.01812895	1.61637068
-0.71880740	0.01750162	1.61637628
-0.71875334	0.01695080	1.61637366
-0.71869904	0.01639988	1.61637104
-0.71838570	0.01565214	1.61637092
-0.71764117	0.01468547	1.61637568
-0.71739173	0.01437119	1.61637735
-0.71698767	0.01405823	1.61638129
-0.71710467	0.01352912	1.61637628
-0.71688664	0.01267482	1.61637414
-0.71653897	0.01230273	1.61637688
-0.71660703	0.01155124	1.61637115
-0.71617365	0.01116823	1.61637509
-0.71616125	0.01073432	1.61637259
-0.71589434	0.01004480	1.61637211
-0.71562225	0.00941384	1.61637223
-0.71526951	0.00871328	1.61637294
-0.71451521	0.00747692	1.61637616
-0.71471053	0.00646625	1.61636710
-0.71330994	0.00470804	1.61637640
-0.71312106	0.00392384	1.61637425
-0.71234274	0.00333299	1.61638188
-0.71220315	0.00277129	1.61638045
-0.70877129	-0.00028139	1.61641121
-0.70903707	-0.00187935	1.61639738
-0.70769072	-0.00308660	1.61640942
-0.70749432	-0.00436344	1.61640429
-0.70707744	-0.00588456	1.61640084
-0.70700312	-0.00736206	1.61639273
-0.70739102	-0.00916068	1.61637604
-0.70651197	-0.01036066	1.61638129
-0.70799810	-0.01261551	1.61634576
-0.70778656	-0.01449054	1.61633718
-0.70985699	-0.01726720	1.61628985
-0.71000803	-0.01817206	1.61628211
-0.71089470	-0.02050330	1.61625469
-0.70559794	-0.02515700	1.61630249
-0.70630187	-0.02604366	1.61628687
-0.70516717	-0.02939971	1.61628246
-0.70488763	-0.03052329	1.61627948
-0.70495564	-0.03127474	1.61627376
-0.70515823	-0.03179295	1.61626768
-0.70472503	-0.03217598	1.61627162
-0.70453370	-0.03312435	1.61626840
-0.70463574	-0.03425153	1.61625993
-0.70457655	-0.03513076	1.61625528
-0.70494056	-0.03589679	1.61624527
-0.70471001	-0.03679801	1.61624300
-0.70417857	-0.03762588	1.61624563
-0.70475531	-0.03864031	1.61623096
-0.70487249	-0.03916927	1.61622596
-0.70476931	-0.03994258	1.61622262
-0.70479822	-0.04064678	1.61621785
-0.70426679	-0.04147465	1.61622036
-0.70439529	-0.04347017	1.61620617
-0.70382476	-0.04425076	1.61620951
-0.70548713	-0.04615545	1.61617362
-0.70482850	-0.04711111	1.61617720
-0.70438266	-0.04792807	1.61617863
-0.70449996	-0.04845704	1.61617362
-0.70457304	-0.04888005	1.61616993
-0.70531595	-0.05020111	1.61615098
-0.70551854	-0.05071930	1.61614478
-0.70592916	-0.05142710	1.61613441
-0.70577943	-0.05225860	1.61613142
-0.70531356	-0.05400208	1.61612737
-0.70539171	-0.05448379	1.61612320
-0.70651621	-0.05580845	1.61609876
-0.70649862	-0.05657084	1.61609423
-0.70567119	-0.05738417	1.61610115
-0.70578814	-0.05791329	1.61609614
-0.70628190	-0.05877434	1.61608362
-0.70657289	-0.05911731	1.61607730
-0.70603895	-0.06010934	1.61607885
-0.70670378	-0.06094871	1.61606407
-0.70623803	-0.06269220	1.61606002
-0.70748222	-0.06438172	1.61603141
-0.70629704	-0.06583691	1.61603951
-0.70650238	-0.06619081	1.61603439
-0.70704532	-0.06682937	1.61602259
-0.70642561	-0.06783246	1.61602533
-0.70688272	-0.06848206	1.61601460
-0.70717359	-0.06882502	1.61600828
-0.70785511	-0.07080239	1.61598611
-0.70771515	-0.07136422	1.61598468
-0.70833099	-0.07242595	1.61596918
-0.70831096	-0.07335249	1.61596370
-0.70803398	-0.07431176	1.61596167
-0.70844460	-0.07501955	1.61595142
-0.70891809	-0.07680731	1.61593342
-0.70910573	-0.07792357	1.61592376
-0.70939398	-0.07843086	1.61591637
-0.71033478	-0.08021130	1.61589170
-0.70941931	-0.08119969	1.61589885
-0.71012592	-0.08192204	1.61588407
-0.71061695	-0.08294737	1.61587059
-0.71076822	-0.08385210	1.61586285
-0.71100754	-0.08458174	1.61585486
-0.71148348	-0.08620533	1.61583781
-0.71210194	-0.08710273	1.61582327
-0.71248716	-0.08906567	1.61580551
-0.71297354	-0.09003219	1.61579239
-0.71351361	-0.09083517	1.61577964
-0.71398973	-0.09245859	1.61576259
-0.71451998	-0.09353123	1.61574829
-0.71458805	-0.09428271	1.61574268
-0.71499860	-0.09499053	1.61573231
-0.71540648	-0.09586260	1.61572099
-0.71542042	-0.09716488	1.61571264
-0.71577942	-0.09825933	1.61570060
-0.71659803	-0.09983909	1.61567903
-0.71637523	-0.10024758	1.61567962
-0.71681464	-0.10165957	1.61566448
-0.71631980	-0.10269904	1.61566520
-0.71660823	-0.10320615	1.61565793
-0.71761310	-0.10416602	1.61563742
-0.71739024	-0.10457449	1.61563802
-0.71896446	-0.10665429	1.61560237
-0.72104001	-0.10910247	1.61555707
-0.72192407	-0.11159799	1.61552870
-0.72152483	-0.11235678	1.61552978
-0.72150970	-0.11295497	1.61552632
-0.72179818	-0.11346215	1.61551893
-0.72265327	-0.11525348	1.61549544
-0.72266728	-0.11655575	1.61548710
-0.72336370	-0.11793502	1.61546850
-0.72305512	-0.11835438	1.61547029
-0.72363436	-0.11920466	1.61545670
-0.72399092	-0.12046329	1.61544371
-0.72362804	-0.12143359	1.61544287
-0.72400457	-0.12176567	1.61543536
-0.72474015	-0.12319221	1.61541581
-0.72501099	-0.12446175	1.61540401
-0.72568977	-0.12660336	1.61538088
-0.72538126	-0.12702277	1.61538279
-0.72522128	-0.12851115	1.61537588
-0.72542655	-0.12886503	1.61537063
-0.72514963	-0.12982434	1.61536872
-0.72674143	-0.13114171	1.61533749
-0.72654992	-0.13209021	1.61533439
-0.72659552	-0.13393238	1.61532223
-0.72621000	-0.13599354	1.61531496
-0.72666979	-0.13647887	1.61530530
-0.72668350	-0.13778126	1.61529708
-0.72672909	-0.13962343	1.61528492
-0.72720766	-0.14108270	1.61526895
-0.72666609	-0.14256749	1.61526752
-0.72707659	-0.14327532	1.61525714
-0.72714704	-0.14386258	1.61525249
-0.72717595	-0.14456680	1.61524773
-0.72729313	-0.14509577	1.61524272
-0.72718751	-0.14603317	1.61523843
-0.72780335	-0.14709494	1.61522293
-0.72834492	-0.14963411	1.61519933
-0.72764850	-0.15227881	1.61519289
-0.72840154	-0.15294299	1.61517787
-0.72867239	-0.15421247	1.61516607
-0.72753131	-0.15577364	1.61517286
-0.72811317	-0.15645964	1.61516023
-0.72812450	-0.15792620	1.61515093
-0.72850108	-0.15825830	1.61514342
-0.72851235	-0.15972483	1.61513412
-0.72835237	-0.16121325	1.61512721
-0.72833240	-0.16213977	1.61512172
-0.72837764	-0.16398209	1.61510968
-0.72830331	-0.16545956	1.61510158
-0.72706687	-0.16730130	1.61510801
-0.72815740	-0.16825020	1.61508632
-0.72899610	-0.16890347	1.61507010
-0.72909307	-0.17035910	1.61505961
-0.72847092	-0.17152634	1.61506140
-0.72868752	-0.17334682	1.61504698
-0.72866750	-0.17427334	1.61504149
-0.72890413	-0.17516729	1.61503243
-0.72910941	-0.17552118	1.61502731
-0.72938025	-0.17679068	1.61501551
-0.72896343	-0.17831184	1.61501205
-0.72900867	-0.18015414	1.61500001
-0.72953653	-0.18139091	1.61498463
-0.72895086	-0.18276973	1.61498451
-0.72957945	-0.18339738	1.61497152
-0.72930229	-0.18435682	1.61496961
-0.72957313	-0.18562633	1.61495781
-0.72969013	-0.18615547	1.61495280
-0.72924697	-0.18680808	1.61495519
-0.72996092	-0.18742496	1.61494100
-0.72951519	-0.18824190	1.61494231
-0.73009193	-0.18925637	1.61492765
-0.72990060	-0.19020471	1.61492455
-0.73003399	-0.19187194	1.61491227
-0.73040807	-0.19236818	1.61490381
-0.73047626	-0.19311967	1.61489809
-0.73016250	-0.19386747	1.61489797
-0.73053914	-0.19419956	1.61489046
-0.73058444	-0.19604185	1.61487842
-0.73073566	-0.19694656	1.61487055
-0.73086905	-0.19861376	1.61485827
-0.73100007	-0.20044520	1.61484504
-0.73049510	-0.20214137	1.61484182
-0.73086923	-0.20263761	1.61483324
-0.73020923	-0.20549390	1.61482513
-0.73013484	-0.20697141	1.61481702
-0.73062623	-0.20799661	1.61480343
-0.73048627	-0.20855844	1.61480200
-0.73067153	-0.20983890	1.61479139
-0.73056561	-0.21077645	1.61478710
-0.73063123	-0.21169209	1.61478043
-0.73035163	-0.21281567	1.61477745
-0.72989827	-0.21412522	1.61477590
-0.72976106	-0.21452281	1.61477542
-0.72965276	-0.21562454	1.61477017
-0.72969806	-0.21746683	1.61475801
-0.72932029	-0.21903524	1.61475384
-0.72965777	-0.21932006	1.61474717
-0.72977495	-0.21984902	1.61474216
-0.73009986	-0.22056770	1.61473298
-0.73016524	-0.22148347	1.61472631
-0.73038447	-0.22313967	1.61471283
-0.73062885	-0.22354084	1.61470687
-0.73068917	-0.22478512	1.61469817
-0.73046631	-0.22519356	1.61469889
-0.73019940	-0.22588307	1.61469853
-0.73044115	-0.22644854	1.61469150
-0.73010993	-0.22795877	1.61468685
-0.72897768	-0.23115063	1.61468339
-0.72482681	-0.23391488	1.61472642
-0.70281154	-0.24606973	1.61496985
-0.69912404	-0.24725464	1.61501586
-0.69823372	-0.24698806	1.61503041
-0.69678795	-0.24690381	1.61505187
-0.69606614	-0.24677971	1.61506307
-0.69496059	-0.24681601	1.61507893
-0.69369102	-0.24638161	1.61510003
-0.69270122	-0.24482349	1.61512399
-0.68853241	-0.24471340	1.61518514
-0.68636250	-0.24466926	1.61521685
-0.68592060	-0.24342141	1.61523104
-0.68558300	-0.24313676	1.61523771
-0.68487394	-0.24257854	1.61525142
-0.68373179	-0.24201629	1.61527145
-0.68275809	-0.24198356	1.61528575
-0.68118262	-0.24180430	1.61530972
-0.68031263	-0.24061105	1.61532974
-0.67832375	-0.24027538	1.61536062
-0.67782760	-0.23957852	1.61537218
-0.67689073	-0.23937011	1.61538696
-0.67571437	-0.23881918	1.61540747
-0.67478484	-0.23850530	1.61542284
-0.67292857	-0.23771331	1.61545467
-0.67148292	-0.23762909	1.61547613
-0.66962898	-0.23667288	1.61550891
-0.66737348	-0.23663962	1.61554182
-0.66575623	-0.23657733	1.61556566
-0.66486102	-0.23663908	1.61557829
-0.66320980	-0.23620105	1.61560488
-0.66221738	-0.23480725	1.61562800
-0.49026036	-0.24987188	1.61802566
-0.48824918	-0.25023985	1.61805248
-0.48649472	-0.25057507	1.61807585
-0.48627681	-0.25104228	1.61807609
-0.48605388	-0.25145075	1.61807680
-0.48603633	-0.25221312	1.61807227
-0.48530966	-0.25241733	1.61808157
-0.48461953	-0.25283307	1.61808896
-0.48448226	-0.25323066	1.61808848
-0.48388040	-0.25347117	1.61809576
-0.48306316	-0.25362763	1.61810660
-0.48305029	-0.25444883	1.61810160
-0.48282254	-0.25518560	1.61810040
-0.48178983	-0.25564501	1.61811244
-0.48114860	-0.25583845	1.61812055
-0.48087168	-0.25679776	1.61811864
-0.48038942	-0.25740314	1.61812186
-0.47944480	-0.25768748	1.61813378
-0.47893098	-0.25775295	1.61814082
-0.47866386	-0.25844261	1.61814034
-0.47763625	-0.25857356	1.61815441
-0.47762871	-0.25906616	1.61815155
-0.47752815	-0.25967520	1.61814916
-0.47718292	-0.25988314	1.61815286
-0.47535047	-0.26012376	1.61817789
-0.47524989	-0.26073271	1.61817563
-0.47349298	-0.26123220	1.61819792
-0.47255102	-0.26135224	1.61821091
-0.47156483	-0.26175347	1.61822259
-0.46997917	-0.26223108	1.61824262
-0.46933079	-0.26252991	1.61825025
-0.46890491	-0.26280743	1.61825466
-0.46830547	-0.26288384	1.61826289
-0.46757638	-0.26325211	1.61827111
-0.46695936	-0.26409096	1.61827481
-0.46443915	-0.26458317	1.61830831
-0.46366844	-0.26468137	1.61831892
-0.46281707	-0.26484925	1.61833012
-0.46199471	-0.26533407	1.61833906
-0.46152496	-0.26550555	1.61834478
-0.46121889	-0.26576072	1.61834764
-0.45933747	-0.26622373	1.61837196
-0.45864731	-0.26663953	1.61837947
-0.45867866	-0.26717952	1.61837566
-0.45718133	-0.26748195	1.61839545
-0.45606053	-0.26811644	1.61840773
-0.45554674	-0.26818195	1.61841476
-0.45430118	-0.26878005	1.61842906
-0.45194730	-0.26919174	1.61846066
-0.45062119	-0.26947233	1.61847806
-0.44750419	-0.26987666	1.61852074
-0.44050694	-0.27067804	1.61861718
-0.43900955	-0.27098048	1.61863697
-0.43850070	-0.27110463	1.61864352
-0.43831694	-0.27156043	1.61864340
-0.43821102	-0.27249798	1.61863911
-0.43701708	-0.27270946	1.61865509
-0.43555892	-0.27305919	1.61867404
-0.43477288	-0.27414277	1.61867869
-0.43434468	-0.27419734	1.61868453
-0.43395060	-0.27462763	1.61868763
-0.43339521	-0.27481002	1.61869454
-0.43316475	-0.27571109	1.61869228
-0.43268985	-0.27582398	1.61869848
-0.43170387	-0.27622509	1.61871016
-0.43135872	-0.27643305	1.61871397
-0.43032596	-0.27689248	1.61872602
-0.42899746	-0.27733719	1.61874247
-0.42859823	-0.27809599	1.61874354
-0.42248899	-0.27894098	1.61882687
-0.41961130	-0.28007492	1.61886144
-0.27634782	-0.26994437	1.62100005
-0.24212386	-0.26742393	1.62151158
-0.22414079	-0.26247764	1.62180281
-0.19658402	-0.25071773	1.62227523
-0.19406016	-0.24925075	1.62232089
-0.10110575	-0.18316002	1.62407839
-0.09837914	-0.18117486	1.62413025
-0.09571932	-0.17820485	1.62418723
-0.06245872	-0.13613504	1.62493062
-0.02792814	-0.09076825	1.62571287
-0.01266411	-0.06779313	1.62607682
-0.00970197	-0.06301358	1.62614942
-0.00548807	-0.05262622	1.62627506
0.00177118	-0.03366922	1.62649810
0.00828499	-0.01184516	1.62672806
0.01346758	0.00656410	1.62691760
0.01374090	0.00766943	1.62692845
0.01680505	0.02162403	1.62705958
0.01715276	0.02527580	1.62708724
0.01718417	0.02581576	1.62709105
0.01711383	0.03288919	1.62713408
0.01698908	0.03687669	1.62715697
0.01602226	0.06564485	1.62732184
0.01552224	0.07544761	1.62737548
-0.00018489	0.22573073	1.62808204
-0.00492465	0.26374242	1.62824965
-0.01429528	0.29327500	1.62829745
-0.02355453	0.30470699	1.62823427
-0.04972070	0.33533460	1.62804556
-0.06244045	0.34872794	1.62794459
-0.07591075	0.36129278	1.62782753
-0.07725710	0.36250007	1.62781549
-0.08251232	0.36703688	1.62776756
-0.09516647	0.37693486	1.62764573
-0.10526955	0.38401809	1.62754333
-0.12260497	0.39599484	1.62736666
-0.12821934	0.39982432	1.62730908
-0.13568470	0.40214628	1.62721539
-0.16352242	0.40989324	1.62686026
-0.19010454	0.41236132	1.62649047
-0.23094377	0.41025874	1.62588573
-0.30685389	0.39781463	1.62470853
-0.30871022	0.39702255	1.62467670
-0.31146461	0.39645666	1.62463331
-0.31195813	0.39559549	1.62462080
-0.31364584	0.39494592	1.62459230
-0.31448972	0.39462113	1.62457812
-0.31601596	0.39421940	1.62455344
-0.31995404	0.39320806	1.62449014
-0.32100564	0.39269355	1.62447166
-0.32299939	0.39229923	1.62444043
-0.32337087	0.39163870	1.62443089
-0.32811385	0.39073703	1.62435651
-0.32805201	0.38969347	1.62435102
-0.32965916	0.38936144	1.62432563
-0.33220297	0.38882089	1.62428546
-0.33555171	0.38800299	1.62423182
-0.33656687	0.38769999	1.62421525
-0.33813488	0.38741523	1.62419069
-0.33902523	0.38714868	1.62417614
-0.34033611	0.38683102	1.62415516
-0.34580827	0.38591072	1.62407017
-0.35399571	0.38447183	1.62394261
-0.35989076	0.38327748	1.62384987
-0.36455572	0.38247055	1.62377715
-0.36475831	0.38195229	1.62377107
-0.37361836	0.38016677	1.62363160
-0.37497574	0.37990737	1.62361026
-0.37755379	0.37899119	1.62356722
-0.37767100	0.37846220	1.62356234
-0.38004625	0.37806416	1.62352538
-0.39087093	0.37616587	1.62335682
-0.39195406	0.37511143	1.62333453
-0.39267585	0.37498730	1.62332332
-0.39389354	0.37416619	1.62330055
-0.39506236	0.37312263	1.62327707
-0.39556098	0.37258992	1.62326658
-0.39567822	0.37206095	1.62326157
-0.39749801	0.37148046	1.62323165
-0.39819205	0.37071124	1.62321675
-0.39907995	0.37028047	1.62320125
-0.40039110	0.36996299	1.62318027
-0.40169716	0.36931705	1.62315738
-0.40224493	0.36900678	1.62314749
-0.40290493	0.36861324	1.62313545
-0.40372199	0.36838251	1.62312222
-0.40469062	0.36802137	1.62310588
-0.40501568	0.36768976	1.62309921
-0.40599909	0.36753958	1.62308395
-0.40654695	0.36722931	1.62307405
-0.40709001	0.36697793	1.62306464
-0.40752041	0.36680952	1.62305737
-0.40917411	0.36653566	1.62303174
-0.41010097	0.36605752	1.62301528
-0.41166633	0.36560845	1.62298989
-0.41297746	0.36529100	1.62296891
-0.41377211	0.36474368	1.62295401
-0.41538158	0.36418873	1.62292719
-0.41622540	0.36386395	1.62291300
-0.41761976	0.36339316	1.62288988
-0.41863218	0.36292592	1.62287223
-0.41964725	0.36262298	1.62285566
-0.42023155	0.36210117	1.62284398
-0.42103630	0.36182365	1.62283063
-0.42196578	0.36150977	1.62281513
-0.42216864	0.36099172	1.62280905
-0.42263323	0.36083469	1.62280130
-0.42313701	0.36063042	1.62279272
-0.42402488	0.36019972	1.62277722
-0.42440143	0.35986757	1.62276971
-0.42468500	0.35941917	1.62276280
-0.42552719	0.35924685	1.62274945
-0.42591518	0.35903192	1.62274253
-0.42705506	0.35869262	1.62272394
-0.42802864	0.35827273	1.62270725
-0.42975619	0.35789254	1.62267983
-0.43157601	0.35731208	1.62264979
-0.43534043	0.35611480	1.62258792
-0.43529606	0.35544649	1.62258434
-0.43570188	0.35518450	1.62257683
-0.43562248	0.35457516	1.62257421
-0.43688950	0.35436368	1.62255454
-0.43727365	0.35413718	1.62254751
-0.43841600	0.35396200	1.62252986
-0.43947759	0.35371727	1.62251306
-0.44085526	0.35318792	1.62248981
-0.44149002	0.35234880	1.62247539
-0.44212344	0.35204947	1.62246430
-0.44262478	0.35168105	1.62245476
-0.44264644	0.35125852	1.62245178
-0.44363481	0.35104963	1.62243617
-0.44417852	0.35072771	1.62242627
-0.44494349	0.35056800	1.62241423
-0.44510198	0.35015577	1.62240934
-0.44603506	0.34993577	1.62239456
-0.44645458	0.34956798	1.62238610
-0.44696596	0.34946933	1.62237811
-0.44738162	0.34908998	1.62236977
-0.44789767	0.34893250	1.62236130
-0.44817218	0.34853101	1.62235487
-0.44899336	0.34831199	1.62234151
-0.45016593	0.34813666	1.62232351
-0.45113924	0.34771672	1.62230682
-0.45155492	0.34733737	1.62229836
-0.45210913	0.34681582	1.62228715
-0.45252749	0.34660077	1.62227976
-0.45315433	0.34651259	1.62227011
-0.45884424	0.34567228	1.62218249
-0.45896143	0.34514332	1.62217748
-0.45975614	0.34459603	1.62216258
-0.46212378	0.34370533	1.62212265
-0.46360353	0.34324539	1.62209845
-0.46402922	0.34313577	1.62209153
-0.46444225	0.34259212	1.62208223
-0.46612731	0.34177828	1.62205267
-0.46610966	0.34101588	1.62204826
-0.46656960	0.34091771	1.62204099
-0.46729109	0.34079343	1.62202978
-0.46801019	0.34050500	1.62201750
-0.46804914	0.34007064	1.62201428
-0.46872172	0.33972400	1.62200236
-0.46931607	0.33947197	1.62199223
-0.47058803	0.33920175	1.62197208
-0.47215614	0.33891702	1.62194753
-0.47244436	0.33840972	1.62194026
-0.47282094	0.33807760	1.62193274
-0.47366741	0.33791715	1.62191951
-0.47374058	0.33749413	1.62191582
-0.47463095	0.33722752	1.62190127
-0.47483620	0.33687365	1.62189603
-0.47567502	0.33622038	1.62187982
-0.47655258	0.33551973	1.62186277
-0.47675303	0.33483750	1.62185562
-0.47729325	0.33442166	1.62184525
-0.47771627	0.33414778	1.62183738
-0.47999826	0.33324620	1.62179875
-0.48023757	0.33251652	1.62179077
-0.48192018	0.33153850	1.62176025
-0.48231313	0.33006832	1.62174547
-0.48320615	0.32996601	1.62173188
-0.48356512	0.32887161	1.62171984
-0.48452592	0.32801771	1.62170064
-0.48600325	0.32739356	1.62167537
-0.48661909	0.32633182	1.62165976
-0.48725253	0.32603252	1.62164879
-0.48788846	0.32589734	1.62163877
-0.48821336	0.32517862	1.62162960
-0.48960501	0.32454360	1.62160540
-0.48981029	0.32418966	1.62160027
-0.49089101	0.32297111	1.62157702
-0.49159250	0.32192034	1.62156034
-0.49275863	0.32071254	1.62153590
-0.49279022	0.32017264	1.62153208
-0.49349657	0.31945014	1.62151742
-0.49370185	0.31909624	1.62151217
-0.49363023	0.31778306	1.62150514
-0.49489951	0.31734854	1.62148404
-0.49562129	0.31722441	1.62147284
-0.49669936	0.31584159	1.62144852
-0.49726355	0.31439319	1.62143135
-0.49737069	0.31359443	1.62142491
-0.49763674	0.31315774	1.62141836
-0.49863762	0.31299579	1.62140274
-0.49896500	0.31244120	1.62139463
-0.49939072	0.31233165	1.62138772
-0.50006330	0.31198502	1.62137592
-0.50073075	0.31130996	1.62136197
-0.50088692	0.31073359	1.62135613
-0.50089622	0.31026426	1.62135315
-0.50129992	0.31018990	1.62134683
-0.50244713	0.30995607	1.62132871
-0.50244397	0.30905282	1.62132311
-0.50390685	0.30856955	1.62129891
-0.50458950	0.30849275	1.62128854
-0.50479478	0.30813882	1.62128341
-0.50541574	0.30740553	1.62126982
-0.50604922	0.30710623	1.62125885
-0.50616616	0.30657712	1.62125385
-0.50675309	0.30621958	1.62124312
-0.50822800	0.30543131	1.62121689
-0.50947976	0.30423442	1.62119126
-0.51037127	0.30223146	1.62116587
-0.51091671	0.30175710	1.62115502
-0.51098716	0.30116981	1.62115037
-0.51136374	0.30083767	1.62114286
-0.51194823	0.30031601	1.62113118
-0.51316357	0.29933071	1.62110746
-0.51371139	0.29902050	1.62109756
-0.51444685	0.29759392	1.62107801
-0.51511675	0.29708305	1.62106514
-0.51573527	0.29618561	1.62105060
-0.51596242	0.29579633	1.62104487
-0.51640284	0.29551059	1.62103677
-0.51672006	0.29468620	1.62102699
-0.51687884	0.29427412	1.62102211
-0.51748079	0.29412767	1.62101257
-0.51762229	0.29372746	1.62100804
-0.51795208	0.29333708	1.62100077
-0.51815492	0.29281899	1.62099457
-0.51876658	0.29255506	1.62098408
-0.51895946	0.29215437	1.62097883
-0.51958561	0.29174957	1.62096727
-0.52025545	0.29123864	1.62095439
-0.52088892	0.29093933	1.62094331
-0.52105761	0.29040986	1.62093759
-0.52163965	0.29011101	1.62092733
-0.52202582	0.28966141	1.62091887
-0.52260309	0.28942141	1.62090909
-0.52272755	0.28899777	1.62090456
-0.52309930	0.28872451	1.62089753
-0.52339751	0.28809988	1.62088931
-0.52375162	0.28745124	1.62088013
-0.52417469	0.28717735	1.62087238
-0.52447790	0.28688115	1.62086606
-0.52468079	0.28636310	1.62085998
-0.52538240	0.28569943	1.62084568
-0.52596158	0.28484917	1.62083197
-0.52599323	0.28430927	1.62082815
-0.52721864	0.28398085	1.62080836
-0.52776653	0.28367060	1.62079847
-0.52803707	0.28240094	1.62078667
-0.52942884	0.28176594	1.62076259
-0.52994639	0.27987224	1.62074327
-0.53091741	0.27967522	1.62072802
-0.53160381	0.27763921	1.62070537
-0.53172082	0.27711010	1.62070048
-0.53181571	0.27665171	1.62069619
-0.53236085	0.27617717	1.62068534
-0.53274733	0.27572769	1.62067699
-0.53311157	0.27534884	1.62066936
-0.53365439	0.27509728	1.62065995
-0.53463310	0.27500588	1.62064517
-0.53522688	0.27440190	1.62063277
-0.53539038	0.27393100	1.62062752
-0.53666008	0.27388376	1.62060881
-0.53749150	0.27351221	1.62059450
-0.53958577	0.27333972	1.62056303
-0.54026818	0.27326277	1.62055266
-0.54191196	0.27310628	1.62052786
-0.54221517	0.27281004	1.62052166
-0.54329181	0.27277637	1.62050581
-0.54382974	0.27258348	1.62049687
-0.54528809	0.27254623	1.62047553
-0.54625404	0.27202076	1.62045825
-0.54761165	0.27176148	1.62043691
-0.54845548	0.27143666	1.62042272
-0.54917461	0.27114829	1.62041056
-0.54941630	0.27058277	1.62040353
-0.55025762	0.27048081	1.62039065
-0.55072236	0.26993683	1.62038052
-0.55106473	0.26959336	1.62037349
-0.55126262	0.26913399	1.62036777
-0.55162919	0.26891926	1.62036109
-0.55217707	0.26860905	1.62035120
-0.55257607	0.26859352	1.62034535
-0.55298424	0.26849568	1.62033880
-0.55320442	0.26796576	1.62033236
-0.55374479	0.26754999	1.62032199
-0.55449557	0.26749584	1.62031066
-0.55520523	0.26728961	1.62029910
-0.55663353	0.26644313	1.62027323
-0.55726945	0.26630798	1.62026310
-0.55764866	0.26614016	1.62025666
-0.55861187	0.26545045	1.62023842
-0.55924529	0.26515111	1.62022734
-0.55991787	0.26480448	1.62021542
-0.56081092	0.26470220	1.62020183
-0.56134629	0.26395804	1.62018943
-0.56232470	0.26386651	1.62017477
-0.56326115	0.26369327	1.62016010
-0.56397325	0.26326424	1.62014711
-0.56482166	0.26291594	1.62013268
-0.56545997	0.26294491	1.62012362
-0.56818533	0.26269612	1.62008250
-0.56904799	0.26139736	1.62006199
-0.56968653	0.26142645	1.62005293
-0.57062101	0.26105395	1.62003708
-0.58577704	0.26228186	1.61982512
-0.58789271	0.26168671	1.61979079
-0.58852887	0.26155171	1.61978066
-0.59040010	0.26097074	1.61975002
-0.59155631	0.25988033	1.61972642
-0.59194791	0.25975934	1.61971998
-0.59225363	0.25924027	1.61971235
-0.59512556	0.25930670	1.61967123
-0.59531128	0.25876522	1.61966515
-0.59695983	0.25816295	1.61963749
-0.59709126	0.25749296	1.61963141
-0.59793073	0.25757876	1.61961973
-0.59837300	0.25671822	1.61960804
-0.59925091	0.25601774	1.61959100
-0.59931147	0.25554776	1.61958718
-0.59987676	0.25561273	1.61957932
-0.60052019	0.25558320	1.61956990
-0.60107315	0.25560141	1.61956191
-0.60191435	0.25511232	1.61954677
-0.60292697	0.25464523	1.61952913
-0.60347480	0.25433499	1.61951935
-0.60367006	0.25371131	1.61951256
-0.60409820	0.25376588	1.61950672
-0.60452127	0.25349200	1.61949885
-0.60470414	0.25282153	1.61949205
-0.60585654	0.25291616	1.61947596
-0.60603261	0.25249216	1.61947083
-0.60755426	0.25253633	1.61944902
-0.60954785	0.25214189	1.61941767
-0.60992682	0.25197393	1.61941111
-0.61093950	0.25150684	1.61939359
-0.61221391	0.25140077	1.61937439
-0.61328071	0.25148445	1.61935949
-0.61372769	0.25056511	1.61934733
-0.61637497	0.25079793	1.61931038
-0.61703509	0.25001737	1.61929595
-0.61746323	0.25007197	1.61929011
-0.61814821	0.25015932	1.61928082
-0.61842674	0.24938241	1.61927187
-0.61951542	0.24939536	1.61925626
-0.62020046	0.24948269	1.61924684
-0.62184906	0.24888039	1.61921918
-0.62308460	0.24882174	1.61920094
-0.62345362	0.24838406	1.61919284
-0.62541330	0.24836545	1.61916435
-0.66779411	0.25489426	1.61859095
-0.66822231	0.25494882	1.61858499
-0.67082548	0.25528762	1.61854947
-0.67330420	0.25566295	1.61851585
-0.67448574	0.25582767	1.61849976
-0.67508519	0.25590405	1.61849153
-0.67627645	0.25595123	1.61847460
-0.67721844	0.25607130	1.61846173
-0.67790347	0.25615862	1.61845231
-0.67896283	0.25613683	1.61843681
-0.68129224	0.25641963	1.61840487
-0.68308318	0.25654337	1.61837971
-0.68349403	0.25660986	1.61837411
-0.69184452	0.25794953	1.61826146
-0.69427645	0.25826654	1.61822820
-0.69521844	0.25838664	1.61821532
-0.69606495	0.25822616	1.61820209
-0.69717550	0.25820372	1.61818576
-0.69785321	0.25818557	1.61817586
-0.69857472	0.25806132	1.61816466
-0.69900286	0.25811586	1.61815882
-0.70405793	0.25892410	1.61809051
-0.70794797	0.25920367	1.61803591
-0.70866477	0.25913823	1.61802518
-0.71068090	0.25944746	1.61799788
-0.71119463	0.25951293	1.61799085
-0.71315688	0.25965852	1.61796331
-0.71391749	0.25948694	1.61795127
-0.71434569	0.25954154	1.61794531
-0.71488607	0.25912580	1.61793494
-0.71557117	0.25921309	1.61792552
-0.71599936	0.25926769	1.61791968
-0.71790981	0.25941360	1.61789298
-0.72103900	0.25947759	1.61784804
-0.72303522	0.25924742	1.61781764
-0.72490668	0.25905359	1.61778927
-0.72685122	0.25843680	1.61775732
-0.72863954	0.25839615	1.61773109
-0.72879833	0.25798410	1.61772633
-0.73063576	0.25816602	1.61770082
-0.73263192	0.25793582	1.61767042
-0.73457384	0.25715473	1.61763740
-0.73473001	0.25657833	1.61763155
-0.73541504	0.25666565	1.61762226
-0.73577911	0.25589967	1.61761224
-0.73718596	0.25586280	1.61759162
-0.90555084	0.29295826	1.61538291
-0.98423815	0.27578321	1.61413610
-0.99079084	0.27364421	1.61402786
