//X	Y	Z
-0.95426923	-0.25038227	4.30769014
-0.94551516	-0.25821295	4.30768824
-0.93376881	-0.26585290	4.30768585
-0.92943573	-0.26783416	4.30768490
-0.92775923	-0.26849300	4.30768490
-0.92649430	-0.26854488	4.30768442
-0.92016345	-0.26967826	4.30768347
-0.91083527	-0.27277589	4.30768204
-0.90735841	-0.27140251	4.30768204
-0.90281141	-0.27280667	4.30768108
-0.89841336	-0.27387959	4.30768061
-0.88794923	-0.27756467	4.30767870
-0.88390368	-0.27624863	4.30767870
-0.87937361	-0.27374998	4.30767822
-0.87428528	-0.27394390	4.30767775
-0.87322605	-0.27369243	4.30767775
-0.86984247	-0.27324152	4.30767727
-0.86749595	-0.27215430	4.30767727
-0.86685634	-0.27217680	4.30767679
-0.86621678	-0.27219927	4.30767679
-0.86424726	-0.27136523	4.30767679
-0.86366427	-0.27141562	4.30767679
-0.85178900	-0.27157417	4.30767536
-0.84687573	-0.26969635	4.30767488
-0.84645605	-0.26942235	4.30767488
-0.84350634	-0.26925242	4.30767441
-0.84113145	-0.26815131	4.30767441
-0.83765471	-0.26677775	4.30767393
-0.83530802	-0.26569071	4.30767393
-0.82979184	-0.26472995	4.30767345
-0.82913804	-0.26474547	4.30767345
-0.82703364	-0.26424965	4.30767298
-0.82459384	-0.26223993	4.30767298
-0.82308656	-0.26170066	4.30767298
-0.82224727	-0.26115274	4.30767298
-0.82032019	-0.26033971	4.30767298
-0.81815928	-0.25981569	4.30767250
-0.81640971	-0.25868523	4.30767250
-0.81406295	-0.25759822	4.30767250
-0.81273317	-0.25674149	4.30767250
-0.81171644	-0.25651100	4.30767202
-0.81124008	-0.25620911	4.30767202
-0.80995262	-0.25537357	4.30767202
-0.80884266	-0.25422043	4.30767202
-0.64489144	-0.30484581	4.30764627
-0.64368546	-0.30667987	4.30764627
-0.64325982	-0.30727971	4.30764580
-0.64194119	-0.31033975	4.30764532
-0.64094079	-0.31187069	4.30764532
-0.63938004	-0.31433937	4.30764484
-0.63689476	-0.31621858	4.30764437
-0.63566637	-0.31716499	4.30764389
-0.63407719	-0.31961983	4.30764341
-0.63326848	-0.32084024	4.30764341
-0.63047320	-0.32512933	4.30764246
-0.62814021	-0.32971323	4.30764151
-0.62716818	-0.33125800	4.30764103
-0.62599051	-0.33310610	4.30764103
-0.62562972	-0.33461452	4.30764055
-0.62418962	-0.33673811	4.30764008
-0.62384897	-0.33737969	4.30764008
-0.62238646	-0.33861566	4.30763960
-0.62181175	-0.33954671	4.30763960
-0.62119460	-0.34045684	4.30763960
-0.62082559	-0.34108457	4.30763912
-0.61937726	-0.34232739	4.30763912
-0.61619884	-0.34723711	4.30763817
-0.61481541	-0.34938857	4.30763769
-0.61443228	-0.35000938	4.30763769
-0.61136651	-0.35369301	4.30763674
-0.60938597	-0.35588801	4.30763626
-0.60876870	-0.35679805	4.30763626
-0.60739940	-0.35895672	4.30763578
-0.60660487	-0.36018401	4.30763531
-0.60514241	-0.36141995	4.30763531
-0.60474509	-0.36203367	4.30763483
-0.60292780	-0.36390427	4.30763435
-0.60255885	-0.36453193	4.30763435
-0.60150778	-0.36516118	4.30763435
-0.60108215	-0.36576101	4.30763388
-0.59828460	-0.36829561	4.30763340
-0.59619689	-0.36956096	4.30763292
-0.59373975	-0.37145424	4.30763245
-0.59331429	-0.37205386	4.30763245
-0.59173095	-0.37363517	4.30763197
-0.59088564	-0.37396103	4.30763197
-0.58782578	-0.37677112	4.30763102
-0.58639151	-0.37802112	4.30763102
-0.58554631	-0.37834698	4.30763054
-0.58414042	-0.37961078	4.30763054
-0.58070570	-0.38392222	4.30762959
-0.57990277	-0.38426900	4.30762959
-0.57826293	-0.38582242	4.30762911
-0.57443672	-0.38987392	4.30762815
-0.57194328	-0.39087242	4.30762768
-0.56738436	-0.39402393	4.30762672
-0.56704378	-0.39466548	4.30762672
-0.56556708	-0.39589447	4.30762625
-0.56124222	-0.39875647	4.30762529
-0.56045359	-0.39911026	4.30762529
-0.55777675	-0.40129974	4.30762482
-0.55676818	-0.40195000	4.30762434
-0.55406892	-0.40325183	4.30762386
-0.55226588	-0.40512937	4.30762339
-0.55142063	-0.40545517	4.30762339
-0.55019212	-0.40640187	4.30762339
-0.54810423	-0.40766722	4.30762291
-0.54708165	-0.40831029	4.30762243
-0.54273427	-0.41028482	4.30762196
-0.53729945	-0.41199386	4.30762100
-0.53102517	-0.41315514	4.30762005
-0.52804720	-0.41297108	4.30761957
-0.52248836	-0.41198954	4.30761909
-0.51969379	-0.41061449	4.30761909
-0.50797987	-0.40303048	4.30761862
-0.49497858	-0.39461070	4.30761814
-0.49504629	-0.39160964	4.30761814
-0.49497327	-0.38982034	4.30761862
-0.49019614	-0.37627617	4.30761957
-0.48944691	-0.37361479	4.30761957
-0.48845541	-0.37036222	4.30762005
-0.48929232	-0.36915594	4.30762005
-0.48922750	-0.36824730	4.30762053
-0.48963073	-0.36675990	4.30762053
-0.48930937	-0.36525312	4.30762053
-0.48995498	-0.36435688	4.30762100
-0.48894924	-0.36109737	4.30762100
-0.48911843	-0.35989949	4.30762148
-0.48906773	-0.35899779	4.30762148
-0.48786229	-0.35516787	4.30762196
-0.48654702	-0.34865436	4.30762243
-0.48503447	-0.34332463	4.30762291
-0.48537275	-0.34092879	4.30762291
-0.48619559	-0.33971536	4.30762339
-0.48590270	-0.33822244	4.30762339
-0.48644683	-0.33552310	4.30762386
-0.48680753	-0.33401486	4.30762386
-0.48692599	-0.33191526	4.30762434
-0.48660466	-0.33040854	4.30762434
-0.48689228	-0.32711101	4.30762482
-0.48636296	-0.32415318	4.30762529
-0.48606166	-0.32177982	4.30762529
-0.48684216	-0.32054538	4.30762577
-0.48659161	-0.31907350	4.30762577
-0.48651850	-0.31728420	4.30762577
-0.48785719	-0.31335747	4.30762672
-0.48774159	-0.31154737	4.30762672
-0.48738965	-0.30827236	4.30762720
-0.48590544	-0.30295649	4.30762768
-0.48633093	-0.30235687	4.30762768
-0.48568606	-0.29758897	4.30762815
-0.48686978	-0.29486707	4.30762863
-0.48739955	-0.29216093	4.30762911
-0.48856905	-0.28943211	4.30762959
-0.48775503	-0.28586212	4.30763006
-0.48618340	-0.27875027	4.30763054
-0.48677227	-0.27782631	4.30763054
-0.48736700	-0.27602857	4.30763102
-0.48760396	-0.27182937	4.30763149
-0.48737589	-0.27124506	4.30763149
-0.48725206	-0.26855433	4.30763197
-0.48653942	-0.26678747	4.30763197
-0.48664957	-0.26380739	4.30763245
-0.43260616	-0.09992515	4.30764484
-0.42957747	-0.09883959	4.30764484
-0.42759970	-0.09712485	4.30764484
-0.42431226	-0.09368677	4.30764484
-0.42234874	-0.09197894	4.30764484
-0.41990888	-0.08996926	4.30764484
-0.41729760	-0.08740322	4.30764437
-0.41665804	-0.08742567	4.30764437
-0.41451705	-0.08603532	4.30764437
-0.41128260	-0.08525316	4.30764389
-0.41017267	-0.08409998	4.30764437
-0.40953898	-0.08324890	4.30764437
-0.40889937	-0.08327137	4.30764389
-0.40498888	-0.08161690	4.30764389
-0.40106189	-0.07820127	4.30764389
-0.39995188	-0.07704833	4.30764389
-0.39909002	-0.07561298	4.30764389
-0.39778262	-0.07564387	4.30764341
-0.39493722	-0.07336735	4.30764341
-0.39427525	-0.07250220	4.30764341
-0.39303857	-0.07256816	4.30764341
-0.39121592	-0.06964839	4.30764341
-0.39009768	-0.06761469	4.30764341
-0.38945812	-0.06763718	4.30764341
-0.38831985	-0.06647015	4.30764341
-0.38768613	-0.06561905	4.30764341
-0.38679016	-0.06504321	4.30764341
-0.38568020	-0.06389026	4.30764341
-0.38480431	-0.06244776	4.30764341
-0.38435626	-0.06215999	4.30764341
-0.38142961	-0.05721343	4.30764389
-0.37996176	-0.05365898	4.30764389
-0.37908575	-0.05221672	4.30764389
-0.37773937	-0.04959881	4.30764437
-0.37632817	-0.04607227	4.30764437
-0.34163973	0.04692356	4.30765104
-0.34023675	0.04956943	4.30765152
-0.33978051	0.05073792	4.30765152
-0.33937505	0.05100496	4.30765152
-0.33777219	0.05422099	4.30765152
-0.33572966	0.05684435	4.30765152
-0.33194417	0.06713614	4.30765247
-0.27274397	0.22215927	4.30766344
-0.27159750	0.22420698	4.30766344
-0.27120614	0.22446689	4.30766344
-0.27072984	0.22476873	4.30766344
-0.26193297	0.24831495	4.30766535
-0.25736150	0.26216245	4.30766630
-0.25683224	0.26512021	4.30766678
-0.26041672	0.27542710	4.30766821
-0.27615806	0.31967252	4.30767536
-0.27887964	0.32008678	4.30767584
-0.29079446	0.32326049	4.30767727
-0.29222274	0.32363671	4.30767775
-0.29350191	0.32368168	4.30767775
-0.29767996	0.32445815	4.30767822
-0.31137273	0.32648748	4.30768013
-0.32163343	0.32811469	4.30768156
-0.34745789	0.33665007	4.30768585
-0.35214064	0.33711085	4.30768633
-0.35594386	0.33638597	4.30768681
-0.35871619	0.33589879	4.30768728
-0.36084068	0.33626956	4.30768728
-0.36143768	0.33631280	4.30768728
-0.36356214	0.33668360	4.30768776
-0.36396766	0.33641675	4.30768776
-0.36626950	0.33710480	4.30768824
-0.37219715	0.33675078	4.30768871
-0.37546822	0.33507404	4.30768919
-0.37827104	0.33281827	4.30768919
-0.37851337	0.33222711	4.30768919
-0.38092488	0.33023152	4.30768919
-0.38370535	0.32886335	4.30768919
-0.38484377	0.32769656	4.30768919
-0.38608038	0.32776228	4.30768967
-0.38739607	0.32691267	4.30768967
-0.39042479	0.32582715	4.30768967
-0.55731773	0.34580699	4.30771208
-0.56615907	0.35184139	4.30771399
-0.56963050	0.35525849	4.30771494
-0.57168990	0.35653764	4.30771494
-0.57368475	0.35872567	4.30771542
-0.57804614	0.36069313	4.30771637
-0.58046651	0.36348093	4.30771685
-0.58293164	0.36449328	4.30771732
-0.58353466	0.36541036	4.30771780
-0.58507895	0.36964041	4.30771828
-0.58430743	0.37318945	4.30771875
-0.59259647	0.37740546	4.30772018
-0.60418999	0.38208583	4.30772209
-0.60621297	0.38425976	4.30772257
-0.61112666	0.38804591	4.30772352
-0.62657189	0.39285427	4.30772591
-0.62899232	0.39564210	4.30772638
-0.63364136	0.40090704	4.30772781
-0.65372145	0.41098753	4.30773115
-0.65642065	0.41228938	4.30773163
-0.65792257	0.41654047	4.30773258
-0.66057682	0.41961741	4.30773306
-0.66537225	0.42130417	4.30773401
-0.66699195	0.42199069	4.30773401
-0.66945469	0.42475733	4.30773497
-0.67165518	0.42724872	4.30773544
-0.69860435	0.44028819	4.30774021
-0.71377939	0.45136571	4.30774307
-0.71536273	0.45294702	4.30774355
-0.73574990	0.46152741	4.30774736
-0.74008304	0.46350893	4.30774784
-0.74212837	0.46479526	4.30774832
-0.74335694	0.46574190	4.30774832
-0.74812984	0.46831602	4.30774927
-0.75536257	0.47669327	4.30775118
-0.75661099	0.47850630	4.30775166
-0.75834924	0.48129243	4.30775213
-0.75956953	0.48311976	4.30775261
-0.75954711	0.48400736	4.30775261
-0.76160663	0.48528659	4.30775309
-0.76504970	0.48871750	4.30775404
-0.76841086	0.48915422	4.30775452
-0.77153790	0.48930144	4.30775452
-0.78560507	0.48716813	4.30775595
-0.78711224	0.48662883	4.30775642
-0.81113780	0.47716820	4.30775785
-0.81802857	0.47357544	4.30775833
-0.82260942	0.47017539	4.30775881
-0.82572538	0.46729362	4.30775881
-0.82732219	0.46320379	4.30775833
-0.82783514	0.46200740	4.30775833
-0.83131123	0.45496982	4.30775785
-0.83331132	0.45236748	4.30775785
-0.86058915	0.42033529	4.30775738
-0.86083126	0.41974390	4.30775738
-0.86196375	0.41770333	4.30775738
-0.86375809	0.41479760	4.30775690
-0.86382294	0.41388896	4.30775690
-0.86218309	0.41233581	4.30775642
-0.86315215	0.40997067	4.30775642
-0.86616611	0.40322807	4.30775595
-0.86620271	0.40233356	4.30775595
-0.86734927	0.40028584	4.30775595
-0.86737156	0.39939821	4.30775547
-0.97808313	0.26980749	4.30775356
-0.98180217	0.26784301	4.30775404
-0.98306113	0.26702106	4.30775404
-0.98439115	0.26616457	4.30775404
-0.98498821	0.26620802	4.30775404
-0.98610407	0.26592863	4.30775452
-0.98825914	0.26453114	4.30775452
-0.99155259	0.26196676	4.30775452
-0.99263418	0.26082766	4.30775452
-0.99567932	0.25798073	4.30775452
-0.99834728	0.25538680	4.30775452
-0.99879533	0.25509900	4.30775452
-1.00114202	0.25401193	4.30775452
-1.00354528	0.25289679	4.30775499
-1.00397909	0.25261593	4.30775499
-1.00568628	0.25150648	4.30775499
-1.00652552	0.25095844	4.30775499
-1.01234889	0.24849793	4.30775547
-1.01325905	0.24791516	4.30775547
-1.01560581	0.24682811	4.30775547
-1.01793826	0.24574806	4.30775595
-1.01881182	0.24605981	4.30775595
-1.02224028	0.24383369	4.30775595
-1.03412485	0.21741959	4.30775452
-1.06874228	0.04913642	4.30773878
-1.07343709	0.02693419	4.30773687
-1.07415783	0.02428664	4.30773640
-1.07438612	0.02370235	4.30773640
-1.07488489	0.02251306	4.30773640
-1.07691264	0.01423271	4.30773592
-1.07768428	0.01068373	4.30773544
-1.07860255	0.00922021	4.30773544
-1.07987309	0.00448196	4.30773497
-1.08465493	-0.01951678	4.30773258
-1.08499277	-0.02278464	4.30773258
-1.08445823	-0.04639274	4.30772972
-1.07923448	-0.05258878	4.30772829
-1.07634377	-0.05420099	4.30772781
-1.07412899	-0.05668546	4.30772734
-1.07240200	-0.05644237	4.30772686
-1.07002401	-0.05925116	4.30772638
-1.06594980	-0.06358506	4.30772543
-1.06027794	-0.06949329	4.30772400
-0.96370739	-0.21294820	4.30769539
-0.96375221	-0.21472344	4.30769539
-0.96245599	-0.21867119	4.30769491
-0.96291220	-0.21983974	4.30769444
-0.96278554	-0.22105859	4.30769444
-0.96307266	-0.22342502	4.30769444
-0.96357131	-0.22461453	4.30769396
-0.96345282	-0.22671415	4.30769396
-0.96332854	-0.22968732	4.30769348
-0.96359903	-0.23029256	4.30769348
-0.96390033	-0.23266593	4.30769348
-0.96253932	-0.23570503	4.30769253
-0.96237016	-0.23690294	4.30769253
-0.96179545	-0.23783401	4.30769253
-0.95665294	-0.24670012	4.30769062
