//X	Y	Z
-1.13528478	0.01509809	4.73769379
-1.13580525	-0.02966325	4.73768902
-1.13361835	-0.03782550	4.73768806
-1.12717140	-0.04975841	4.73768663
-1.12526107	-0.05070648	4.73768663
-1.12407494	-0.05167393	4.73768663
-1.12385511	-0.05197036	4.73768663
-1.12132525	-0.05207433	4.73768663
-1.11590409	-0.05945423	4.73768568
-1.11342454	-0.06045988	4.73768568
-1.00709510	-0.19715793	4.73767138
-1.00759661	-0.20010170	4.73767138
-1.00728643	-0.20251158	4.73767090
-1.00712311	-0.20283569	4.73767090
-1.00746095	-0.20610388	4.73767042
-1.00846064	-0.21023710	4.73766994
-1.00915933	-0.21199682	4.73766994
-1.00911379	-0.21588576	4.73766947
-1.00753880	-0.21834752	4.73766899
-1.00612724	-0.22048491	4.73766899
-1.00087190	-0.23057681	4.73766804
-1.00066626	-0.23088019	4.73766804
-1.00031400	-0.23326904	4.73766756
-0.99978966	-0.23510185	4.73766756
-0.99755538	-0.23845270	4.73766708
-0.97431052	-0.25911397	4.73766518
-0.97062528	-0.26195347	4.73766470
-0.96470279	-0.26638982	4.73766422
-0.96181208	-0.26800200	4.73766422
-0.95756066	-0.26698941	4.73766422
-0.95375156	-0.26713824	4.73766422
-0.95155424	-0.26571977	4.73766470
-0.95050895	-0.26547539	4.73766470
-0.94836217	-0.26495856	4.73766470
-0.94541252	-0.26478839	4.73766470
-0.94225705	-0.26492172	4.73766470
-0.93930721	-0.26475173	4.73766470
-0.93594605	-0.26518852	4.73766470
-0.93399101	-0.26436114	4.73766470
-0.93226403	-0.26411831	4.73766470
-0.92971146	-0.26333469	4.73766518
-0.92682648	-0.26407307	4.73766470
-0.92610818	-0.26318002	4.73766518
-0.92404014	-0.26357871	4.73766518
-0.91959149	-0.26375014	4.73766518
-0.91772920	-0.26384547	4.73766518
-0.91386950	-0.26309273	4.73766518
-0.90943497	-0.26327103	4.73766518
-0.90814751	-0.26243529	4.73766518
-0.90348470	-0.26202938	4.73766518
-0.90242553	-0.26177791	4.73766518
-0.89899969	-0.26130602	4.73766565
-0.89408070	-0.26030174	4.73766565
-0.89266622	-0.26068515	4.73766565
-0.89239591	-0.26007986	4.73766565
-0.89109433	-0.25923723	4.73766565
-0.88984352	-0.25929606	4.73766565
-0.88938141	-0.25900128	4.73766565
-0.88661480	-0.25764030	4.73766613
-0.88254106	-0.25631022	4.73766613
-0.87677693	-0.25563180	4.73766613
-0.87554002	-0.25569773	4.73766613
-0.87426668	-0.25486892	4.73766661
-0.70553243	-0.29282379	4.73766375
-0.70470971	-0.29403725	4.73766375
-0.70349532	-0.29499081	4.73766375
-0.70249498	-0.29652169	4.73766327
-0.70171458	-0.29775593	4.73766327
-0.70048606	-0.29870260	4.73766327
-0.69910252	-0.30085406	4.73766327
-0.69847143	-0.30175725	4.73766279
-0.69808823	-0.30237782	4.73766279
-0.69751340	-0.30330893	4.73766279
-0.69609326	-0.30456591	4.73766279
-0.69528466	-0.30578625	4.73766232
-0.69425625	-0.30730307	4.73766232
-0.69269514	-0.30977204	4.73766232
-0.69150335	-0.31161299	4.73766184
-0.68854469	-0.31622642	4.73766136
-0.68853909	-0.31710005	4.73766136
-0.68737525	-0.31895524	4.73766136
-0.68694991	-0.31955487	4.73766088
-0.68479991	-0.32294774	4.73766088
-0.68400532	-0.32417530	4.73766041
-0.68112296	-0.32666814	4.73766041
-0.67930561	-0.32853878	4.73765993
-0.67847455	-0.32887158	4.73765993
-0.67825472	-0.32916799	4.73765993
-0.67702639	-0.33011439	4.73765993
-0.67501730	-0.33229548	4.73765993
-0.67276609	-0.33388519	4.73765945
-0.67156583	-0.33484569	4.73765945
-0.67050093	-0.33546776	4.73765945
-0.67032331	-0.33578518	4.73765945
-0.66803002	-0.33735389	4.73765945
-0.66462344	-0.34167936	4.73765898
-0.66303986	-0.34326065	4.73765850
-0.66215253	-0.34356552	4.73765850
-0.66098022	-0.34454006	4.73765850
-0.65973777	-0.34547961	4.73765850
-0.65828961	-0.34672245	4.73765850
-0.65809804	-0.34703273	4.73765850
-0.65685540	-0.34797239	4.73765802
-0.65584671	-0.34862265	4.73765802
-0.65342641	-0.35141027	4.73765802
-0.65073586	-0.35359266	4.73765755
-0.64896065	-0.35548425	4.73765755
-0.64587259	-0.35828042	4.73765707
-0.64344376	-0.36018762	4.73765707
-0.63620585	-0.36377418	4.73765659
-0.62991172	-0.36580205	4.73765659
-0.62743235	-0.36680752	4.73765659
-0.62329066	-0.36847878	4.73765612
-0.62206227	-0.36942518	4.73765612
-0.61346638	-0.37214133	4.73765612
-0.60555226	-0.37485579	4.73765564
-0.59781593	-0.37158906	4.73765612
-0.58228451	-0.36327332	4.73765707
-0.57603312	-0.35965809	4.73765755
-0.57252574	-0.35651642	4.73765802
-0.57046926	-0.35388613	4.73765850
-0.56205219	-0.33929279	4.73765993
-0.56155092	-0.33634904	4.73766041
-0.55024719	-0.30813009	4.73766375
-0.55035156	-0.30602351	4.73766375
-0.55069828	-0.30450815	4.73766422
-0.55107307	-0.30300689	4.73766422
-0.55130684	-0.30271766	4.73766422
-0.55056608	-0.30093691	4.73766422
-0.55054355	-0.30004928	4.73766470
-0.55004501	-0.29885975	4.73766470
-0.54961687	-0.29770511	4.73766470
-0.54974937	-0.29561266	4.73766518
-0.54902273	-0.29383889	4.73766518
-0.54880875	-0.29326159	4.73766518
-0.54805952	-0.29060018	4.73766565
-0.54775256	-0.28910038	4.73766565
-0.54753828	-0.28852329	4.73766565
-0.54750192	-0.28762850	4.73766613
-0.54719496	-0.28612873	4.73766613
-0.54741466	-0.28583252	4.73766613
-0.54718655	-0.28524825	4.73766613
-0.54597539	-0.28229189	4.73766661
-0.54678404	-0.28107148	4.73766661
-0.54698128	-0.27988744	4.73766661
-0.54668844	-0.27839455	4.73766708
-0.54711378	-0.27779502	4.73766708
-0.54739583	-0.27537102	4.73766708
-0.54774261	-0.27385569	4.73766756
-0.54818201	-0.27326301	4.73766756
-0.54854274	-0.27175453	4.73766756
-0.54914886	-0.26692781	4.73766804
-0.54989004	-0.26304457	4.73766851
-0.47617227	-0.10950957	4.73768616
-0.47398892	-0.10809819	4.73768663
-0.47219443	-0.10519245	4.73768663
-0.47058594	-0.10284999	4.73768711
-0.46955478	-0.10261256	4.73768711
-0.46821675	-0.10087515	4.73768759
-0.46779686	-0.10060139	4.73768759
-0.46690944	-0.10090624	4.73768759
-0.46367258	-0.09836960	4.73768759
-0.46281326	-0.09868853	4.73768759
-0.45875916	-0.09649179	4.73768806
-0.45735639	-0.09384596	4.73768806
-0.45563510	-0.09272934	4.73768854
-0.45301786	-0.09103706	4.73768854
-0.45145997	-0.08959629	4.73768902
-0.45017254	-0.08876053	4.73768902
-0.44690737	-0.08621005	4.73768902
-0.44601166	-0.08563420	4.73768950
-0.44463691	-0.08300245	4.73768950
-0.44291556	-0.08188583	4.73768950
-0.44151279	-0.07923998	4.73768997
-0.44088736	-0.07926937	4.73768997
-0.43932098	-0.07694792	4.73769045
-0.43867311	-0.07608970	4.73769045
-0.43612376	-0.07139634	4.73769093
-0.43501952	-0.06936962	4.73769140
-0.43459976	-0.06909566	4.73769140
-0.43109557	-0.06204428	4.73769188
-0.38741136	0.02937622	4.73770237
-0.38676333	0.03023422	4.73770285
-0.38514644	0.03345738	4.73770285
-0.38441977	0.03523114	4.73770332
-0.38420570	0.03580847	4.73770332
-0.38103181	0.05180053	4.73770523
-0.37461880	0.07902908	4.73770809
-0.33644095	0.22175358	4.73772430
-0.33505222	0.22439250	4.73772478
-0.33410296	0.22762409	4.73772526
-0.33362693	0.22792597	4.73772526
-0.32716024	0.25214654	4.73772764
-0.32779455	0.25695938	4.73772812
-0.33068040	0.26902595	4.73772955
-0.38141248	0.30455208	4.73773289
-0.38596556	0.30682999	4.73773336
-0.39320356	0.31041655	4.73773384
-0.41592890	0.31879067	4.73773432
-0.42656428	0.31625539	4.73773384
-0.43080726	0.31612346	4.73773384
-0.43588972	0.31544361	4.73773384
-0.43935201	0.31407690	4.73773336
-0.43994936	0.31412038	4.73773336
-0.44146231	0.31445485	4.73773336
-0.44252998	0.31332269	4.73773336
-0.44424289	0.31308672	4.73773336
-0.44850835	0.31206718	4.73773336
-0.45070007	0.30977511	4.73773289
-0.45237640	0.31043372	4.73773289
-0.45414838	0.30841556	4.73773289
-0.45610341	0.30758822	4.73773289
-0.45754603	0.30795756	4.73773289
-0.46095216	0.30661908	4.73773241
-0.46292129	0.30578482	4.73773241
-0.46614146	0.30500954	4.73773241
-0.46801788	0.30509800	4.73773241
-0.47478515	0.30419621	4.73773193
-0.47885057	0.30374682	4.73773193
-0.62820220	0.38690978	4.73774004
-0.62943369	0.39176592	4.73774052
-0.63990647	0.40023446	4.73774099
-0.64101958	0.40299121	4.73774147
-0.65008903	0.40844139	4.73774195
-0.69776607	0.43070307	4.73774385
-0.79458189	0.47079822	4.73774767
-0.79825324	0.47364482	4.73774767
-0.80407685	0.47684821	4.73774815
-0.80924982	0.47828200	4.73774815
-0.81641990	0.47886741	4.73774815
-0.83184767	0.47977301	4.73774815
-0.84826410	0.47479820	4.73774719
-0.86051315	0.46513012	4.73774624
-0.86660957	0.46031004	4.73774576
-0.87347478	0.45369518	4.73774481
-0.87547499	0.45109287	4.73774433
-0.98565775	0.33012393	4.73773003
-1.00751007	0.30682996	4.73772717
-1.00883973	0.30597344	4.73772717
-1.01462603	0.29874343	4.73772621
-1.03797114	0.26925316	4.73772287
-1.05238581	0.24860676	4.73772049
-1.05828166	0.23869309	4.73771906
-1.05988455	0.23547688	4.73771906
-1.06209552	0.22838748	4.73771811
-1.06361651	0.22217712	4.73771715
-1.06391764	0.21980378	4.73771715
-1.06465280	0.21714926	4.73771667
-1.06516826	0.21419859	4.73771667
-1.06593156	0.21153030	4.73771620
-1.06595409	0.21064267	4.73771620
-1.06719613	0.20591827	4.73771572
-1.06751144	0.20353773	4.73771524
-1.06779027	0.20205201	4.73771524
-1.06903791	0.19820112	4.73771477
-1.06973088	0.19556762	4.73771429
-1.06957579	0.19436279	4.73771429
-1.06975853	0.18988985	4.73771381
-1.07008815	0.18750243	4.73771334
-1.07032466	0.18603748	4.73771334
-1.07040334	0.18512194	4.73771334
-1.07091022	0.18305174	4.73771286
-1.13019717	0.02056837	4.73769426
-1.13263106	0.01768490	4.73769426
