//X	Y	Z
-1.23271120	0.06237211	3.70742726
-1.23203409	0.05311625	3.70740294
-1.22272205	0.01727476	3.70731187
-1.21750808	0.00505019	3.70728159
-1.21100378	-0.00866497	3.70724797
-1.20919967	-0.01216540	3.70723939
-1.20849919	-0.01273098	3.70723820
-1.20714664	-0.01500409	3.70723271
-1.20517743	-0.01759358	3.70722675
-1.20361316	-0.02006743	3.70722079
-1.20110393	-0.02328926	3.70721340
-1.19902670	-0.02555706	3.70720840
-1.19522560	-0.03247279	3.70719171
-1.19269633	-0.03596793	3.70718336
-1.19058681	-0.03821737	3.70717835
-1.18792522	-0.04082009	3.70717263
-1.18683970	-0.04122805	3.70717192
-1.18470371	-0.04432847	3.70716476
-1.18335044	-0.04436052	3.70716524
-1.18118107	-0.04743002	3.70715809
-1.17923272	-0.04975864	3.70715261
-1.17847538	-0.04973517	3.70715308
-1.17732561	-0.05100404	3.70715022
-1.17687500	-0.05135890	3.70714951
-1.17449522	-0.05553920	3.70713949
-1.17349195	-0.05567297	3.70713949
-1.17245507	-0.05722268	3.70713592
-1.17187154	-0.05757019	3.70713520
-1.17117023	-0.05812319	3.70713401
-1.17067432	-0.05905310	3.70713162
-1.17022991	-0.05971552	3.70713019
-1.16934073	-0.06025872	3.70712900
-1.16851044	-0.06075090	3.70712805
-1.16763496	-0.06237995	3.70712423
-1.16697419	-0.06239892	3.70712447
-1.16634929	-0.06326787	3.70712233
-1.16532505	-0.06510939	3.70711803
-1.16447282	-0.06506827	3.70711851
-1.16352808	-0.06581642	3.70711684
-1.16264355	-0.06575693	3.70711732
-1.16054273	-0.06969492	3.70710778
-1.15916514	-0.07138436	3.70710397
-1.08446908	-0.22669098	3.70672369
-1.08458185	-0.22785684	3.70672059
-1.08396173	-0.22957011	3.70671630
-1.08270919	-0.23271728	3.70670843
-1.08368289	-0.23338428	3.70670629
-1.08296347	-0.23646422	3.70669842
-1.08216012	-0.23979309	3.70668983
-1.07530236	-0.25335658	3.70665693
-1.07306552	-0.25779849	3.70664597
-1.07243347	-0.25923252	3.70664263
-1.06848896	-0.26721749	3.70662308
-1.05933297	-0.28156099	3.70658898
-1.05525947	-0.28725666	3.70657563
-1.04818738	-0.29429817	3.70655990
-1.03700006	-0.30532870	3.70653558
-1.02738714	-0.31191099	3.70652223
-1.02086759	-0.31638354	3.70651317
-1.01907873	-0.31653804	3.70651364
-1.01677251	-0.31787077	3.70651102
-1.01419115	-0.31794575	3.70651197
-1.01355362	-0.31774139	3.70651269
-1.00883460	-0.32011020	3.70650864
-1.00756335	-0.31986812	3.70650983
-1.00653100	-0.32003367	3.70650983
-1.00484967	-0.32127893	3.70650721
-1.00384140	-0.32123375	3.70650768
-1.00224662	-0.32226741	3.70650578
-1.00163960	-0.32205665	3.70650649
-0.99959844	-0.32294610	3.70650506
-0.99682242	-0.32435781	3.70650268
-0.99516243	-0.32457313	3.70650268
-0.99388492	-0.32490873	3.70650244
-0.99302560	-0.32543275	3.70650148
-0.99204290	-0.32530564	3.70650220
-0.99072742	-0.32621282	3.70650029
-0.98840040	-0.32780641	3.70649719
-0.98760068	-0.32751036	3.70649815
-0.98473561	-0.32909590	3.70649529
-0.98158240	-0.33046284	3.70649314
-0.97954118	-0.33135229	3.70649147
-0.97604734	-0.33364066	3.70648694
-0.97461015	-0.33392188	3.70648694
-0.97068369	-0.33492333	3.70648599
-0.96760458	-0.33512169	3.70648670
-0.96511352	-0.33581680	3.70648599
-0.96468526	-0.33537418	3.70648742
-0.96412086	-0.33543563	3.70648742
-0.96196884	-0.33596581	3.70648694
-0.95811713	-0.33725810	3.70648527
-0.95759320	-0.33678538	3.70648670
-0.95719659	-0.33634865	3.70648813
-0.95656037	-0.33627313	3.70648861
-0.95424747	-0.33740175	3.70648670
-0.95366234	-0.33772415	3.70648599
-0.95169771	-0.33892950	3.70648360
-0.94919032	-0.33850124	3.70648599
-0.94817328	-0.33754939	3.70648885
-0.94754577	-0.33759916	3.70648909
-0.94649273	-0.33802560	3.70648837
-0.94299805	-0.34030133	3.70648384
-0.94202513	-0.33964688	3.70648599
-0.94061965	-0.33993405	3.70648575
-0.93964225	-0.34066370	3.70648432
-0.93874162	-0.33948100	3.70648789
-0.93698800	-0.34047303	3.70648599
-0.93533075	-0.34150755	3.70648408
-0.93319297	-0.34235436	3.70648265
-0.93153858	-0.34197977	3.70648432
-0.93026191	-0.34232777	3.70648408
-0.92922956	-0.34249339	3.70648408
-0.92819631	-0.34264639	3.70648408
-0.92651486	-0.34311020	3.70648360
-0.92554194	-0.34245571	3.70648575
-0.92452043	-0.34288779	3.70648503
-0.92253780	-0.34294477	3.70648575
-0.92193007	-0.34272125	3.70648670
-0.92072552	-0.34254098	3.70648766
-0.91941893	-0.34290823	3.70648718
-0.91866255	-0.34289736	3.70648766
-0.91760856	-0.34331107	3.70648694
-0.91630036	-0.34365332	3.70648670
-0.91495872	-0.34396458	3.70648646
-0.91413820	-0.34392941	3.70648694
-0.91288859	-0.34343898	3.70648885
-0.91234314	-0.34321457	3.70648956
-0.91163176	-0.34351364	3.70648909
-0.91060776	-0.34246132	3.70649242
-0.90983754	-0.34281147	3.70649171
-0.90925449	-0.34249339	3.70649290
-0.90856117	-0.34249407	3.70649314
-0.90794051	-0.34264424	3.70649314
-0.90745127	-0.34233129	3.70649409
-0.90661877	-0.34268230	3.70649362
-0.90558642	-0.34284788	3.70649362
-0.90316862	-0.34459001	3.70649004
-0.90242392	-0.34485817	3.70648956
-0.90179545	-0.34489554	3.70648980
-0.89834410	-0.34522802	3.70649028
-0.89696282	-0.34608591	3.70648861
-0.89632261	-0.34584400	3.70648956
-0.89574647	-0.34562638	3.70649052
-0.89046586	-0.34887582	3.70648408
-0.74974406	-0.44902676	3.70627975
-0.74902362	-0.44986567	3.70627785
-0.74791104	-0.45111215	3.70627499
-0.74680299	-0.45320269	3.70626998
-0.74547851	-0.45464993	3.70626664
-0.74502319	-0.45727402	3.70625973
-0.74421799	-0.45834965	3.70625734
-0.74334973	-0.45941356	3.70625496
-0.74299371	-0.46067092	3.70625162
-0.74188101	-0.46191728	3.70624876
-0.74031228	-0.46354699	3.70624518
-0.73830700	-0.46528637	3.70624137
-0.73693031	-0.46698859	3.70623755
-0.73472673	-0.46923313	3.70623255
-0.72222042	-0.47889221	3.70621228
-0.71918648	-0.48162889	3.70620632
-0.71734178	-0.48343509	3.70620251
-0.71685398	-0.48381245	3.70620155
-0.71533656	-0.48517466	3.70619869
-0.71556473	-0.48609728	3.70619607
-0.71391207	-0.48797596	3.70619178
-0.71236306	-0.48933220	3.70618892
-0.71061397	-0.49116835	3.70618486
-0.70973653	-0.49199083	3.70618296
-0.70855999	-0.49321300	3.70618033
-0.70774394	-0.49402201	3.70617843
-0.70736265	-0.49469614	3.70617676
-0.70696783	-0.49506587	3.70617604
-0.70586962	-0.49662903	3.70617247
-0.70487154	-0.49761951	3.70617008
-0.70426738	-0.49822772	3.70616889
-0.70440429	-0.49918309	3.70616627
-0.70476872	-0.50038290	3.70616293
-0.70361644	-0.50217599	3.70615864
-0.70175552	-0.50508714	3.70615172
-0.69804907	-0.50979209	3.70614076
-0.69635582	-0.51220495	3.70613503
-0.69626385	-0.51300663	3.70613313
-0.69426298	-0.51480877	3.70612907
-0.69260854	-0.51666254	3.70612502
-0.69235528	-0.51738483	3.70612311
-0.69098115	-0.51912463	3.70611906
-0.68974417	-0.52115428	3.70611429
-0.69030493	-0.52248955	3.70611048
-0.68937266	-0.52352911	3.70610809
-0.68870819	-0.52494478	3.70610452
-0.68704283	-0.52653193	3.70610118
-0.68527395	-0.52864158	3.70609641
-0.68388462	-0.53005195	3.70609307
-0.68328738	-0.53076053	3.70609164
-0.68220639	-0.53201276	3.70608878
-0.68219918	-0.53257769	3.70608711
-0.68175548	-0.53325266	3.70608568
-0.68204767	-0.53419948	3.70608282
-0.68186826	-0.53664684	3.70607662
-0.67902189	-0.54084039	3.70606661
-0.67615741	-0.54310369	3.70606184
-0.67544091	-0.54410893	3.70605946
-0.67511278	-0.54454052	3.70605850
-0.67479068	-0.54506004	3.70605731
-0.67454839	-0.54683048	3.70605254
-0.67340696	-0.54889017	3.70604777
-0.67260361	-0.54999083	3.70604515
-0.67132968	-0.55115801	3.70604253
-0.67123944	-0.55198473	3.70604038
-0.66957331	-0.55355912	3.70603704
-0.66893846	-0.55417418	3.70603561
-0.66896111	-0.55471992	3.70603418
-0.66817033	-0.55611235	3.70603085
-0.66750133	-0.55668372	3.70602965
-0.66642118	-0.55794853	3.70602655
-0.66566831	-0.55876905	3.70602489
-0.66504449	-0.55965054	3.70602274
-0.66410041	-0.56041110	3.70602107
-0.66337103	-0.56179011	3.70601773
-0.66284275	-0.56270170	3.70601559
-0.66219896	-0.56385654	3.70601273
-0.66107917	-0.56566793	3.70600843
-0.65950114	-0.56705600	3.70600557
-0.65997189	-0.56777108	3.70600343
-0.65997553	-0.56860280	3.70600104
-0.65888816	-0.57043260	3.70599675
-0.65797484	-0.57118636	3.70599508
-0.65777642	-0.57169151	3.70599389
-0.65718234	-0.57255363	3.70599198
-0.65615356	-0.57355100	3.70598960
-0.65592271	-0.57403761	3.70598841
-0.65519249	-0.57540399	3.70598507
-0.65456855	-0.57628554	3.70598316
-0.65390044	-0.57686943	3.70598173
-0.65398967	-0.57747722	3.70598006
-0.65330005	-0.57830942	3.70597816
-0.65236765	-0.57934910	3.70597601
-0.65242618	-0.57996345	3.70597434
-0.65171754	-0.58108157	3.70597148
-0.65102708	-0.58190143	3.70596981
-0.65032816	-0.58249211	3.70596838
-0.64911830	-0.58368343	3.70596576
-0.64867288	-0.58433330	3.70596433
-0.64742506	-0.58609629	3.70596004
-0.64646119	-0.58713019	3.70595789
-0.64736110	-0.58830047	3.70595431
-0.64425504	-0.59156537	3.70594692
-0.64046824	-0.59512281	3.70593929
-0.63827276	-0.59681487	3.70593572
-0.63742256	-0.59758031	3.70593405
-0.63595837	-0.59869993	3.70593166
-0.63585466	-0.59922242	3.70593023
-0.63541186	-0.59990990	3.70592880
-0.63456088	-0.60066289	3.70592713
-0.63414073	-0.60189623	3.70592403
-0.63405049	-0.60272282	3.70592189
-0.63299102	-0.60372686	3.70591950
-0.63270450	-0.60441828	3.70591784
-0.63199663	-0.60554892	3.70591521
-0.63137269	-0.60643041	3.70591307
-0.63048375	-0.60775524	3.70590997
-0.63036114	-0.60856354	3.70590782
-0.63017178	-0.60931027	3.70590591
-0.62899524	-0.61053252	3.70590329
-0.62865168	-0.61208153	3.70589924
-0.62609464	-0.61417413	3.70589495
-0.62589705	-0.61469173	3.70589352
-0.62432826	-0.61632138	3.70588994
-0.62344658	-0.61708117	3.70588827
-0.60739702	-0.63010263	3.70586061
-0.60455966	-0.63375610	3.70585227
-0.57921708	-0.64824253	3.70582485
-0.57316816	-0.65120196	3.70581961
-0.54412448	-0.66311824	3.70580077
-0.52965671	-0.66801327	3.70579410
-0.52538854	-0.66914225	3.70579290
-0.52407575	-0.66864014	3.70579481
-0.52269638	-0.66807616	3.70579696
-0.50112301	-0.67128813	3.70579791
-0.50020599	-0.67121029	3.70579863
-0.49772391	-0.67136556	3.70579910
-0.48567450	-0.67318761	3.70579958
-0.48525345	-0.67217982	3.70580244
-0.42615846	-0.68126678	3.70580435
-0.41333029	-0.68186641	3.70580840
-0.41016746	-0.68231398	3.70580864
-0.39820570	-0.68327147	3.70581126
-0.39697951	-0.68333936	3.70581174
-0.39578390	-0.68261927	3.70581412
-0.39239573	-0.68296325	3.70581460
-0.37984839	-0.68412697	3.70581722
-0.37882283	-0.68383110	3.70581841
-0.37616041	-0.68419290	3.70581865
-0.37455106	-0.68412840	3.70581937
-0.37104374	-0.68388408	3.70582175
-0.37085894	-0.68324649	3.70582342
-0.36910892	-0.68284178	3.70582533
-0.36850038	-0.68260586	3.70582628
-0.36418602	-0.68263054	3.70582795
-0.36349100	-0.68260598	3.70582843
-0.36203033	-0.68232894	3.70582986
-0.36058864	-0.68176597	3.70583177
-0.36019284	-0.68134171	3.70583320
-0.35883865	-0.68136144	3.70583367
-0.35821110	-0.68141139	3.70583391
-0.35719684	-0.68127853	3.70583463
-0.35343799	-0.68178165	3.70583510
-0.35179698	-0.68171114	3.70583582
-0.35114360	-0.68027997	3.70583987
-0.34960911	-0.68050629	3.70584011
-0.33693960	-0.68259466	3.70584011
-0.33455294	-0.68277967	3.70584059
-0.33309063	-0.68247753	3.70584202
-0.33252984	-0.68114233	3.70584583
-0.33183739	-0.68115568	3.70584607
-0.33101514	-0.68109530	3.70584679
-0.33049044	-0.68061018	3.70584822
-0.32863757	-0.68074042	3.70584869
-0.32752946	-0.68060279	3.70584941
-0.32659265	-0.68079829	3.70584941
-0.32581186	-0.68021631	3.70585132
-0.32445857	-0.68024856	3.70585179
-0.32160234	-0.68051273	3.70585227
-0.32096940	-0.67970580	3.70585489
-0.31793454	-0.68020165	3.70585489
-0.31546417	-0.68063593	3.70585465
-0.31338766	-0.68068790	3.70585561
-0.31069192	-0.68101883	3.70585585
-0.31033486	-0.68003529	3.70585871
-0.30934268	-0.67977023	3.70585966
-0.30796903	-0.67995965	3.70585990
-0.30647641	-0.67978036	3.70586085
-0.30557209	-0.67999429	3.70586085
-0.30450362	-0.67930984	3.70586300
-0.30356517	-0.67948037	3.70586300
-0.30306935	-0.67896348	3.70586467
-0.30082607	-0.67952633	3.70586419
-0.29982269	-0.67966008	3.70586419
-0.29735225	-0.68009424	3.70586419
-0.28880411	-0.68207282	3.70586276
-0.28480008	-0.68274581	3.70586252
-0.28213760	-0.68310755	3.70586276
-0.28159299	-0.68289566	3.70586371
-0.27900267	-0.68272913	3.70586514
-0.27839410	-0.68249321	3.70586610
-0.27611572	-0.68300015	3.70586586
-0.12773836	-0.72370231	3.70582271
-0.10104398	-0.73244613	3.70581126
-0.08160584	-0.72943175	3.70582795
-0.04860955	-0.71434814	3.70588255
-0.04469204	-0.70890617	3.70589876
-0.03534389	-0.69499022	3.70593977
-0.03579672	-0.68419659	3.70596838
-0.03086037	-0.65181899	3.70605659
-0.03088292	-0.64790803	3.70606709
-0.03077827	-0.64618957	3.70607162
-0.03068990	-0.64559460	3.70607328
-0.03052047	-0.64161110	3.70608401
-0.03002189	-0.63581842	3.70609951
-0.03029688	-0.63340092	3.70610595
-0.03038795	-0.63035846	3.70611382
-0.03037529	-0.62783825	3.70612049
-0.03039880	-0.62616831	3.70612502
-0.03113085	-0.62560850	3.70612621
-0.03156280	-0.62465447	3.70612860
-0.03188638	-0.62337852	3.70613170
-0.03219850	-0.62182373	3.70613575
-0.03217412	-0.62125283	3.70613742
-0.03269064	-0.62006229	3.70614028
-0.03295759	-0.61819708	3.70614505
-0.03300542	-0.61709797	3.70614791
-0.03352199	-0.61590737	3.70615101
-0.03361312	-0.61509311	3.70615315
-0.03346879	-0.61392146	3.70615625
-0.03389258	-0.61129147	3.70616317
-0.03516119	-0.60926759	3.70616794
-0.03551280	-0.60716605	3.70617342
-0.03587165	-0.60672784	3.70617437
-0.03569946	-0.60415351	3.70618129
-0.03576703	-0.60278100	3.70618486
-0.03616733	-0.60182106	3.70618725
-0.03605463	-0.60065520	3.70619035
-0.03629445	-0.59962845	3.70619297
-0.03638196	-0.59798265	3.70619726
-0.03651717	-0.59523773	3.70620465
-0.03656499	-0.59413856	3.70620751
-0.03740893	-0.59250379	3.70621157
-0.03715649	-0.59101021	3.70621562
-0.03790844	-0.59017718	3.70621753
-0.03928157	-0.58987164	3.70621777
-0.03878387	-0.58631986	3.70622730
-0.03871171	-0.58461982	3.70623183
-0.03885511	-0.58355057	3.70623469
-0.03931493	-0.58177078	3.70623922
-0.04013178	-0.58097434	3.70624089
-0.03985411	-0.57889736	3.70624661
-0.04004979	-0.57534486	3.70625591
-0.04062952	-0.57416588	3.70625877
-0.04074128	-0.57309085	3.70626163
-0.04142112	-0.57055771	3.70626807
-0.04184495	-0.57015616	3.70626903
-0.04191700	-0.56962776	3.70627046
-0.04248958	-0.56901383	3.70627165
-0.04350930	-0.56855655	3.70627260
-0.04435859	-0.56777847	3.70627427
-0.04505831	-0.56720030	3.70627546
-0.04524583	-0.56420028	3.70628333
-0.04562179	-0.56266952	3.70628715
-0.04564970	-0.56184375	3.70628929
-0.04574525	-0.55964535	3.70629525
-0.04620966	-0.55870962	3.70629740
-0.04675336	-0.55668062	3.70630264
-0.04742954	-0.55554420	3.70630527
-0.04822562	-0.55500847	3.70630646
-0.04879816	-0.55439448	3.70630789
-0.04860976	-0.55292529	3.70631170
-0.04878555	-0.55187440	3.70631456
-0.05053749	-0.55085742	3.70631647
-0.05055449	-0.54976487	3.70631933
-0.05090162	-0.54681897	3.70632696
-0.05151385	-0.54565841	3.70632982
-0.05202144	-0.54500753	3.70633149
-0.05230636	-0.54429114	3.70633316
-0.05268596	-0.54359204	3.70633483
-0.05277787	-0.54279035	3.70633698
-0.05272201	-0.54221368	3.70633841
-0.05315750	-0.53986275	3.70634460
-0.05374179	-0.53952801	3.70634508
-0.05427734	-0.53805155	3.70634890
-0.05512572	-0.53503245	3.70635653
-0.05654579	-0.53361523	3.70635962
-0.05681804	-0.53260702	3.70636225
-0.05790270	-0.53218651	3.70636296
-0.05783055	-0.53048640	3.70636749
-0.05951933	-0.52945769	3.70636940
-0.05954638	-0.52861929	3.70637155
-0.06004316	-0.52770197	3.70637393
-0.05985917	-0.52707684	3.70637560
-0.06042717	-0.52561873	3.70637918
-0.06163989	-0.52524662	3.70637965
-0.06207991	-0.52373999	3.70638347
-0.06310861	-0.52274269	3.70638561
-0.06383718	-0.52135134	3.70638919
-0.06529775	-0.51939988	3.70639372
-0.06614615	-0.51860929	3.70639539
-0.06670968	-0.51853526	3.70639539
-0.06675030	-0.51800120	3.70639682
-0.06675389	-0.51660454	3.70640039
-0.06704597	-0.51532286	3.70640373
-0.06794586	-0.51426470	3.70640612
-0.06778985	-0.51281387	3.70641017
-0.06839387	-0.51220560	3.70641136
-0.06870581	-0.51065081	3.70641541
-0.06924595	-0.51001847	3.70641685
-0.06973007	-0.50880933	3.70641994
-0.07086258	-0.50728965	3.70642352
-0.07171575	-0.50667775	3.70642471
-0.07165901	-0.50608855	3.70642614
-0.07200704	-0.50538373	3.70642805
-0.07243526	-0.50359792	3.70643258
-0.07315113	-0.50191462	3.70643663
-0.07427344	-0.50158787	3.70643711
-0.07454122	-0.49973541	3.70644188
-0.07514706	-0.49915218	3.70644307
-0.07543108	-0.49842313	3.70644498
-0.07571420	-0.49768150	3.70644689
-0.07582152	-0.49576229	3.70645189
-0.07685110	-0.49477774	3.70645404
-0.07676186	-0.49417013	3.70645571
-0.07706575	-0.49316773	3.70645833
-0.07753813	-0.49167946	3.70646191
-0.07820629	-0.49109536	3.70646334
-0.07827839	-0.49056712	3.70646453
-0.07874276	-0.48963135	3.70646691
-0.07920341	-0.48786396	3.70647144
-0.07965963	-0.48748085	3.70647216
-0.07969844	-0.48692164	3.70647359
-0.07944685	-0.48544070	3.70647764
-0.08003829	-0.48231238	3.70648575
-0.08023672	-0.47735071	3.70649886
-0.08095706	-0.47651181	3.70650077
-0.08059551	-0.47245574	3.70651174
-0.08044678	-0.47043973	3.70651722
-0.03868999	-0.30356652	3.70697951
-0.03776490	-0.30181277	3.70698452
-0.03667577	-0.30138913	3.70698619
-0.03611832	-0.29954228	3.70699120
-0.03587426	-0.29883981	3.70699310
-0.03541179	-0.29835367	3.70699477
-0.03461198	-0.29805779	3.70699596
-0.03373110	-0.29660162	3.70700002
-0.03343897	-0.29565486	3.70700288
-0.03237331	-0.29578951	3.70700288
-0.03142371	-0.29435015	3.70700717
-0.03071134	-0.29240820	3.70701265
-0.03046547	-0.29168054	3.70701456
-0.02974064	-0.29167545	3.70701504
-0.02935200	-0.29068607	3.70701766
-0.02874348	-0.29045010	3.70701861
-0.02705378	-0.28923801	3.70702267
-0.02612214	-0.28894699	3.70702386
-0.02534135	-0.28836504	3.70702577
-0.02517637	-0.28745413	3.70702815
-0.02465007	-0.28605881	3.70703220
-0.02393034	-0.28556705	3.70703387
-0.02213700	-0.28487742	3.70703650
-0.02162342	-0.28377390	3.70703959
-0.02110546	-0.28282711	3.70704222
-0.02012281	-0.28270018	3.70704317
-0.01818521	-0.28083873	3.70704889
-0.01782734	-0.27984267	3.70705175
-0.01700406	-0.27898851	3.70705438
-0.01611424	-0.27807227	3.70705724
-0.01550729	-0.27786136	3.70705795
-0.01461022	-0.27751023	3.70705938
-0.01417661	-0.27621102	3.70706296
-0.01329214	-0.27615157	3.70706344
-0.01231305	-0.27462792	3.70706797
-0.01175759	-0.27414945	3.70706940
-0.01119664	-0.27426106	3.70706940
-0.01021119	-0.27331498	3.70707250
-0.00845044	-0.27119684	3.70707870
-0.00727569	-0.26876897	3.70708585
-0.00674457	-0.26886132	3.70708585
-0.00599538	-0.26828533	3.70708752
-0.00480439	-0.26696232	3.70709157
-0.00422909	-0.26675731	3.70709252
-0.00339061	-0.26557356	3.70709610
-0.00244108	-0.26469597	3.70709872
-0.00203004	-0.26394248	3.70710087
-0.00100302	-0.26273635	3.70710468
-0.00051075	-0.26226956	3.70710611
-0.00017546	-0.26181942	3.70710731
0.00028180	-0.26140860	3.70710874
0.00091008	-0.25999910	3.70711279
0.00168744	-0.25946733	3.70711446
0.00256640	-0.25881776	3.70711660
0.00334170	-0.25764570	3.70711994
0.00423877	-0.25729460	3.70712137
0.00483567	-0.25733793	3.70712161
0.00602492	-0.25604007	3.70712543
0.00721503	-0.25472957	3.70712948
0.00759098	-0.25403199	3.70713162
0.00858454	-0.25363845	3.70713305
0.00978191	-0.25289309	3.70713544
0.01077901	-0.25166774	3.70713925
0.01151207	-0.24998668	3.70714402
0.01269771	-0.24952060	3.70714569
0.01336670	-0.24786367	3.70715046
0.01401955	-0.24733016	3.70715213
0.01490495	-0.24502982	3.70715857
0.01612657	-0.24371360	3.70716262
0.01676396	-0.24206261	3.70716739
0.01756467	-0.24175398	3.70716858
0.01830577	-0.24062547	3.70717192
0.01898287	-0.23952107	3.70717502
0.02044247	-0.23780973	3.70718026
0.02111492	-0.23610267	3.70718527
0.02151617	-0.23482165	3.70718884
0.02195089	-0.23417525	3.70719075
0.02261805	-0.23332490	3.70719314
0.02286688	-0.23266317	3.70719504
0.02405976	-0.23276198	3.70719528
0.02514075	-0.23178582	3.70719838
0.02686730	-0.22971120	3.70720458
0.02807650	-0.22868663	3.70720792
0.02888151	-0.22753380	3.70721126
0.03199764	-0.22464132	3.70722032
0.03363219	-0.22176501	3.70722890
0.03416692	-0.22102566	3.70723104
0.03479067	-0.22046033	3.70723271
0.03525586	-0.21915516	3.70723653
0.03643334	-0.21813653	3.70723963
0.03767767	-0.21850288	3.70723915
0.03866854	-0.21447176	3.70725036
0.03933028	-0.21224973	3.70725656
0.04061787	-0.21233125	3.70725703
0.04150854	-0.21140243	3.70725989
0.04580371	-0.18674576	3.70732737
0.04654123	-0.18422039	3.70733428
0.04755194	-0.17823428	3.70735073
0.04853107	-0.17448223	3.70736122
0.04889983	-0.17321953	3.70736456
0.04936134	-0.17051768	3.70737195
0.05010340	-0.16714813	3.70738125
0.05098246	-0.16204202	3.70739532
0.05139171	-0.15908524	3.70740342
0.05153698	-0.15790084	3.70740652
0.05169740	-0.15560581	3.70741272
0.05198046	-0.14821555	3.70743251
0.05150889	-0.13635466	3.70746374
0.05093834	-0.13047734	3.70747924
0.05025936	-0.12570333	3.70749164
0.04599728	-0.09708121	3.70756578
0.04531382	-0.09315136	3.70757604
0.03427011	-0.05723153	3.70766664
0.03322606	-0.05511674	3.70767188
0.03207380	-0.05332366	3.70767617
0.03024529	-0.05039410	3.70768309
0.02986486	-0.04970759	3.70768476
0.02780380	-0.04631640	3.70769286
0.02703191	-0.04520981	3.70769548
0.02564623	-0.04296784	3.70770073
0.02449400	-0.04117475	3.70770502
0.02317395	-0.03888331	3.70771050
-0.05937825	0.11180703	3.70807505
-0.06441742	0.12218678	3.70810056
-0.07216571	0.13114628	3.70812082
-0.08147676	0.14182325	3.70814514
-0.16739166	0.24019299	3.70836902
-0.31733841	0.32573560	3.70853066
-0.31799567	0.32658643	3.70853257
-0.31854382	0.32777131	3.70853543
-0.32176086	0.32989538	3.70853972
-0.32227021	0.33052105	3.70854115
-0.32444680	0.33192724	3.70854402
-0.32455045	0.33244967	3.70854521
-0.32780164	0.33453038	3.70854926
-0.32818210	0.33521691	3.70855093
-0.34233081	0.34389558	3.70856786
-0.37948322	0.36596608	3.70861030
-0.38045967	0.36670846	3.70861173
-0.45779327	0.39272130	3.70864701
-0.48030031	0.39684445	3.70864797
-0.50894266	0.39745325	3.70863700
-0.53646892	0.39764723	3.70862532
-0.60770512	0.38496208	3.70856047
-0.61983633	0.38193619	3.70854688
-0.62706822	0.37856323	3.70853472
-0.62848020	0.37719959	3.70853066
-0.62910229	0.37665927	3.70852876
-0.63407922	0.37444955	3.70852089
-0.69346827	0.34992105	3.70842934
-0.69464582	0.34890240	3.70842624
-0.69688010	0.34747827	3.70842147
-0.70276666	0.34462583	3.70841122
-0.70292354	0.34316239	3.70840716
-0.70444548	0.34145194	3.70840216
-0.70773000	0.33904520	3.70839429
-0.70920324	0.33847642	3.70839214
-0.70928347	0.33732900	3.70838904
-0.71017337	0.33641273	3.70838618
-0.71295303	0.33476448	3.70838046
-0.71386552	0.33330244	3.70837617
-0.71703827	0.33204907	3.70837140
-0.72450542	0.32831854	3.70835829
-0.72509408	0.32780930	3.70835662
-0.72736079	0.32636705	3.70835185
-0.74764788	0.31900862	3.70832348
-0.74980277	0.31649134	3.70831561
-0.75064754	0.31588528	3.70831370
-0.75304949	0.31495953	3.70831013
-0.75581658	0.31360304	3.70830536
-0.76103866	0.31156313	3.70829773
-0.76141554	0.31085292	3.70829558
-0.76330537	0.31012088	3.70829272
-0.76656467	0.30829740	3.70828652
-0.76856345	0.30723104	3.70828295
-0.76965261	0.30680734	3.70828128
-0.77003402	0.30525297	3.70827699
-0.77371711	0.30383113	3.70827150
-0.77349716	0.30307782	3.70826960
-0.77732980	0.30185592	3.70826459
-0.94208843	0.25023389	3.70805478
-1.09345675	0.17797416	3.70779610
-1.10091233	0.17452291	3.70778370
-1.10172355	0.17472920	3.70778394
-1.10910499	0.17155616	3.70777225
-1.11286116	0.17065004	3.70776820
-1.11379778	0.17084570	3.70776820
-1.11658466	0.16976243	3.70776415
-1.11772621	0.16959377	3.70776320
-1.11836731	0.16933930	3.70776224
-1.11911118	0.16962010	3.70776272
-1.12004066	0.16925058	3.70776129
-1.12868989	0.16588558	3.70774841
-1.13244510	0.16499203	3.70774436
-1.13427901	0.16483656	3.70774317
-1.14458334	0.15885611	3.70772266
-1.17202568	0.14030886	3.70766139
-1.18028808	0.13345134	3.70763946
-1.20608962	0.11196470	3.70757103
-1.21220040	0.10534622	3.70755076
-1.21435010	0.10145725	3.70753932
-1.23193324	0.06436315	3.70743299
