//X	Y	Z
-0.28397942	-0.55236447	3.08781934
-0.27737302	-0.55121768	3.08775663
-0.27325264	-0.54916370	3.08771634
-0.27235132	-0.54847872	3.08770728
-0.26083302	-0.53951949	3.08759117
-0.26062715	-0.53919423	3.08758903
-0.25769210	-0.53453785	3.08755732
-0.25038156	-0.52219439	3.08747721
-0.24274316	-0.50784445	3.08739209
-0.17491859	-0.37752488	3.08663416
-0.17473099	-0.37685373	3.08663177
-0.17436740	-0.37478486	3.08662653
-0.17678714	-0.30885029	3.08658528
-0.17722258	-0.30804738	3.08658862
-0.17750064	-0.30774289	3.08659077
-0.17794803	-0.30733454	3.08659458
-0.17818397	-0.30658707	3.08659601
-0.17900661	-0.30639997	3.08660364
-0.17913356	-0.30585325	3.08660436
-0.17979878	-0.30504337	3.08660960
-0.18025249	-0.30501565	3.08661389
-0.18115380	-0.30457932	3.08662176
-0.18176490	-0.30405313	3.08662701
-0.18211523	-0.30311897	3.08662939
-0.18251413	-0.30300826	3.08663297
-0.18293226	-0.30291784	3.08663678
-0.18345839	-0.30226025	3.08664107
-0.18370625	-0.30190727	3.08664298
-0.18412337	-0.30145055	3.08664656
-0.18454704	-0.30137417	3.08665037
-0.18496975	-0.30093148	3.08665395
-0.18552044	-0.30030832	3.08665848
-0.18591380	-0.30018362	3.08666205
-0.18619189	-0.29987913	3.08666420
-0.22172248	-0.13122825	3.08683228
-0.22143769	-0.13003129	3.08682847
-0.22107428	-0.12796222	3.08682299
-0.22122493	-0.12596233	3.08682251
-0.22097021	-0.12369272	3.08681798
-0.22118780	-0.12217014	3.08681846
-0.22054633	-0.12152666	3.08681178
-0.22020137	-0.12135386	3.08680844
-0.22059989	-0.11900105	3.08680987
-0.22003716	-0.11810836	3.08680391
-0.22017580	-0.11571403	3.08680272
-0.22055635	-0.11370704	3.08680439
-0.22042903	-0.11313277	3.08680272
-0.22113585	-0.10940266	3.08680558
-0.22117764	-0.10760354	3.08680439
-0.22145557	-0.10617791	3.08680558
-0.22175184	-0.10440610	3.08680654
-0.22158793	-0.10340291	3.08680415
-0.22150910	-0.10253099	3.08680248
-0.22149065	-0.10175602	3.08680153
-0.22173843	-0.10028189	3.08680248
-0.22153261	-0.09995671	3.08680034
-0.22137511	-0.09933399	3.08679819
-0.22152582	-0.09733410	3.08679771
-0.22106001	-0.09696738	3.08679295
-0.22069672	-0.09601945	3.08678865
-0.22098628	-0.09274619	3.08678818
-0.22061107	-0.09252492	3.08678436
-0.22113025	-0.08812357	3.08678508
-0.22078523	-0.08795077	3.08678174
-0.22104490	-0.08575002	3.08678198
-0.22111154	-0.08510631	3.08678198
-0.22091740	-0.08405463	3.08677912
-0.22075993	-0.08343190	3.08677697
-0.22052374	-0.08305840	3.08677459
-0.22036085	-0.08242145	3.08677244
-0.22023359	-0.08184722	3.08677053
-0.22033596	-0.08126602	3.08677101
-0.21989498	-0.08093356	3.08676648
-0.21971908	-0.07953587	3.08676362
-0.21987543	-0.07867119	3.08676410
-0.21984509	-0.07750155	3.08676291
-0.21980837	-0.07707277	3.08676195
-0.21956676	-0.07668504	3.08675933
-0.21977794	-0.07478199	3.08675957
-0.21946937	-0.07391699	3.08675575
-0.21946284	-0.07241539	3.08675432
-0.21942607	-0.07086529	3.08675241
-0.21943778	-0.07013881	3.08675194
-0.21920168	-0.06976530	3.08674932
-0.21924359	-0.06796598	3.08674788
-0.21939424	-0.06596613	3.08674741
-0.21904936	-0.06579313	3.08674407
-0.21924847	-0.06349558	3.08674359
-0.21933889	-0.06251991	3.08674359
-0.21939915	-0.06149574	3.08674312
-0.21905428	-0.06132276	3.08673978
-0.21926510	-0.05829874	3.08673882
-0.21938586	-0.05737135	3.08673906
-0.21947631	-0.05639566	3.08673906
-0.21967551	-0.05409810	3.08673859
-0.22009230	-0.05139912	3.08673978
-0.22016451	-0.05076943	3.08674002
-0.22016439	-0.04964830	3.08673882
-0.21995842	-0.04932325	3.08673668
-0.21986145	-0.04879731	3.08673525
-0.22009075	-0.04654825	3.08673525
-0.21985456	-0.04617474	3.08673263
-0.22008395	-0.04392568	3.08673263
-0.22021741	-0.04263807	3.08673263
-0.21984780	-0.04243084	3.08672881
-0.21979919	-0.04160737	3.08672762
-0.21956298	-0.04123386	3.08672500
-0.21970192	-0.03996047	3.08672523
-0.21957463	-0.03938624	3.08672333
-0.21936864	-0.03793987	3.08671999
-0.21933180	-0.03638996	3.08671832
-0.21976057	-0.03296430	3.08671904
-0.21971187	-0.03214085	3.08671761
-0.21986255	-0.03014098	3.08671713
-0.22272995	-0.00744934	3.08672190
-0.22365445	-0.00331777	3.08672667
-0.22497764	0.00204547	3.08673382
-0.22661552	0.00840555	3.08674288
-0.28786600	0.11836120	3.08720708
-0.29127645	0.12339997	3.08723402
-0.31974426	0.14541323	3.08747792
-0.33583283	0.15721661	3.08761644
-0.33955842	0.15988877	3.08764863
-0.37907040	0.17229721	3.08800459
-0.38235521	0.17193821	3.08803558
-0.38327479	0.17159936	3.08804464
-0.38337186	0.17107363	3.08804584
-0.38452116	0.17074159	3.08805704
-0.38486612	0.17056876	3.08806038
-0.38575557	0.17027846	3.08806896
-0.38639706	0.16963519	3.08807564
-0.38720787	0.16909567	3.08808351
-0.38770375	0.16868040	3.08808851
-0.38845414	0.16823786	3.08809614
-0.38909566	0.16759452	3.08810258
-0.38959157	0.16717930	3.08810759
-0.38979754	0.16685429	3.08810997
-0.39009410	0.16638377	3.08811307
-0.39016092	0.16590638	3.08811426
-0.39059642	0.16558807	3.08811855
-0.39233863	0.16543637	3.08813500
-0.55527759	0.15064989	3.08966732
-0.56519359	0.15017250	3.08976007
-0.56564748	0.15020041	3.08976436
-0.56632715	0.15063779	3.08977008
-0.56672055	0.15076253	3.08977365
-0.56744981	0.15107277	3.08978009
-0.56816357	0.15105914	3.08978677
-0.56869596	0.15133612	3.08979154
-0.57029533	0.15143459	3.08980632
-0.57149315	0.15140048	3.08981752
-0.57359844	0.15142180	3.08983707
-0.57474130	0.15147039	3.08984780
-0.57547969	0.15142234	3.08985472
-0.57581818	0.15162979	3.08985758
-0.57600570	0.15207972	3.08985901
-0.57776612	0.15227407	3.08987522
-0.57844967	0.15230893	3.08988142
-0.57894737	0.15228213	3.08988619
-0.57940120	0.15231009	3.08989024
-0.57998037	0.15249626	3.08989549
-0.58031899	0.15270396	3.08989859
-0.58075434	0.15350690	3.08990192
-0.58324206	0.15368129	3.08992481
-0.58557713	0.15370962	3.08994651
-0.58671451	0.15377223	3.08995700
-0.59010828	0.15361409	3.08998895
-0.60797095	0.15070099	3.09015799
-0.62616611	0.14719649	3.09033108
-0.62686795	0.14645621	3.09033823
-0.62752765	0.14615898	3.09034467
-0.62959105	0.14550227	3.09036446
-0.63048047	0.14521198	3.09037304
-0.63156927	0.14497693	3.09038353
-0.63248891	0.14463811	3.09039235
-0.63283396	0.14446531	3.09039569
-0.63411039	0.14355902	3.09040856
-0.63445544	0.14338621	3.09041190
-0.63509697	0.14274292	3.09041858
-0.64227515	0.14146648	3.09048653
-0.64320666	0.14073299	3.09049606
-0.64441091	0.14031836	3.09050751
-0.64473760	0.13979939	3.09051108
-0.64524001	0.13900366	3.09051657
-0.68539059	0.13278660	3.09089661
-0.83133459	0.11101405	3.09227729
-0.83601207	0.11032391	3.09232163
-0.83651435	0.11064947	3.09232593
-0.83759129	0.11080895	3.09233594
-0.83799016	0.11091965	3.09233952
-0.85896099	0.09556976	3.09254956
-0.91397893	0.00307732	3.09315157
-0.91856158	-0.00642218	3.09320354
-0.95366573	-0.14157453	3.09366131
-0.96369576	-0.18957624	3.09380102
-0.96630716	-0.22249658	3.09385729
-0.96054292	-0.34241268	3.09391952
-0.96030182	-0.34538841	3.09391999
-0.95835727	-0.35797650	3.09391403
-0.95392919	-0.38192812	3.09389591
-0.94981897	-0.39556193	3.09387088
-0.94923282	-0.39724347	3.09386706
-0.93703818	-0.42193052	3.09377742
-0.93651217	-0.42258799	3.09377313
-0.91727388	-0.44507721	3.09361553
-0.91544139	-0.44702238	3.09360027
-0.90246904	-0.45629138	3.09348845
-0.87375247	-0.47198945	3.09323621
-0.86874408	-0.47449601	3.09319186
-0.75579178	-0.50651628	3.09217048
-0.71379220	-0.51498121	3.09178758
-0.70599735	-0.51634228	3.09171605
-0.66954088	-0.51757526	3.09137774
-0.66930485	-0.51720160	3.09137511
-0.66750222	-0.51695293	3.09135818
-0.66516721	-0.51698118	3.09133649
-0.64476091	-0.51810277	3.09114742
-0.64452481	-0.51772922	3.09114480
-0.63161612	-0.51777399	3.09102464
-0.59973067	-0.51869601	3.09072852
-0.59734690	-0.51790100	3.09070539
-0.44447914	-0.51502323	3.08927846
-0.42101514	-0.51585954	3.08906078
-0.41842583	-0.51586032	3.08903670
-0.41691977	-0.51608211	3.08902287
-0.41650248	-0.51653904	3.08901930
-0.41516575	-0.51665694	3.08900690
-0.41486943	-0.51730758	3.08900476
-0.41222596	-0.51759201	3.08898044
-0.41168171	-0.51859570	3.08897638
-0.41165167	-0.51966828	3.08897710
-0.40914744	-0.51980031	3.08895397
-0.40721774	-0.52009839	3.08893633
-0.40663129	-0.52065903	3.08893132
-0.40551046	-0.52076405	3.08892107
-0.40468794	-0.52095103	3.08891344
-0.40409505	-0.52113122	3.08890820
-0.40370810	-0.52163637	3.08890510
-0.40266138	-0.52184445	3.08889556
-0.40246373	-0.52263248	3.08889437
-0.40018183	-0.52313215	3.08887362
-0.39974722	-0.52318019	3.08886957
-0.39848194	-0.52342325	3.08885813
-0.39817351	-0.52367938	3.08885550
-0.39708483	-0.52456546	3.08884621
-0.39115751	-0.52485734	3.08879113
-0.39012370	-0.52582622	3.08878255
-0.39002687	-0.52642137	3.08878231
-0.38921621	-0.52700305	3.08877516
-0.38850915	-0.52849084	3.08877015
-0.38582924	-0.52946752	3.08874607
-0.38461328	-0.52977931	3.08873510
-0.38151622	-0.53121269	3.08870769
-0.38054910	-0.53153783	3.08869886
-0.38019237	-0.53209144	3.08869600
-0.37930962	-0.53442395	3.08869004
-0.37492427	-0.53567761	3.08865047
-0.37203294	-0.53631502	3.08862424
-0.37119216	-0.53684819	3.08861685
-0.36929917	-0.53757519	3.08859992
-0.36825892	-0.53816360	3.08859086
-0.36640799	-0.53933370	3.08857465
-0.36541623	-0.53962445	3.08856583
-0.36501098	-0.54047579	3.08856273
-0.36302084	-0.54067707	3.08854437
-0.36272448	-0.54132771	3.08854222
-0.36065578	-0.54177797	3.08852339
-0.36040789	-0.54213089	3.08852148
-0.35890186	-0.54235274	3.08850765
-0.35830888	-0.54253292	3.08850241
-0.35801253	-0.54318357	3.08850026
-0.35488522	-0.54344732	3.08847141
-0.35178792	-0.54375970	3.08844280
-0.34922153	-0.54418331	3.08841920
-0.34810889	-0.54428023	3.08840895
-0.34729183	-0.54448140	3.08840156
-0.34685290	-0.54494005	3.08839798
-0.34637240	-0.54526371	3.08839369
-0.34441799	-0.54552746	3.08837581
-0.34406292	-0.54569268	3.08837271
-0.34275639	-0.54585910	3.08836055
-0.34126228	-0.54647547	3.08834720
-0.33845535	-0.54693621	3.08832169
-0.33691910	-0.54710954	3.08830738
-0.33627784	-0.54758722	3.08830190
-0.33184120	-0.54803967	3.08826113
-0.33055919	-0.54824054	3.08824921
-0.33016583	-0.54836524	3.08824587
-0.32986945	-0.54901594	3.08824372
-0.32905239	-0.54921705	3.08823609
-0.32842371	-0.54933470	3.08823037
-0.32689303	-0.54952204	3.08821630
-0.32656002	-0.54974377	3.08821344
-0.32441622	-0.55078751	3.08819461
-0.31601602	-0.55168456	3.08811712
-0.31429219	-0.55230778	3.08810163
-0.31355467	-0.55262625	3.08809519
-0.30729985	-0.55315381	3.08803725
-0.30274516	-0.55339015	3.08799505
-0.29718012	-0.55314231	3.08794308
