//X	Y	Z
0.34209144	0.43719184	2.61628342
0.34116161	0.44249123	2.61628294
0.34019849	0.44649056	2.61628270
0.33891654	0.44955444	2.61628246
0.32941315	0.46435738	2.61628103
0.32490230	0.47075891	2.61628056
0.31781378	0.47377679	2.61628032
0.31514591	0.47463566	2.61628008
0.31136474	0.47600397	2.61628008
0.30606729	0.47822365	2.61627984
0.30549151	0.47822741	2.61627984
0.30465674	0.47848594	2.61627960
0.30352104	0.47880128	2.61627960
0.30177015	0.47911286	2.61627960
0.30053627	0.47940931	2.61627960
0.29888359	0.47973979	2.61627960
0.29434618	0.48138183	2.61627936
0.29203922	0.48170102	2.61627936
0.29116240	0.48176166	2.61627936
0.28740183	0.48263955	2.61627913
0.28539208	0.48320583	2.61627913
0.28047708	0.48390105	2.61627913
0.27932161	0.48421270	2.61627889
0.27532375	0.48436052	2.61627889
0.27355430	0.48417413	2.61627889
0.27058926	0.48478591	2.61627889
0.26872075	0.48507479	2.61627889
0.26621369	0.48566002	2.61627865
0.26197943	0.48458374	2.61627865
0.26134190	0.48438588	2.61627889
0.25923502	0.48443899	2.61627865
0.25772351	0.48449212	2.61627865
0.25708598	0.48429433	2.61627865
0.25658873	0.48431328	2.61627865
0.25605223	0.48432463	2.61627865
0.25436020	0.48464760	2.61627865
0.25245249	0.48492888	2.61627865
0.24676262	0.48539972	2.61627865
0.24511087	0.48523611	2.61627841
0.24433507	0.48550591	2.61627841
0.24383777	0.48552489	2.61627841
0.23960054	0.48593128	2.61627841
0.23856668	0.48596171	2.61627841
0.23814790	0.48599583	2.61627841
0.23711410	0.48602611	2.61627841
0.23512495	0.48610196	2.61627841
0.23261794	0.48668724	2.61627817
0.23132515	0.48697230	2.61627817
0.23036984	0.48701778	2.61627817
0.22684963	0.48714289	2.61627817
0.22414346	0.48750007	2.61627817
0.22237304	0.48780775	2.61627817
0.21986699	0.48789880	2.61627793
0.21885276	0.48793301	2.61627793
0.21823487	0.48773897	2.61627793
0.21570919	0.48782620	2.61627793
0.21346109	0.48815674	2.61627793
0.21294419	0.48817194	2.61627793
0.21252538	0.48820603	2.61627793
0.21065688	0.48849487	2.61627793
0.21025865	0.48803860	2.61627793
0.20894624	0.48831987	2.61627793
0.05606163	0.56735408	2.61627007
0.05571740	0.56938028	2.61626983
0.05529566	0.57089698	2.61626959
0.05475619	0.57239109	2.61626959
0.05492976	0.57390797	2.61626935
0.05389301	0.57542098	2.61626935
0.05332810	0.57820362	2.61626911
0.05135363	0.58075440	2.61626887
0.05135269	0.58124864	2.61626887
0.05015605	0.58254111	2.61626863
0.04975482	0.58356750	2.61626863
0.04919679	0.58456349	2.61626863
0.04457508	0.58748281	2.61626816
0.04339902	0.58828479	2.61626816
0.04246235	0.58882833	2.61626816
0.04214353	0.58956587	2.61626816
0.04068891	0.59061885	2.61626792
0.03887346	0.59221143	2.61626792
0.03879401	0.59269047	2.61626792
0.02319172	0.59651363	2.61626744
0.02245708	0.59580266	2.61626744
0.02021004	0.59563887	2.61626744
0.01844057	0.59545249	2.61626744
0.01688981	0.59549809	2.61626744
0.01627190	0.59530401	2.61626744
0.01448291	0.59511375	2.61626744
0.01303024	0.59517819	2.61626720
0.01046728	0.59426945	2.61626744
0.00943348	0.59429979	2.61626744
0.00746491	0.59388524	2.61626744
0.00494028	0.59347820	2.61626744
0.00171920	0.59286201	2.61626744
0.00090512	0.59263003	2.61626744
-0.00060543	0.59218895	2.61626744
-0.00138028	0.59196460	2.61626744
-0.00245329	0.59198731	2.61626744
-0.00289074	0.59152341	2.61626744
-0.00440129	0.59108233	2.61626744
-0.00650614	0.59014696	2.61626744
-0.00706131	0.58966029	2.61626744
-0.00749972	0.58969057	2.61626744
-0.00803528	0.58920777	2.61626744
-0.01008135	0.58828390	2.61626768
-0.01079734	0.58807087	2.61626768
-0.01185073	0.58809733	2.61626768
-0.01433524	0.58720380	2.61626768
-0.01477269	0.58673990	2.61626768
-0.01602520	0.58653826	2.61626768
-0.01660102	0.58654213	2.61626768
-0.01842831	0.58585000	2.61626768
-0.01968082	0.58564842	2.61626768
-0.02448888	0.58358747	2.61626792
-0.02691550	0.58319950	2.61626792
-0.03074954	0.58159095	2.61626792
-0.03158335	0.58135533	2.61626792
-0.03323511	0.58119166	2.61626792
-0.03399025	0.58097100	2.61626792
-0.03572047	0.58079219	2.61626792
-0.03957520	0.57967418	2.61626792
-0.04189984	0.57900119	2.61626792
-0.04255601	0.57830536	2.61626792
-0.04386650	0.57759821	2.61626816
-0.04537781	0.57765114	2.61626816
-0.04696780	0.57768917	2.61626792
-0.04794186	0.57723671	2.61626816
-0.05217411	0.57517195	2.61626816
-0.05251056	0.57491720	2.61626816
-0.05529418	0.57476491	2.61626816
-0.05598871	0.57356739	2.61626816
-0.05654476	0.57357484	2.61626816
-0.05761776	0.57359755	2.61626816
-0.05849266	0.57266980	2.61626840
-0.06492420	0.56767398	2.61626863
-0.06605499	0.56719100	2.61626863
-0.06859730	0.56579179	2.61626863
-0.06933301	0.56557506	2.61626863
-0.06980970	0.56510359	2.61626863
-0.07016470	0.56435084	2.61626887
-0.07115835	0.56389463	2.61626887
-0.07292572	0.56271958	2.61626887
-0.07353887	0.56172746	2.61626887
-0.07399400	0.56027138	2.61626911
-0.07409105	0.55975807	2.61626911
-0.07530046	0.55758721	2.61626935
-0.07722580	0.55687618	2.61626935
-0.07873242	0.55445820	2.61626959
-0.08111292	0.55229104	2.61626959
-0.08566305	0.55046964	2.61626983
-0.08675375	0.54950017	2.61626983
-0.08870166	0.54859513	2.61626983
-0.09102331	0.54643941	2.61627007
-0.09238773	0.54324979	2.61627030
-0.09403167	0.54080522	2.61627030
-0.09639150	0.53814757	2.61627054
-0.09756467	0.53746700	2.61627054
-0.09795889	0.53670657	2.61627054
-0.09970769	0.53602976	2.61627078
-0.10052080	0.53530353	2.61627078
-0.10195194	0.53438342	2.61627078
-0.10248747	0.53390062	2.61627078
-0.10324175	0.53318578	2.61627078
-0.10357712	0.53243679	2.61627102
-0.10466886	0.53196162	2.61627102
-0.10629997	0.53130746	2.61627102
-0.10715233	0.53057373	2.61627102
-0.10808608	0.52963454	2.61627102
-0.10963471	0.52869153	2.61627126
-0.11001038	0.52842921	2.61627126
-0.11100405	0.52797294	2.61627126
-0.11173871	0.52726203	2.61627126
-0.11459783	0.52561176	2.61627126
-0.28680518	0.53005207	2.61626911
-0.28774190	0.53059566	2.61626911
-0.28945446	0.53140908	2.61626887
-0.29021150	0.53217685	2.61626887
-0.29130813	0.53249985	2.61626887
-0.29168487	0.53273183	2.61626887
-0.29308060	0.53379613	2.61626863
-0.29533169	0.53560936	2.61626863
-0.29573181	0.53614151	2.61626840
-0.29652721	0.53640759	2.61626840
-0.29690778	0.53694350	2.61626840
-0.29750410	0.53743768	2.61626840
-0.29796416	0.53845274	2.61626840
-0.29814661	0.53971106	2.61626816
-0.29968560	0.54204130	2.61626792
-0.29978454	0.54251647	2.61626792
-0.30068502	0.54455036	2.61626768
-0.30134505	0.54583138	2.61626768
-0.30164418	0.54657263	2.61626768
-0.30186588	0.54782343	2.61626744
-0.30250439	0.54811984	2.61626744
-0.30268601	0.54888403	2.61626744
-0.30302435	0.54961777	2.61626744
-0.30327243	0.55265135	2.61626720
-0.30432779	0.55366629	2.61626697
-0.30552441	0.55495876	2.61626697
-0.30618355	0.55574560	2.61626673
-0.30646306	0.55649072	2.61626673
-0.30718109	0.55726624	2.61626673
-0.30782166	0.55855119	2.61626649
-0.30953807	0.56134140	2.61626625
-0.31039935	0.56338298	2.61626625
-0.31131837	0.56491870	2.61626601
-0.31183517	0.56493378	2.61626601
-0.31237456	0.56642771	2.61626601
-0.31267872	0.56796741	2.61626577
-0.31363791	0.56998968	2.61626554
-0.31459722	0.57201219	2.61626554
-0.31527898	0.57427806	2.61626530
-0.31577808	0.57528526	2.61626530
-0.31663632	0.57584405	2.61626506
-0.31819203	0.57836068	2.61626482
-0.32118753	0.58273232	2.61626458
-0.32119137	0.58470911	2.61626434
-0.32356223	0.58581537	2.61626434
-0.32450068	0.58734715	2.61626410
-0.32516178	0.58912241	2.61626410
-0.32591900	0.58989036	2.61626387
-0.32617888	0.59063923	2.61626387
-0.32663897	0.59165424	2.61626387
-0.32995319	0.59676337	2.61626339
-0.33011514	0.59753144	2.61626339
-0.33131179	0.59882385	2.61626315
-0.33221018	0.59986919	2.61626315
-0.33270842	0.60038227	2.61626315
-0.33324885	0.60237062	2.61626291
-0.33466336	0.60293698	2.61626291
-0.33585995	0.60422945	2.61626267
-0.33624136	0.60525948	2.61626267
-0.33755764	0.60751754	2.61626244
-0.33861691	0.60883653	2.61626244
-0.34007153	0.60988951	2.61626220
-0.34081018	0.61115551	2.61626220
-0.34172821	0.61219704	2.61626196
-0.34304166	0.61297262	2.61626196
-0.34447750	0.61452347	2.61626172
-0.34485805	0.61505932	2.61626172
-0.34537604	0.61556888	2.61626172
-0.34633327	0.61660278	2.61626172
-0.34734935	0.61762524	2.61626148
-0.34974366	0.62070453	2.61626124
-0.35457027	0.62636089	2.61626077
-0.35495102	0.62689698	2.61626077
-0.35600629	0.62791193	2.61626053
-0.35660559	0.62821579	2.61626053
-0.35764232	0.62972891	2.61626053
-0.35816124	0.63073254	2.61626029
-0.35945886	0.63181579	2.61626029
-0.36039755	0.63334787	2.61626005
-0.36137545	0.63487220	2.61626005
-0.36277226	0.63643086	2.61625981
-0.36422771	0.63797784	2.61625981
-0.36504278	0.63824010	2.61625981
-0.36516637	0.63950980	2.61625957
-0.36493102	0.64122832	2.61625957
-0.36937132	0.64338350	2.61625934
-0.36963904	0.64641327	2.61625910
-0.37183127	0.64823794	2.61625886
-0.37278745	0.64877748	2.61625886
-0.37454325	0.65156037	2.61625862
-0.37492380	0.65209627	2.61625862
-0.37570259	0.65384877	2.61625838
-0.37707871	0.65491688	2.61625838
-0.37811443	0.65593565	2.61625814
-0.37825674	0.65670741	2.61625814
-0.37995249	0.65900719	2.61625791
-0.38039294	0.66002601	2.61625791
-0.38144737	0.66054684	2.61625791
-0.38286358	0.66210145	2.61625767
-0.38328353	0.66263002	2.61625767
-0.38326582	0.66362226	2.61625743
-0.38469976	0.66418457	2.61625743
-0.38623476	0.66621077	2.61625719
-0.38770896	0.66725993	2.61625719
-0.38882712	0.66856754	2.61625719
-0.39010221	0.66984487	2.61625695
-0.39028385	0.67060906	2.61625695
-0.39092422	0.67189384	2.61625671
-0.39124298	0.67263138	2.61625671
-0.39199919	0.67290503	2.61625671
-0.39530864	0.67554319	2.61625648
-0.39680442	0.67757690	2.61625624
-0.39821979	0.67863750	2.61625624
-0.39891797	0.67941654	2.61625624
-0.40087098	0.68098283	2.61625600
-0.40230596	0.68203956	2.61625576
-0.40280420	0.68255270	2.61625576
-0.40330243	0.68306583	2.61625576
-0.40449801	0.68386400	2.61625576
-0.40555245	0.68438482	2.61625576
-0.40774468	0.68620944	2.61625552
-0.40866178	0.68675685	2.61625552
-0.41155133	0.68886650	2.61625528
-0.41324514	0.69017780	2.61625504
-0.41453898	0.69095719	2.61625504
-0.41519713	0.69124985	2.61625504
-0.41689008	0.69206691	2.61625504
-0.41915861	0.69288790	2.61625481
-0.42403832	0.69556755	2.61625457
-0.42803925	0.69719815	2.61625433
-0.43216079	0.69861591	2.61625433
-0.43393221	0.69941795	2.61625409
-0.43466881	0.69969535	2.61625409
-0.43862942	0.70083934	2.61625409
-0.44358459	0.70202112	2.61625385
-0.44975412	0.70350325	2.61625361
-0.45051029	0.70377684	2.61625361
-0.45391384	0.70441902	2.61625361
-0.46196949	0.70519775	2.61625338
-0.46721992	0.70514399	2.61625338
-0.47461846	0.70445144	2.61625338
-0.47632885	0.70427620	2.61625338
-0.48869348	0.70198667	2.61625338
-0.49018431	0.70154935	2.61625338
-0.49280617	0.70062917	2.61625338
-0.49503165	0.69948077	2.61625338
-0.50341386	0.69506240	2.61625361
-0.51193261	0.69012344	2.61625409
-0.52809483	0.67950022	2.61625457
-0.53186810	0.67691469	2.61625481
-0.53270084	0.67618471	2.61625481
-0.53349435	0.67546231	2.61625481
-0.53912741	0.66871774	2.61625528
-0.54475552	0.66117483	2.61625600
-0.54596579	0.65949804	2.61625600
-0.55093473	0.64295280	2.61625719
-0.55154288	0.63948941	2.61625743
-0.54974502	0.63690454	2.61625767
-0.54900247	0.63366163	2.61625814
-0.54839450	0.62890977	2.61625838
-0.54827195	0.62813437	2.61625838
-0.54769605	0.62813050	2.61625838
-0.54681516	0.62609279	2.61625862
-0.54665041	0.62384230	2.61625886
-0.54593259	0.62306696	2.61625886
-0.54505169	0.62102926	2.61625910
-0.54409343	0.61950099	2.61625910
-0.54353529	0.61850500	2.61625934
-0.54243672	0.61719358	2.61625934
-0.54239666	0.61670703	2.61625934
-0.54120004	0.61541456	2.61625957
-0.54008079	0.61361265	2.61625981
-0.53904700	0.61358237	2.61625981
-0.53812903	0.61254090	2.61625981
-0.53804946	0.61206174	2.61625981
-0.53681469	0.61127114	2.61625981
-0.53593683	0.61071622	2.61626005
-0.53346509	0.60814643	2.61626029
-0.52662385	0.43529347	2.61627388
-0.52751154	0.43257532	2.61627412
-0.52770859	0.43135855	2.61627412
-0.52800387	0.43012300	2.61627412
-0.52791750	0.42785728	2.61627436
-0.52799320	0.42635959	2.61627460
-0.53009319	0.42295304	2.61627483
-0.53140152	0.42125732	2.61627483
-0.53191447	0.41929552	2.61627507
-0.53288257	0.41755062	2.61627507
-0.53345352	0.41508335	2.61627531
-0.53476191	0.41338760	2.61627555
-0.53628916	0.41146016	2.61627555
-0.53656870	0.40398985	2.61627626
-0.53842920	0.40032476	2.61627650
-0.53874612	0.40007383	2.61627650
-0.53866869	0.39236796	2.61627698
-0.53856277	0.39010602	2.61627722
-0.53814584	0.38284484	2.61627769
-0.53798211	0.38108855	2.61627793
-0.53751713	0.37760237	2.61627817
-0.53005499	0.35286203	2.61628032
-0.52953500	0.35136408	2.61628032
-0.52157164	0.33284318	2.61628199
-0.51755416	0.32448363	2.61628270
-0.49613950	0.28001004	2.61628628
-0.49406004	0.27569154	2.61628675
-0.49022606	0.26908466	2.61628723
-0.47786158	0.24840100	2.61628890
-0.47502682	0.24430296	2.61628938
-0.47277385	0.24150127	2.61628962
-0.47169599	0.24068034	2.61628962
-0.47058180	0.23967683	2.61628985
-0.46844652	0.23685238	2.61629009
-0.46798837	0.23682575	2.61629009
-0.46756861	0.23629743	2.61629009
-0.46555585	0.23424844	2.61629033
-0.46342060	0.23142397	2.61629057
-0.46078900	0.22907481	2.61629081
-0.45542681	0.22390130	2.61629128
-0.45375440	0.22357440	2.61629128
-0.45307562	0.22279134	2.61629128
-0.45154554	0.22323626	2.61629128
-0.45014897	0.22167785	2.61629152
-0.44839421	0.21938932	2.61629152
-0.44688156	0.21884188	2.61629176
-0.44470912	0.21701364	2.61629176
-0.44379207	0.21646626	2.61629200
-0.44331339	0.21594933	2.61629200
-0.43745393	0.21075678	2.61629248
-0.43649843	0.21071109	2.61629248
-0.43360996	0.20909575	2.61629248
-0.43293115	0.20831266	2.61629272
-0.43121865	0.20749925	2.61629272
-0.43068114	0.20699370	2.61629272
-0.42928636	0.20642358	2.61629272
-0.42887145	0.20669347	2.61629272
-0.42596334	0.20508191	2.61629295
-0.42217532	0.20192687	2.61629319
-0.42038333	0.20063445	2.61629343
-0.41574880	0.20117852	2.61629343
-0.41499263	0.20090494	2.61629343
-0.41302210	0.20033106	2.61629343
-0.41025415	0.19850260	2.61629367
-0.40529996	0.19781497	2.61629367
-0.40432301	0.19678476	2.61629391
-0.40360507	0.19600937	2.61629391
-0.40211019	0.19446972	2.61629415
-0.40012112	0.19439393	2.61629415
-0.39546508	0.19395339	2.61629415
-0.39034796	0.19200362	2.61629438
-0.38654819	0.19113329	2.61629462
-0.38468361	0.19282138	2.61629438
-0.25175026	0.08383979	2.61630440
-0.25029376	0.08179845	2.61630464
-0.24935608	0.08076067	2.61630464
-0.24849695	0.07970779	2.61630487
-0.24748076	0.07868521	2.61630487
-0.24468727	0.07556808	2.61630511
-0.24388885	0.07381937	2.61630535
-0.24111602	0.07119265	2.61630559
-0.23896113	0.06837207	2.61630583
-0.23774391	0.06658922	2.61630583
-0.23696715	0.06582518	2.61630607
-0.23501325	0.06376475	2.61630607
-0.23411480	0.06271940	2.61630630
-0.23287894	0.06143454	2.61630630
-0.23102324	0.05935529	2.61630654
-0.22984624	0.05805904	2.61630678
-0.22661829	0.05521563	2.61630702
-0.22430450	0.05310977	2.61630702
-0.22350800	0.05234945	2.61630726
-0.22095490	0.04998508	2.61630750
-0.21415670	0.04326057	2.61630797
-0.21126619	0.04065669	2.61630821
-0.21026963	0.03963026	2.61630845
-0.20911123	0.03783605	2.61630845
-0.20861101	0.03633437	2.61630869
-0.20811181	0.03532702	2.61630869
-0.20751148	0.03452873	2.61630869
-0.20596473	0.02824476	2.61630940
-0.20298296	0.02090403	2.61630988
-0.20060933	0.01831532	2.61631012
-0.19819453	0.01474577	2.61631036
-0.19745596	0.01347986	2.61631060
-0.19687526	0.01267776	2.61631060
-0.19587581	0.01016879	2.61631083
-0.19479689	0.00885352	2.61631083
-0.19431819	0.00833651	2.61631107
-0.19427603	0.00686148	2.61631107
-0.19361402	0.00459194	2.61631131
-0.19346982	0.00283182	2.61631131
-0.19340999	0.00234902	2.61631155
-0.19324619	0.00059265	2.61631155
-0.19293621	-0.00391230	2.61631203
-0.19277444	-0.00468013	2.61631203
-0.19281262	-0.00518203	2.61631203
-0.19322067	-0.00891149	2.61631227
-0.19349633	-0.01014322	2.61631250
-0.19355027	-0.01262569	2.61631274
-0.19434175	-0.01433662	2.61631274
-0.19445659	-0.01584193	2.61631298
-0.19502836	-0.01781514	2.61631298
-0.19508328	-0.01980340	2.61631322
-0.19716561	-0.02221763	2.61631322
-0.19799346	-0.02541873	2.61631370
-0.19842510	-0.02717501	2.61631370
-0.19796215	-0.02967265	2.61631393
-0.19799839	-0.03116298	2.61631393
-0.19869380	-0.03186637	2.61631417
-0.19875073	-0.03286621	2.61631417
-0.19862807	-0.03364173	2.61631417
-0.19958049	-0.03507888	2.61631441
-0.20118415	-0.03801012	2.61631441
-0.20179228	-0.04147348	2.61631489
-0.20292220	-0.04245058	2.61631489
-0.20345582	-0.04392177	2.61631489
-0.20428559	-0.04613450	2.61631513
-0.20427483	-0.04989806	2.61631536
-0.20608059	-0.05157471	2.61631560
-0.20683378	-0.05278382	2.61631560
-0.20720658	-0.05452871	2.61631584
-0.20768228	-0.05549434	2.61631584
-0.20845416	-0.05720150	2.61631584
-0.20924763	-0.05792388	2.61631608
-0.20917808	-0.06167603	2.61631632
-0.21109661	-0.06584659	2.61631656
-0.21137322	-0.06658414	2.61631656
-0.21220200	-0.06929100	2.61631680
-0.21214220	-0.06977385	2.61631680
-0.21275418	-0.07126036	2.61631703
-0.21356538	-0.07297495	2.61631703
-0.21340349	-0.07374290	2.61631727
-0.21360160	-0.07446527	2.61631727
-0.21445110	-0.07668164	2.61631751
-0.21456581	-0.07818711	2.61631751
-0.21400674	-0.07967737	2.61631775
-0.21452262	-0.08015642	2.61631775
-0.21539268	-0.08188242	2.61631775
-0.21538186	-0.08564606	2.61631799
-0.21539955	-0.08663824	2.61631823
-0.21501110	-0.09112799	2.61631846
-0.21524648	-0.09284645	2.61631870
-0.21556231	-0.09359154	2.61631870
-0.21547708	-0.09536302	2.61631894
-0.21497479	-0.09785315	2.61631918
-0.21509060	-0.09886438	2.61631918
-0.21505040	-0.09935096	2.61631918
-0.21478945	-0.10059410	2.61631918
-0.21304357	-0.10664997	2.61631966
-0.21248153	-0.10795006	2.61631989
-0.21204023	-0.10946304	2.61631989
-0.21151938	-0.11145505	2.61632013
-0.21105841	-0.11296436	2.61632037
-0.21091516	-0.11423028	2.61632037
-0.21029329	-0.11601320	2.61632061
-0.20975381	-0.11750728	2.61632061
-0.20953220	-0.11875793	2.61632085
-0.20929086	-0.12000489	2.61632085
-0.20867006	-0.12129349	2.61632109
-0.20808640	-0.12357828	2.61632109
-0.20760679	-0.12458941	2.61632133
-0.20742436	-0.12584779	2.61632133
-0.20716348	-0.12709084	2.61632133
-0.20631897	-0.13061878	2.61632180
-0.20601976	-0.13136014	2.61632180
-0.20296158	-0.13769719	2.61632228
-0.20074186	-0.14179900	2.61632276
-0.20000330	-0.14306486	2.61632276
-0.19874686	-0.14484021	2.61632299
-0.19579062	-0.14921936	2.61632323
-0.19582888	-0.14972115	2.61632323
-0.19503142	-0.15097573	2.61632347
-0.19389173	-0.15326792	2.61632371
-0.19241557	-0.15530547	2.61632371
-0.18601260	-0.16229618	2.61632442
-0.18399996	-0.16434512	2.61632466
-0.17847881	-0.16880396	2.61632514
-0.17093030	-0.17283678	2.61632538
-0.16836432	-0.17341065	2.61632562
-0.16494127	-0.17404896	2.61632562
-0.15658349	-0.17537874	2.61632586
-0.15085538	-0.17534798	2.61632586
-0.14306062	-0.17488348	2.61632586
-0.12981239	-0.16789860	2.61632562
-0.12206863	-0.16318390	2.61632514
-0.07705591	-0.13296804	2.61632347
-0.05960472	-0.12065294	2.61632252
-0.05801771	-0.11920825	2.61632252
-0.05672792	-0.11801061	2.61632252
-0.04851830	-0.10906079	2.61632180
-0.04127865	-0.10086760	2.61632133
-0.02892886	-0.08462206	2.61632013
-0.02982830	-0.08308247	2.61631989
-0.02879741	-0.08163014	2.61631989
-0.02804517	-0.07992682	2.61631966
-0.02715850	-0.07671434	2.61631942
-0.02678474	-0.07546365	2.61631942
-0.02609124	-0.07377183	2.61631918
-0.02567932	-0.07201925	2.61631918
-0.02562144	-0.07151368	2.61631918
-0.02479074	-0.06979516	2.61631894
-0.02447681	-0.06806165	2.61631894
-0.02380196	-0.06686783	2.61631870
-0.02138521	-0.06321040	2.61631846
-0.02192269	-0.06270483	2.61631846
-0.02240233	-0.06169361	2.61631846
-0.02250922	-0.05893743	2.61631823
-0.02255823	-0.05567575	2.61631799
-0.02228170	-0.05493808	2.61631775
-0.02168926	-0.05345541	2.61631775
-0.02171079	-0.05247083	2.61631775
-0.02167261	-0.05196890	2.61631751
-0.02167453	-0.05098054	2.61631751
-0.02129983	-0.05022401	2.61631751
-0.02193549	-0.04973736	2.61631751
-0.02070939	-0.04775286	2.61631727
-0.02130570	-0.04725868	2.61631727
-0.02164805	-0.04622090	2.61631727
-0.02125177	-0.04477617	2.61631703
-0.02187264	-0.04348749	2.61631703
-0.02074466	-0.04152197	2.61631680
-0.02122527	-0.04001653	2.61631680
-0.02093203	-0.03779247	2.61631656
-0.02017874	-0.03658351	2.61631656
-0.02101930	-0.03503254	2.61631632
-0.02082220	-0.03381589	2.61631632
-0.02116649	-0.03178969	2.61631608
-0.02120861	-0.03031465	2.61631584
-0.02139108	-0.02905631	2.61631584
-0.02135377	-0.02806032	2.61631584
-0.02068188	-0.02705672	2.61631560
-0.02265930	-0.02302319	2.61631536
-0.02193347	-0.01953703	2.61631513
-0.02250041	-0.01576588	2.61631489
-0.02277304	-0.01026490	2.61631441
-0.02353020	-0.00949714	2.61631417
-0.02337921	-0.00650135	2.61631393
-0.02318397	-0.00429633	2.61631393
-0.02215318	-0.00284389	2.61631370
-0.02388043	0.00370991	2.61631322
-0.02321438	0.00767887	2.61631298
-0.02404122	0.01219895	2.61631250
-0.02424233	0.01295933	2.61631250
-0.02518100	0.01449129	2.61631227
-0.02562241	0.01600432	2.61631227
-0.02574786	0.01826239	2.61631203
-0.02667286	0.02276361	2.61631179
-0.02657574	0.02327678	2.61631179
-0.02673957	0.02503315	2.61631155
-0.02722117	0.02703279	2.61631131
-0.02766247	0.02854574	2.61631131
-0.02800481	0.02958354	2.61631107
-0.02818825	0.03133610	2.61631107
-0.02868744	0.03234345	2.61631083
-0.02956926	0.03487536	2.61631083
-0.03030778	0.03614119	2.61631060
-0.03126807	0.03865784	2.61631036
-0.03163198	0.04068026	2.61631036
-0.03282859	0.04197276	2.61631012
-0.03558671	0.04707429	2.61630964
-0.03560824	0.04805890	2.61630964
-0.03606734	0.04857975	2.61630964
-0.03614677	0.04905879	2.61630964
-0.03780337	0.05136618	2.61630940
-0.04215834	0.05829239	2.61630869
-0.04291549	0.05906022	2.61630869
-0.04379636	0.06109792	2.61630845
-0.04571388	0.06464842	2.61630821
-0.04623174	0.06515783	2.61630821
-0.04713117	0.06669739	2.61630797
-0.04743135	0.06793299	2.61630797
-0.04703702	0.06869331	2.61630797
-0.04797569	0.07022530	2.61630774
-0.04949009	0.07176101	2.61630774
-0.04921348	0.07249856	2.61630750
-0.05007464	0.07453993	2.61630750
-0.05111140	0.07605290	2.61630726
-0.05189802	0.08008641	2.61630702
-0.05274159	0.08312008	2.61630678
-0.05338306	0.08489919	2.61630654
-0.05382444	0.08641219	2.61630654
-0.05564678	0.09146437	2.61630607
-0.05612743	0.09296981	2.61630583
-0.05579291	0.09421293	2.61630583
-0.05617845	0.09722009	2.61630559
-0.05689838	0.09898399	2.61630535
-0.05628534	0.09997626	2.61630535
-0.05724554	0.10249284	2.61630511
-0.05974181	0.11407247	2.61630416
-0.06227336	0.11712502	2.61630392
-0.06399865	0.12269047	2.61630344
-0.06820942	0.12785654	2.61630297
-0.06966497	0.12940365	2.61630297
-0.06960803	0.13040346	2.61630273
-0.07123920	0.13142225	2.61630273
-0.07144129	0.13267682	2.61630249
-0.07550785	0.13608272	2.61630225
-0.08353110	0.14687103	2.61630130
-0.08668054	0.14972955	2.61630106
-0.08722001	0.15122366	2.61630106
-0.08933271	0.15256916	2.61630082
-0.09367888	0.15672027	2.61630058
-0.09590732	0.16526996	2.61629987
-0.10581777	0.16763376	2.61629939
-0.10995887	0.16904758	2.61629939
-0.11601356	0.17203505	2.61629891
-0.11996046	0.17614815	2.61629868
-0.11960147	0.18313938	2.61629820
-0.12457731	0.18481173	2.61629796
-0.13067423	0.18927437	2.61629748
-0.13111360	0.18979888	2.61629748
-0.13216119	0.19507551	2.61629701
-0.13266037	0.19608290	2.61629701
-0.15131307	0.20228931	2.61629629
-0.16022986	0.20510933	2.61629605
-0.17087783	0.20824474	2.61629558
-0.18170734	0.21214429	2.61629510
-0.18642618	0.21455038	2.61629486
-0.18724811	0.21659935	2.61629462
-0.18685773	0.21933657	2.61629462
-0.11177224	0.37488791	2.61628318
-0.08591232	0.36519220	2.61628413
-0.08324449	0.36433330	2.61628437
-0.07763015	0.36236456	2.61628461
-0.07199618	0.36039960	2.61628485
-0.07048371	0.35985228	2.61628485
-0.06466147	0.36187911	2.61628485
-0.05819477	0.36064413	2.61628485
-0.05738069	0.36087608	2.61628485
-0.05338177	0.36023390	2.61628509
-0.04756930	0.35898754	2.61628509
-0.04679445	0.35921192	2.61628509
-0.04522706	0.36065286	2.61628509
-0.04491025	0.36090377	2.61628509
-0.04433547	0.36139423	2.61628509
-0.04260628	0.36206734	2.61628485
-0.03390910	0.35950947	2.61628532
-0.03251730	0.36042210	2.61628509
-0.02800151	0.35976478	2.61628532
-0.02496089	0.36065084	2.61628532
-0.02424489	0.36086380	2.61628532
-0.02060889	0.36174989	2.61628532
-0.02023029	0.36220238	2.61628509
-0.01889933	0.36241919	2.61628509
-0.01720834	0.36259043	2.61628509
-0.01217468	0.36142373	2.61628532
-0.01110167	0.36140102	2.61628532
-0.01064356	0.36137438	2.61628532
-0.00940970	0.36107805	2.61628532
-0.00728028	0.36121893	2.61628532
-0.00439663	0.36040178	2.61628556
-0.00374043	0.36109760	2.61628556
-0.00091854	0.36175168	2.61628556
0.00089115	0.36145145	2.61628556
0.00182682	0.36140218	2.61628556
0.00302054	0.36159235	2.61628556
0.00437212	0.36131874	2.61628556
0.00584439	0.36125803	2.61628556
0.00639955	0.36174467	2.61628556
0.00956371	0.36136106	2.61628556
0.01103694	0.36080611	2.61628556
0.01298782	0.36022848	2.61628580
0.01523390	0.36088642	2.61628580
0.01628740	0.36085981	2.61628580
0.01660420	0.36111072	2.61628580
0.02056283	0.36095527	2.61628580
0.02120044	0.36115298	2.61628580
0.02209300	0.36140013	2.61628580
0.02352498	0.36182612	2.61628580
0.02503650	0.36177298	2.61628580
0.02680587	0.36195949	2.61628580
0.02823894	0.36189115	2.61628580
0.02907264	0.36212689	2.61628580
0.02978862	0.36233991	2.61628580
0.03350804	0.36244285	2.61628580
0.03631128	0.36259896	2.61628580
0.03684681	0.36308178	2.61628580
0.03756283	0.36329481	2.61628580
0.03986976	0.36297560	2.61628580
0.04139982	0.36342058	2.61628580
0.04301237	0.36357662	2.61628580
0.04452377	0.36352357	2.61628580
0.04732705	0.36367968	2.61628580
0.05009212	0.36333388	2.61628580
0.05776910	0.36377564	2.61628604
0.05816533	0.36354753	2.61628604
0.05977691	0.36419776	2.61628604
0.06985901	0.36433926	2.61628604
0.07234640	0.36375022	2.61628604
0.07302220	0.36444986	2.61628604
0.07427566	0.36415729	2.61628604
0.07566655	0.36389115	2.61628604
0.07761744	0.36331347	2.61628628
0.07886995	0.36351517	2.61628628
0.07928779	0.36397523	2.61628628
0.08030201	0.36394104	2.61628628
0.08139464	0.36392215	2.61628628
0.08240882	0.36388803	2.61628628
0.08284731	0.36385760	2.61628628
0.08364274	0.36359158	2.61628628
0.08551419	0.36349294	2.61628628
0.08758176	0.36343235	2.61628628
0.08803985	0.36340567	2.61628628
0.09028891	0.36258093	2.61628652
0.09122461	0.36253166	2.61628652
0.09273706	0.36198434	2.61628652
0.09341480	0.36169553	2.61628652
0.09472723	0.36141422	2.61628652
0.09570318	0.36087826	2.61628652
0.09858979	0.36025131	2.61628675
0.10286723	0.35935828	2.61628675
0.10354497	0.35906947	2.61628675
0.10607157	0.35848802	2.61628699
0.10837851	0.35816887	2.61628699
0.11124463	0.35803223	2.61628699
0.11202045	0.35776243	2.61628699
0.11611637	0.35763353	2.61628699
0.11762789	0.35758039	2.61628699
0.11922080	0.35773265	2.61628699
0.12248304	0.35736796	2.61628723
0.12729509	0.35745198	2.61628723
0.13424134	0.35520586	2.61628747
0.13565479	0.35513377	2.61628747
0.13792251	0.35480702	2.61628747
0.13969295	0.35449919	2.61628771
0.14017057	0.35447642	2.61628771
0.14387324	0.35309297	2.61628771
0.14763279	0.35270938	2.61628771
0.14805156	0.35267523	2.61628771
0.14932378	0.35288060	2.61628771
0.15212701	0.35303670	2.61628795
0.15306172	0.35348162	2.61628771
0.15381795	0.35320798	2.61628795
0.15512937	0.35342091	2.61628795
0.15558742	0.35339439	2.61628795
0.15702043	0.35332608	2.61628795
0.15831222	0.35353529	2.61628795
0.16109586	0.35368761	2.61628795
0.16660616	0.35299239	2.61628795
0.16881309	0.35364270	2.61628795
0.17058356	0.35333487	2.61628795
0.17185661	0.35304609	2.61628795
0.17312978	0.35275722	2.61628819
0.17404586	0.35270417	2.61628819
0.17675100	0.35284126	2.61628819
0.17883727	0.35327858	2.61628819
0.18261547	0.35339299	2.61628819
0.18380912	0.35358322	2.61628819
0.18553938	0.35376206	2.61628819
0.18635342	0.35399398	2.61628819
0.18814257	0.35418415	2.61628819
0.18905859	0.35413113	2.61628819
0.19928190	0.35399520	2.61628819
0.20031680	0.35347056	2.61628842
0.20112991	0.35419670	2.61628819
0.20186450	0.35490775	2.61628819
0.20269825	0.35514349	2.61628819
0.20311697	0.35510933	2.61628819
0.20538376	0.35527682	2.61628819
0.20647545	0.35575211	2.61628819
0.20741110	0.35570285	2.61628819
0.20923942	0.35590059	2.61628819
0.21341485	0.35696551	2.61628819
0.21639761	0.35734597	2.61628819
0.22172354	0.35889751	2.61628819
0.22205997	0.35915226	2.61628819
0.22398934	0.35955918	2.61628819
0.22478381	0.35978734	2.61628819
0.22675140	0.36069608	2.61628819
0.22802255	0.36139575	2.61628795
0.23080416	0.36253652	2.61628795
0.23145741	0.36304215	2.61628795
0.23290819	0.36396605	2.61628795
0.23463735	0.36463916	2.61628795
0.23726012	0.36506510	2.61628795
0.23833220	0.36553657	2.61628795
0.23956411	0.36622867	2.61628771
0.24077547	0.36741108	2.61628771
0.24162978	0.36715633	2.61628771
0.24282253	0.36784083	2.61628771
0.24313930	0.36809170	2.61628771
0.24637903	0.36920586	2.61628771
0.24721275	0.36944166	2.61628771
0.24757174	0.36989036	2.61628771
0.24844466	0.37013370	2.61628747
0.24912046	0.37083331	2.61628747
0.25090951	0.37102348	2.61628747
0.25375006	0.37217569	2.61628747
0.25422767	0.37215292	2.61628747
0.25728697	0.37353697	2.61628747
0.25883666	0.37398574	2.61628747
0.26024804	0.37490213	2.61628723
0.26636949	0.37618756	2.61628723
0.26775742	0.37740418	2.61628723
0.27026248	0.37780735	2.61628723
0.27292839	0.37793690	2.61628723
0.27423978	0.37814993	2.61628723
0.27477536	0.37863275	2.61628723
0.27602696	0.37932849	2.61628723
0.27707934	0.37979624	2.61628723
0.27970606	0.37991816	2.61628723
0.28161088	0.38111961	2.61628699
0.28304285	0.38154560	2.61628699
0.28488982	0.38224140	2.61628699
0.28564405	0.38295615	2.61628699
0.28634045	0.38316536	2.61628699
0.28916132	0.38431376	2.61628699
0.29069147	0.38475859	2.61628699
0.29174387	0.38522631	2.61628699
0.29337606	0.38538617	2.61628699
0.29526314	0.38559541	2.61628699
0.29703167	0.38627604	2.61628675
0.29876181	0.38645491	2.61628675
0.30181909	0.38882741	2.61628675
0.30333060	0.38877431	2.61628675
0.30762085	0.39134455	2.61628652
0.31014642	0.39125744	2.61628652
0.31167561	0.39219654	2.61628652
0.31264952	0.39264902	2.61628652
0.31437972	0.39282796	2.61628652
0.31523314	0.39306742	2.61628652
0.31975186	0.39914283	2.61628604
0.32118586	0.39858034	2.61628628
0.32162330	0.39904419	2.61628604
0.32352608	0.40123418	2.61628604
0.32503456	0.40266374	2.61628580
0.32709733	0.40507418	2.61628580
0.32765344	0.40506661	2.61628580
0.32824787	0.40556085	2.61628580
0.33045185	0.40769383	2.61628556
0.33397898	0.41232446	2.61628532
0.33544734	0.41424066	2.61628509
0.33867720	0.41862425	2.61628485
0.34214640	0.43096474	2.61628389
