//X	Y	Z
-0.83249271	-0.39692503	2.06851077
-0.78588837	-0.42428145	2.06835532
-0.75071204	-0.42712888	2.06827235
-0.74717289	-0.42723924	2.06826448
-0.74439365	-0.42678300	2.06825924
-0.74259388	-0.42635503	2.06825590
-0.67557740	-0.40888819	2.06814194
-0.65398526	-0.40260342	2.06810665
-0.64506865	-0.39970329	2.06809258
-0.63121074	-0.39511800	2.06807089
-0.51653981	-0.34557211	2.06791353
-0.51389545	-0.34389532	2.06791091
-0.51322114	-0.34327215	2.06791067
-0.51199609	-0.34251919	2.06790948
-0.51156873	-0.34190109	2.06790972
-0.51099873	-0.34137142	2.06790948
-0.50733852	-0.33945185	2.06790519
-0.50702780	-0.33891001	2.06790543
-0.50709778	-0.33757788	2.06790829
-0.50463724	-0.33637911	2.06790495
-0.50207376	-0.33466175	2.06790280
-0.50090492	-0.33301875	2.06790328
-0.49965739	-0.33200106	2.06790257
-0.49667528	-0.33037245	2.06789899
-0.49608439	-0.32826942	2.06790185
-0.49554038	-0.32757509	2.06790209
-0.49504447	-0.32727483	2.06790137
-0.46921387	-0.31584084	2.06786656
-0.46846214	-0.31512320	2.06786633
-0.46702790	-0.31356531	2.06786609
-0.46713573	-0.31293476	2.06786752
-0.46534234	-0.31213945	2.06786513
-0.46355623	-0.31126922	2.06786299
-0.46081144	-0.30985326	2.06785965
-0.46020186	-0.30924428	2.06785941
-0.45750466	-0.30802771	2.06785583
-0.45751825	-0.30758545	2.06785679
-0.45690608	-0.30730647	2.06785583
-0.45391700	-0.30585021	2.06785202
-0.45320135	-0.30495504	2.06785226
-0.45313439	-0.30425867	2.06785345
-0.45282030	-0.30385184	2.06785345
-0.45006126	-0.30268332	2.06784964
-0.44814962	-0.30102980	2.06784868
-0.44815445	-0.29988065	2.06785083
-0.44586068	-0.29683143	2.06785178
-0.44586015	-0.29484051	2.06785560
-0.44610524	-0.29367161	2.06785846
-0.44485074	-0.29282627	2.06785727
-0.44390175	-0.29177830	2.06785703
-0.44167084	-0.29037780	2.06785488
-0.44167009	-0.28838667	2.06785870
-0.44186559	-0.28783786	2.06786013
-0.44038838	-0.28702188	2.06785846
-0.44070715	-0.28588754	2.06786132
-0.44079965	-0.28521198	2.06786299
-0.44042051	-0.28498816	2.06786251
-0.43970150	-0.28422776	2.06786251
-0.43937546	-0.28324908	2.06786346
-0.43723220	-0.28232214	2.06786060
-0.43719763	-0.28148556	2.06786227
-0.43667603	-0.28105575	2.06786180
-0.43654716	-0.28040737	2.06786275
-0.43582129	-0.27981958	2.06786227
-0.43324071	-0.27867931	2.06785893
-0.27898255	-0.20955314	2.06765223
-0.27396026	-0.20751619	2.06764507
-0.27313200	-0.20840093	2.06764150
-0.27001479	-0.20828748	2.06763482
-0.26734322	-0.20720050	2.06763101
-0.26420173	-0.20594314	2.06762648
-0.22491989	-0.18936042	2.06757188
-0.22271302	-0.18939823	2.06756687
-0.22185013	-0.18944618	2.06756496
-0.22058237	-0.18914078	2.06756282
-0.22010532	-0.18914281	2.06756163
-0.21896157	-0.19063483	2.06755638
-0.21699578	-0.19084793	2.06755161
-0.21595097	-0.19100243	2.06754899
-0.21343422	-0.19069371	2.06754398
-0.21102548	-0.19164777	2.06753683
-0.20866472	-0.19110259	2.06753278
-0.20670560	-0.19104594	2.06752849
-0.20495409	-0.19101225	2.06752467
-0.20406538	-0.19093047	2.06752300
-0.19997337	-0.18963957	2.06751633
-0.19729167	-0.18886009	2.06751204
-0.19480756	-0.18850838	2.06750727
-0.19303539	-0.18908939	2.06750226
-0.19081706	-0.18875019	2.06749797
-0.17297220	-0.18218115	2.06747127
-0.17189705	-0.18195118	2.06746936
-0.17133263	-0.18337314	2.06746531
-0.17007694	-0.18363959	2.06746221
-0.16641226	-0.18296656	2.06745529
-0.16596791	-0.18292579	2.06745434
-0.16431063	-0.18270388	2.06745124
-0.16192809	-0.18388510	2.06744361
-0.15934283	-0.18389416	2.06743789
-0.15611035	-0.18269011	2.06743312
-0.15116143	-0.18098232	2.06742549
-0.14973718	-0.18081558	2.06742287
-0.14810929	-0.18068588	2.06741953
-0.14733738	-0.18068054	2.06741762
-0.14670756	-0.18078385	2.06741619
-0.14547575	-0.18030070	2.06741428
-0.14499208	-0.18057242	2.06741285
-0.14237216	-0.17974491	2.06740856
-0.12247926	-0.17124332	2.06738114
-0.12199864	-0.17128289	2.06737995
-0.11903918	-0.17001626	2.06737590
-0.11856911	-0.16984569	2.06737518
-0.11831516	-0.17030779	2.06737375
-0.11578712	-0.16971929	2.06736946
-0.10823962	-0.16676418	2.06735849
-0.10674176	-0.16617104	2.06735635
-0.10629731	-0.16613004	2.06735539
-0.10487345	-0.16606091	2.06735229
-0.10389394	-0.16603260	2.06735015
-0.10192594	-0.16526890	2.06734729
-0.10010040	-0.16471124	2.06734443
-0.09907264	-0.16428863	2.06734300
-0.09789911	-0.16379493	2.06734133
-0.09684223	-0.16337760	2.06733990
-0.09584016	-0.16308451	2.06733823
-0.09384644	-0.16219130	2.06733561
-0.09271228	-0.16138488	2.06733465
-0.08946213	-0.15876693	2.06733251
-0.05296472	-0.12829819	2.06731081
-0.05140314	-0.12687370	2.06731009
-0.05069086	-0.12584355	2.06731033
-0.04913411	-0.12326995	2.06731200
-0.03412279	-0.09559922	2.06733203
-0.02947611	-0.08703104	2.06733847
-0.02403101	-0.07633688	2.06734705
-0.02252439	-0.07004039	2.06735587
-0.01234820	-0.00680274	2.06745505
-0.01537848	0.03493302	2.06754208
-0.04768774	0.19607846	2.06792355
-0.06192759	0.25034720	2.06805921
-0.07110052	0.27880454	2.06813431
-0.07172267	0.28072649	2.06813931
-0.07420501	0.28625059	2.06815529
-0.09207254	0.32376474	2.06826687
-0.11152585	0.36341232	2.06838608
-0.11378442	0.36639103	2.06839681
-0.13184886	0.38829097	2.06847882
-0.13592885	0.39256826	2.06849599
-0.13684803	0.39350620	2.06849980
-0.13794915	0.39455062	2.06850433
-0.18150435	0.42423192	2.06865740
-0.18441328	0.42613262	2.06866741
-0.22604351	0.45193121	2.06880879
-0.23140891	0.45448926	2.06882548
-0.30751109	0.49054354	2.06906247
-0.41027731	0.51710021	2.06933999
-0.42217433	0.51844728	2.06936884
-0.48408830	0.52146101	2.06951094
-0.50738740	0.52236694	2.06956410
-0.54319751	0.52316695	2.06964445
-0.54504001	0.52318656	2.06964850
-0.61951685	0.51453775	2.06979585
-0.66107613	0.49592990	2.06985164
-0.68311763	0.48565972	2.06988049
-0.69030702	0.48164940	2.06988859
-0.69406986	0.47930861	2.06989241
-0.69780374	0.47696239	2.06989598
-0.72626317	0.44890723	2.06990480
-0.72894758	0.44525725	2.06990361
-0.73342198	0.43888074	2.06990123
-0.74411547	0.42232978	2.06989288
-0.81817782	0.30384082	2.06982803
-0.82320893	0.29139870	2.06981516
-0.83481896	0.26007438	2.06978035
-0.83564317	0.25781858	2.06977797
-0.83700997	0.25385413	2.06977320
-0.85000074	0.20451002	2.06970692
-0.86360317	0.11243260	2.06955957
-0.87241638	0.04131047	2.06944203
-0.87458211	-0.06238790	2.06924725
-0.87445652	-0.06660105	2.06923890
-0.87031114	-0.23910864	2.06889772
-0.87037480	-0.23993975	2.06889629
-0.87044877	-0.24046381	2.06889534
-0.87062907	-0.24137142	2.06889415
-0.87100023	-0.24287936	2.06889200
-0.87108147	-0.24512458	2.06888795
-0.87109435	-0.24768758	2.06888294
-0.87150806	-0.24874797	2.06888175
-0.87157732	-0.25042111	2.06887865
-0.87173659	-0.25504637	2.06887031
-0.87188309	-0.25710857	2.06886649
-0.87202001	-0.26146927	2.06885839
-0.87208921	-0.26314241	2.06885552
-0.87104875	-0.31540987	2.06875253
-0.87041467	-0.31865329	2.06874490
-0.86639404	-0.33180138	2.06871080
-0.84922582	-0.37388852	2.06859183
-0.84816813	-0.37647647	2.06858468
-0.84448344	-0.38340572	2.06856322
-0.83482856	-0.39433515	2.06852078
