//X	Y	Z
-1.21686697	0.02275888	5.67107534
-1.06152320	0.04079917	5.67085123
-1.03758323	0.04372321	5.67081690
-1.01648188	0.04681455	5.67078638
-0.96450591	0.05376047	5.67071152
-0.95751196	0.05475083	5.67070103
-0.94298649	0.05727259	5.67068052
-0.94208223	0.05782125	5.67067909
-0.93810683	0.05879775	5.67067337
-0.93738264	0.05916550	5.67067242
-0.82924861	0.07288904	5.67051601
-0.69326520	0.08913741	5.67032003
-0.57959610	0.10820409	5.67015600
-0.45580208	0.14111255	5.66997766
-0.44532865	0.16198279	5.66996241
-0.44374472	0.17133743	5.66996050
-0.43216807	0.27683878	5.66994476
-0.42751360	0.34843811	5.66993856
-0.42837346	0.35181451	5.66993999
-0.42758995	0.36618441	5.66993904
-0.42714679	0.37001494	5.66993809
-0.42761892	0.37075776	5.66993904
-0.42567080	0.39406058	5.66993618
-0.42688155	0.39514372	5.66993809
-0.42792535	0.39553761	5.66993952
-0.42430449	0.43604520	5.66993475
-0.42547739	0.44140786	5.66993666
-0.41086191	0.60609865	5.66991711
-0.40722352	0.62722152	5.66991186
-0.40495926	0.63301915	5.66990852
-0.40355486	0.64219326	5.66990662
-0.40129107	0.64799047	5.66990328
-0.40032709	0.64859933	5.66990232
-0.39797342	0.64830506	5.66989851
-0.39638162	0.65572739	5.66989660
-0.39532852	0.66260785	5.66989517
-0.39207077	0.66286230	5.66989040
-0.39053118	0.66829181	5.66988802
-0.38852769	0.67648935	5.66988516
-0.38701338	0.67850918	5.66988325
-0.38672793	0.67951852	5.66988277
-0.38569045	0.67947906	5.66988134
-0.38462192	0.68249452	5.66987991
-0.38311964	0.68364489	5.66987753
-0.38192445	0.68642664	5.66987610
-0.37872660	0.68662095	5.66987133
-0.37478906	0.69568139	5.66986561
-0.37347424	0.69858348	5.66986370
-0.37028283	0.69913226	5.66985941
-0.36909568	0.70384622	5.66985750
-0.36837804	0.70456827	5.66985655
-0.36681592	0.70577890	5.66985416
-0.36345458	0.71001822	5.66984940
-0.36021882	0.71449202	5.66984463
-0.35927635	0.71774155	5.66984367
-0.35795414	0.71871096	5.66984177
-0.35681069	0.71950036	5.66983986
-0.35302263	0.72222865	5.66983461
-0.35123682	0.72754484	5.66983175
-0.34720266	0.73015982	5.66982603
-0.34512472	0.73613089	5.66982317
-0.34308463	0.73782259	5.66982031
-0.34188956	0.74060428	5.66981840
-0.33902866	0.74858159	5.66981459
-0.33646524	0.75468004	5.66981077
-0.33473176	0.75800341	5.66980839
-0.33237821	0.75770926	5.66980505
-0.33129466	0.75843835	5.66980362
-0.32885885	0.76634878	5.66979980
-0.32439840	0.76745236	5.66979361
-0.32321781	0.77252084	5.66979170
-0.32114726	0.78042459	5.66978884
-0.31830841	0.78025782	5.66978502
-0.31765848	0.78285199	5.66978407
-0.31657475	0.78358120	5.66978264
-0.31472182	0.78702486	5.66977978
-0.31269729	0.79258144	5.66977692
-0.30971676	0.80067903	5.66977262
-0.30722857	0.81058222	5.66976929
-0.30127406	0.82713187	5.66976070
-0.29723179	0.84017795	5.66975498
-0.29482645	0.84187615	5.66975164
-0.29180807	0.85425323	5.66974735
-0.28725767	0.87399250	5.66974115
-0.28617454	0.87472129	5.66973925
-0.28297681	0.88727891	5.66973495
-0.28195298	0.88794792	5.66973352
-0.28075695	0.88915145	5.66973162
-0.27897954	0.89639950	5.66972923
-0.27646148	0.90015113	5.66972542
-0.27478784	0.90341437	5.66972303
-0.27377105	0.90443736	5.66972160
-0.27093214	0.91663396	5.66971779
-0.27020788	0.91700166	5.66971684
-0.26579940	0.91611284	5.66971016
-0.25615412	0.95577812	5.66969681
-0.25700533	0.96800739	5.66969824
-0.26043665	1.00588667	5.66970348
-0.26100492	1.01149678	5.66970444
-0.26417363	1.02987719	5.66970921
-0.32521796	1.10689402	5.66979790
-0.47946244	1.16910458	5.67002153
-0.48574692	1.17234731	5.67003059
-0.49233776	1.17564309	5.67004013
-0.49916756	1.17869830	5.67004967
-0.50974822	1.18330407	5.67006540
-0.52207804	1.18845165	5.67008305
-0.52564275	1.18982863	5.67008829
-0.53120214	1.19186080	5.67009640
-0.53501266	1.19335139	5.67010164
-0.53561085	1.19274962	5.67010260
-0.53760540	1.19340491	5.67010546
-0.54310524	1.19549727	5.67011356
-0.54745394	1.19644618	5.67011976
-0.54908323	1.19710815	5.67012215
-0.55482209	1.19895983	5.67013025
-0.55572635	1.19841111	5.67013168
-0.56310105	1.20127904	5.67014265
-0.56473041	1.20194101	5.67014503
-0.56720364	1.20211470	5.67014837
-0.57276303	1.20414710	5.67015648
-0.57826257	1.20623934	5.67016459
-0.57958549	1.20526934	5.67016649
-0.58514494	1.20730174	5.67017412
-0.59070450	1.20933378	5.67018223
-0.59620416	1.21142626	5.67019033
-0.60194302	1.21327794	5.67019844
-0.60284650	1.21272969	5.67019987
-0.60858548	1.21458125	5.67020845
-0.60966909	1.21385217	5.67020988
-0.61522865	1.21588433	5.67021799
-0.61879271	1.21726155	5.67022324
-0.62096745	1.21773601	5.67022610
-0.62386626	1.21784258	5.67023039
-0.62761003	1.21903932	5.67023563
-0.63111502	1.22047639	5.67024088
-0.63334882	1.22089088	5.67024422
-0.63619465	1.22141206	5.67024803
-0.63932687	1.22250199	5.67025280
-0.64482653	1.22459424	5.67026091
-0.64706063	1.22500873	5.67026377
-0.65146917	1.22589767	5.67027044
-0.65237337	1.22534907	5.67027140
-0.65449476	1.22623789	5.67027473
-0.65642959	1.22695339	5.67027760
-0.65787297	1.22744131	5.67027950
-0.65853095	1.22677946	5.67028046
-0.65950805	1.22687936	5.67028189
-0.66246104	1.22814977	5.67028618
-0.66409028	1.22881162	5.67028856
-0.66844571	1.23011506	5.67029476
-0.66982925	1.23066318	5.67029667
-0.67200327	1.23113799	5.67030001
-0.67629230	1.23214722	5.67030621
-0.67708349	1.23207331	5.67030716
-0.68221068	1.23381829	5.67031479
-0.68324089	1.23350370	5.67031622
-0.68685853	1.23446655	5.67032146
-0.68903965	1.23529518	5.67032480
-0.69097507	1.23601031	5.67032766
-0.69459260	1.23697305	5.67033291
-0.69544357	1.23683882	5.67033386
-0.69894135	1.23792195	5.67033911
-0.70148087	1.23838997	5.67034245
-0.70232534	1.23790169	5.67034388
-0.70388764	1.23826969	5.67034626
-0.70625544	1.23927188	5.67034960
-0.70926762	1.24048233	5.67035389
-0.71277273	1.24191940	5.67035913
-0.71374321	1.24166512	5.67036057
-0.71706164	1.24292874	5.67036533
-0.71978772	1.24357033	5.67036915
-0.72117126	1.24411845	5.67037106
-0.74698126	1.25555682	5.67040873
-0.75254071	1.25758898	5.67041636
-0.75804037	1.25968134	5.67042446
-0.76051354	1.25985515	5.67042828
-0.76830745	1.26230145	5.67043924
-0.76927102	1.26169300	5.67044067
-0.77518916	1.26336420	5.67044926
-0.78068888	1.26545656	5.67045736
-0.78148007	1.26538265	5.67045832
-0.78467888	1.26676655	5.67046309
-0.78642786	1.26730824	5.67046547
-0.78854215	1.26784301	5.67046881
-0.79410154	1.26987529	5.67047691
-0.79773271	1.27154636	5.67048216
-0.80274737	1.27376568	5.67048931
-0.80836666	1.27573776	5.67049742
-0.81374669	1.27795053	5.67050505
-0.81719124	1.27944803	5.67051029
-0.82293010	1.28129983	5.67051840
-0.82842970	1.28339207	5.67052650
-0.83024561	1.28422749	5.67052889
-0.83586490	1.28619957	5.67053699
-0.83972812	1.28727603	5.67054272
-0.84528756	1.28930819	5.67055082
-0.84734273	1.28990293	5.67055368
-0.84933734	1.29055810	5.67055655
-0.85622704	1.29355299	5.67056656
-0.86855674	1.29870057	5.67058468
-0.86988604	1.29808509	5.67058659
-0.87828553	1.30186236	5.67059851
-0.88057929	1.30221653	5.67060184
-0.88637799	1.30400813	5.67061043
-0.88722241	1.30351961	5.67061138
-0.88903773	1.30435538	5.67061424
-0.89604700	1.30723000	5.67062426
-0.89955199	1.30866718	5.67062950
-0.90045559	1.30811882	5.67063046
-0.90541047	1.31039846	5.67063808
-0.90789074	1.31092620	5.67064142
-0.90867472	1.31049848	5.67064238
-0.91362959	1.31277788	5.67064953
-0.91459310	1.31216955	5.67065096
-0.91652852	1.31288457	5.67065382
-0.91966754	1.31432867	5.67065859
-0.92045158	1.31390083	5.67065954
-0.92255938	1.31408119	5.67066288
-0.92473334	1.31455600	5.67066574
-0.92654932	1.31539142	5.67066860
-0.93029296	1.31658816	5.67067385
-0.93113732	1.31609964	5.67067528
-0.93319178	1.31669486	5.67067814
-0.93482107	1.31735671	5.67068052
-0.93591130	1.31698191	5.67068195
-0.94086611	1.31926143	5.67068911
-0.94165015	1.31883359	5.67069006
-0.94333923	1.31943524	5.67069292
-0.94406402	1.31906724	5.67069387
-0.94738907	1.32068515	5.67069864
-0.94817370	1.32025695	5.67069960
-0.95342696	1.32223594	5.67070723
-0.95421159	1.32180774	5.67070866
-0.95916581	1.32408762	5.67071581
-0.95995039	1.32365930	5.67071676
-0.96163946	1.32426107	5.67071915
-0.96666074	1.32683480	5.67072630
-0.96762425	1.32622635	5.67072773
-0.96858811	1.32561755	5.67072916
-0.97348273	1.32795763	5.67073631
-0.97408074	1.32735598	5.67073727
-0.97607601	1.32801068	5.67074013
-0.98036504	1.32902002	5.67074633
-0.98096311	1.32841825	5.67074728
-0.98332363	1.32906640	5.67075062
-0.98640293	1.33057070	5.67075491
-0.98718703	1.33014286	5.67075634
-0.98912239	1.33085787	5.67075920
-0.99220151	1.33236229	5.67076349
-0.99504006	1.33252954	5.67076731
-0.99866468	1.33384621	5.67077255
-0.99926281	1.33324432	5.67077351
-1.00107801	1.33408022	5.67077637
-1.00204206	1.33347142	5.67077780
-1.00355184	1.33425367	5.67077971
-1.00476146	1.33375847	5.67078161
-1.00929070	1.33610535	5.67078829
-1.01032102	1.33579063	5.67078972
-1.01128447	1.33518231	5.67079115
-1.01405811	1.33663321	5.67079496
-1.01599300	1.33734846	5.67079782
-1.01702332	1.33703399	5.67079926
-1.01756167	1.33649230	5.67080021
-1.02076042	1.33787620	5.67080450
-1.02420557	1.33937359	5.67080975
-1.02637970	1.33984840	5.67081308
-1.02728391	1.33929956	5.67081404
-1.03211856	1.34170008	5.67082119
-1.03308260	1.34109116	5.67082262
-1.03380680	1.34072340	5.67082357
-1.03598154	1.34119785	5.67082691
-1.03784990	1.34161901	5.67082930
-1.03899288	1.34082997	5.67083120
-1.04213905	1.34262812	5.67083549
-1.04364872	1.34341037	5.67083788
-1.04473186	1.34268165	5.67083931
-1.04696620	1.34309578	5.67084265
-1.04902077	1.34369099	5.67084551
-1.04955900	1.34314919	5.67084646
-1.05052960	1.34289479	5.67084789
-1.05584311	1.34481335	5.67085552
-1.05650103	1.34415150	5.67085648
-1.05735159	1.34401774	5.67085743
-1.05898082	1.34467959	5.67085981
-1.06266510	1.34593618	5.67086554
-1.06338286	1.34521413	5.67086649
-1.06441331	1.34489954	5.67086792
-1.06525707	1.34441149	5.67086887
-1.06670690	1.34525383	5.67087126
-1.07166183	1.34753346	5.67087841
-1.22176778	1.41634405	5.67109585
-1.22897112	1.42132485	5.67110634
-1.23308814	1.42444730	5.67111206
-1.23617435	1.42630553	5.67111683
-1.23750472	1.42726851	5.67111874
-1.23980653	1.42955506	5.67112207
-1.24253333	1.43177485	5.67112589
-1.24374413	1.43285799	5.67112780
-1.24641168	1.43513751	5.67113161
-1.24986434	1.43856740	5.67113638
-1.25482571	1.44120145	5.67114353
-1.25604367	1.44421721	5.67114544
-1.26034069	1.44715869	5.67115164
-1.26216400	1.44992673	5.67115450
-1.26610172	1.45322990	5.67116022
-1.26737201	1.45425272	5.67116213
-1.26870954	1.45556951	5.67116404
-1.27028644	1.45822418	5.67116642
-1.27338016	1.46201527	5.67117071
-1.27749777	1.46513724	5.67117691
-1.28191376	1.46795869	5.67118311
-1.28234684	1.46982419	5.67118359
-1.28500760	1.47174966	5.67118788
-1.28579950	1.47325408	5.67118883
-1.29301083	1.48016703	5.67119932
-1.29585755	1.48226643	5.67120361
-1.29786015	1.48485398	5.67120647
-1.30306876	1.48917949	5.67121410
-1.30301642	1.49117243	5.67121363
-1.30690217	1.49646783	5.67121935
-1.31119907	1.49940920	5.67122555
-1.31417334	1.50332069	5.67122984
-1.31713939	1.50529969	5.67123461
-1.31938136	1.50764656	5.67123747
-1.32240784	1.50956500	5.67124224
-1.32361853	1.51064789	5.67124367
-1.36759329	1.53553128	5.67130756
-1.36928904	1.53648746	5.67130995
-1.37104511	1.53738308	5.67131233
-1.37206924	1.53829277	5.67131424
-1.37262201	1.54003787	5.67131472
-1.37419868	1.54111397	5.67131710
-1.37613440	1.54340768	5.67131996
-1.38170099	1.54579377	5.67132807
-1.38236630	1.54706442	5.67132902
-1.38515353	1.54922366	5.67133284
-1.38860524	1.55107546	5.67133808
-1.38939011	1.55222571	5.67133904
-1.39090693	1.55336201	5.67134142
-1.39205074	1.55415130	5.67134285
-1.39459872	1.55655134	5.67134666
-1.39786398	1.55822945	5.67135143
-1.39901495	1.55937266	5.67135334
-1.40023267	1.56080985	5.67135477
-1.40149593	1.56147873	5.67135668
-1.40482807	1.56345093	5.67136145
-1.40579295	1.56442022	5.67136288
-1.41226411	1.56783640	5.67137241
-1.41964686	1.57263660	5.67138290
-1.42358446	1.57593977	5.67138863
-1.43005550	1.57935584	5.67139816
-1.43156528	1.58013821	5.67140055
-1.43338096	1.58097339	5.67140293
-1.43417311	1.58247793	5.67140436
-1.43743825	1.58415627	5.67140865
-1.44850540	1.59021282	5.67142487
-1.45370603	1.59260607	5.67143250
-1.45860040	1.59494615	5.67143965
-1.46011734	1.59608245	5.67144156
-1.46301711	1.59776735	5.67144585
-1.47142303	1.60189903	5.67145824
-1.47293937	1.60303569	5.67146015
-1.47354543	1.60436606	5.67146111
-1.47645175	1.60640538	5.67146540
-1.47899270	1.60845125	5.67146921
-1.48080850	1.60928667	5.67147160
-1.48733950	1.61264265	5.67148113
-1.49755406	1.61725569	5.67149591
-1.50179148	1.62025726	5.67150211
-1.51473355	1.62708986	5.67152071
-1.52126443	1.63044584	5.67153025
-1.52452958	1.63212407	5.67153502
-1.53880215	1.63991916	5.67155600
-1.55385923	1.64728606	5.67157745
-1.56577754	1.65478742	5.67159510
-1.56982732	1.65603745	5.67160082
-1.58911133	1.66131747	5.67162848
-1.65044999	1.65754044	5.67171717
-1.74455559	1.63297892	5.67185307
-1.75437403	1.62986875	5.67186689
-1.77952409	1.61408579	5.67190313
-1.79165173	1.60283148	5.67192078
-1.79650879	1.59708750	5.67192745
-1.80082750	1.59188485	5.67193365
-1.81328392	1.57411790	5.67195177
-1.81788623	1.56474972	5.67195797
-1.82206297	1.55544853	5.67196417
-1.82290637	1.55338180	5.67196512
-1.82468534	1.54771161	5.67196798
-1.83661854	1.50962436	5.67198467
-1.83594608	1.50799978	5.67198372
-1.83462834	1.49380398	5.67198181
-1.86205983	1.32334793	5.67201948
-1.86288166	1.31864059	5.67202091
-1.86371911	1.31779814	5.67202187
-1.86444318	1.31743050	5.67202330
-1.86539221	1.31453538	5.67202425
-1.86610985	1.31381321	5.67202520
-1.86773086	1.31096411	5.67202759
-1.86897874	1.30776823	5.67202950
-1.87005424	1.30510688	5.67203093
-1.87107801	1.30443788	5.67203236
-1.87256539	1.30100107	5.67203474
-1.87334204	1.29864061	5.67203569
-1.87430596	1.29803193	5.67203712
-1.87560630	1.29284286	5.67203903
-1.87639034	1.29241514	5.67203999
-1.87798214	1.28499281	5.67204237
-1.87876618	1.28456485	5.67204332
-1.88073146	1.27906811	5.67204618
-1.88269627	1.27357185	5.67204905
-1.88334668	1.27097714	5.67205000
-1.88549078	1.26530027	5.67205286
-1.88633454	1.26481223	5.67205429
-1.88818777	1.26136851	5.67205667
-1.89080310	1.25327766	5.67206049
-1.89145327	1.25068295	5.67206144
-1.89379144	1.24711239	5.67206478
-1.89444184	1.24451756	5.67206573
-1.89628696	1.23914170	5.67206812
-1.89693117	1.23777139	5.67206907
-1.89812648	1.23498952	5.67207098
-1.89963436	1.23261535	5.67207289
-1.89991963	1.23160601	5.67207336
-1.90063667	1.22930551	5.67207432
-1.90225029	1.22610259	5.67207670
-1.90302789	1.22532022	5.67207813
-1.90427542	1.22054565	5.67207956
-1.90487361	1.21994400	5.67208052
-1.90529776	1.21829879	5.67208099
-1.90594208	1.21692848	5.67208195
-1.90666628	1.21656072	5.67208290
-1.90791392	1.21178627	5.67208481
-1.90993834	1.20622957	5.67208767
-1.91196358	1.20067275	5.67209053
-1.91285264	1.19783783	5.67209196
-1.91357732	1.19746983	5.67209291
-1.91548133	1.19045544	5.67209578
-1.91716301	1.18912435	5.67209816
-1.91894829	1.18380857	5.67210054
-1.91978574	1.18296611	5.67210150
-1.92212439	1.17939484	5.67210484
-1.92570293	1.17069566	5.67211008
-1.92719722	1.16761291	5.67211246
-1.93064165	1.15674722	5.67211723
-1.93166542	1.15607822	5.67211866
-1.93220377	1.15553677	5.67211962
-1.93315971	1.15299559	5.67212057
-1.93381786	1.15233362	5.67212152
-1.93627524	1.14864266	5.67212534
-1.93764997	1.14568019	5.67212725
-1.94252944	1.13179171	5.67213392
-1.94502497	1.12382114	5.67213774
-1.95026922	1.10992634	5.67214489
-1.95269847	1.10166144	5.67214870
-1.95407319	1.09869909	5.67215061
-1.95823431	1.08553314	5.67215633
-1.96203732	1.07272768	5.67216158
-1.96394205	1.06729162	5.67216444
-1.97128677	1.03928125	5.67217493
-1.97447705	1.02479100	5.67217922
-1.97582173	1.01567709	5.67218113
-1.99035084	0.91144633	5.67220116
-1.99014139	0.90547532	5.67220068
-1.99016380	0.89733088	5.67220068
-1.98983479	0.89148021	5.67220020
-1.99156189	0.72112107	5.67220116
-1.99085820	0.68703979	5.67219973
-1.98892963	0.66195214	5.67219687
-1.98804033	0.65242368	5.67219543
-1.98587990	0.62950927	5.67219210
-1.98306966	0.60918915	5.67218781
-1.97224045	0.56422341	5.67217159
-1.97008801	0.55560458	5.67216825
-1.96133709	0.52939445	5.67215538
-1.93797684	0.47524235	5.67212152
-1.92802310	0.46224463	5.67210674
-1.91133010	0.44149807	5.67208242
-1.85339475	0.37213710	5.67199802
-1.83813643	0.36073142	5.67197609
-1.80374742	0.33333310	5.67192602
-1.69098711	0.24093583	5.67176247
-1.68989611	0.23973243	5.67176056
-1.66586530	0.22262351	5.67172575
-1.65588176	0.21583748	5.67171144
-1.59313083	0.17898118	5.67162037
-1.47325611	0.10926445	5.67144680
-1.42246532	0.08361317	5.67137289
-1.35904992	0.05942776	5.67128134
-1.29900098	0.03898538	5.67119408
