//X	Y	Z
-1.81192601	0.57506251	3.73598886
-1.80785203	0.55565244	3.73597193
-1.80495763	0.54353821	3.73596120
-1.80197942	0.53539580	3.73595381
-1.78101623	0.48538458	3.73590851
-1.74946952	0.41453093	3.73584366
-1.68991315	0.32068011	3.73575497
-1.62977445	0.24412575	3.73568082
-1.60066342	0.20883134	3.73564625
-1.54537547	0.15960181	3.73559570
-1.54415631	0.15852410	3.73559475
-1.47248149	0.10519809	3.73553801
-1.39923644	0.05308801	3.73548198
-1.38896370	0.04623801	3.73547459
-1.36881447	0.03672338	3.73546314
-1.30743515	0.01653844	3.73543620
-1.22654748	-0.00761956	3.73540235
-1.21495426	-0.00926787	3.73539901
-1.19714105	-0.01034713	3.73539519
-1.17170155	-0.01014936	3.73539114
-1.10483861	-0.00016844	3.73538828
-1.10376346	0.00055528	3.73538876
-1.05442834	0.01268226	3.73539066
-1.04911768	0.01463670	3.73539138
-1.04804313	0.01536000	3.73539186
-1.04279506	0.01725256	3.73539257
-1.04172003	0.01797616	3.73539305
-1.03432429	0.01971388	3.73539329
-1.03349686	0.02019155	3.73539352
-1.02996516	0.02106774	3.73539376
-1.02913761	0.02154529	3.73539400
-1.02502596	0.02265298	3.73539424
-1.02052069	0.02380699	3.73539448
-1.01653290	0.02479160	3.73539448
-1.01062036	0.02665454	3.73539519
-1.00690293	0.02771544	3.73539543
-0.98532635	0.03288615	3.73539615
-0.98044974	0.03440934	3.73539662
-0.96701753	0.03813308	3.73539758
-0.96183085	0.03996450	3.73539829
-0.95575523	0.04233444	3.73539925
-0.95479500	0.04306984	3.73539972
-0.94855064	0.04491758	3.73540020
-0.94123966	0.04691637	3.73540068
-0.93516409	0.04928631	3.73540163
-0.93415087	0.04994839	3.73540211
-0.93332392	0.05042547	3.73540235
-0.92160821	0.05313313	3.73540258
-0.91534686	0.05568784	3.73540378
-0.90305108	0.05862677	3.73540401
-0.88244867	0.06351942	3.73540473
-0.86901653	0.06724316	3.73540568
-0.71231556	0.09878314	3.73540616
-0.70876116	0.09933692	3.73540592
-0.70634377	0.09910560	3.73540545
-0.69929665	0.10015184	3.73540497
-0.69332469	0.10047424	3.73540425
-0.68977022	0.10102808	3.73540425
-0.68741417	0.10073555	3.73540354
-0.68138033	0.10111970	3.73540282
-0.67433321	0.10216588	3.73540258
-0.67228669	0.10156560	3.73540163
-0.66515547	0.10235035	3.73540115
-0.66245079	0.10274971	3.73540115
-0.65905923	0.10279632	3.73540068
-0.65418464	0.10271811	3.73539972
-0.65135074	0.10221052	3.73539877
-0.64525449	0.10265654	3.73539805
-0.63884920	0.10340977	3.73539782
-0.63392699	0.10428804	3.73539758
-0.63211167	0.10414827	3.73539710
-0.62896776	0.10394883	3.73539662
-0.62349105	0.10377914	3.73539543
-0.61619639	0.10507131	3.73539543
-0.60196161	0.10799354	3.73539543
-0.59859288	0.10836285	3.73539519
-0.59491456	0.10903972	3.73539519
-0.59102833	0.10957831	3.73539495
-0.58786750	0.11008584	3.73539472
-0.58398128	0.11062443	3.73539472
-0.58277702	0.11044139	3.73539424
-0.57649493	0.11107194	3.73539376
-0.57172740	0.11157757	3.73539329
-0.56969553	0.11187202	3.73539329
-0.56911832	0.11050135	3.73539209
-0.56574953	0.11087060	3.73539186
-0.56314582	0.11082429	3.73539138
-0.55810779	0.11125344	3.73539090
-0.55365908	0.11131626	3.73539019
-0.55002791	0.11103696	3.73538923
-0.54399353	0.11142129	3.73538876
-0.54135072	0.11175907	3.73538852
-0.54050094	0.11191362	3.73538852
-0.53802156	0.11174387	3.73538804
-0.53407300	0.11234438	3.73538780
-0.53204912	0.11206686	3.73538709
-0.53059721	0.11212981	3.73538709
-0.53000313	0.11146623	3.73538637
-0.52682000	0.11165076	3.73538589
-0.52542996	0.11165226	3.73538566
-0.52148932	0.11168075	3.73538518
-0.52028501	0.11149764	3.73538470
-0.51854801	0.11058986	3.73538375
-0.51551157	0.11097389	3.73538351
-0.51377439	0.11006600	3.73538256
-0.51034379	0.11049676	3.73538232
-0.50544643	0.11009604	3.73538113
-0.50253373	0.11035687	3.73538089
-0.50073540	0.10951018	3.73537993
-0.49356455	0.11067945	3.73537970
-0.48759204	0.11100233	3.73537898
-0.48151848	0.11177075	3.73537850
-0.47848210	0.11215484	3.73537827
-0.47529906	0.11233950	3.73537803
-0.46806622	0.11357021	3.73537779
-0.45806098	0.11423218	3.73537660
-0.43731397	0.11732394	3.73537588
-0.43659016	0.11575389	3.73537445
-0.43061823	0.11607647	3.73537374
-0.38406140	0.12396806	3.73537254
-0.37784132	0.12453711	3.73537207
-0.37717944	0.12290561	3.73537064
-0.36988473	0.12419784	3.73537040
-0.35070723	0.13190794	3.73537374
-0.34438398	0.13452411	3.73537493
-0.33448732	0.14000249	3.73537779
-0.31700838	0.15323776	3.73538589
-0.29936230	0.17018318	3.73539734
-0.29341173	0.19839764	3.73541999
-0.29217333	0.20546240	3.73542571
-0.28544027	0.23479968	3.73544908
-0.28368497	0.24626714	3.73545861
-0.28298295	0.25085402	3.73546219
-0.28383055	0.25230092	3.73546362
-0.28403813	0.25827312	3.73546863
-0.28372946	0.26864773	3.73547721
-0.28410262	0.27251083	3.73548055
-0.28375185	0.27480406	3.73548245
-0.28530264	0.27589703	3.73548365
-0.28544718	0.27769792	3.73548508
-0.28497207	0.28011465	3.73548722
-0.28455946	0.28246933	3.73548913
-0.28441447	0.28650242	3.73549247
-0.28604794	0.28945780	3.73549509
-0.28770143	0.29433757	3.73549962
-0.28892058	0.29541528	3.73550057
-0.28821856	0.30000222	3.73550439
-0.28995568	0.30091000	3.73550534
-0.28945947	0.30723661	3.73551059
-0.29119653	0.30814439	3.73551178
-0.29080421	0.31242377	3.73551512
-0.29154819	0.31591803	3.73551822
-0.29223078	0.31947356	3.73552132
-0.29448438	0.32604647	3.73552728
-0.29456702	0.32790893	3.73552895
-0.29529083	0.32947892	3.73553038
-0.29741946	0.33194196	3.73553276
-0.29777187	0.33388114	3.73553443
-0.29768887	0.33785272	3.73553777
-0.29944614	0.34068489	3.73554039
-0.30016991	0.34225488	3.73554182
-0.29996309	0.34634942	3.73554516
-0.30200922	0.34695005	3.73554611
-0.30136913	0.35147536	3.73554969
-0.30120417	0.35358405	3.73555160
-0.30244499	0.36081856	3.73555779
-0.30323085	0.36232698	3.73555923
-0.30527681	0.36292762	3.73555994
-0.30494624	0.36714518	3.73556352
-0.30786234	0.37534922	3.73557091
-0.30860636	0.37884349	3.73557401
-0.30976352	0.37998271	3.73557520
-0.31119069	0.38703239	3.73558116
-0.31197643	0.38854074	3.73558259
-0.31313354	0.38967997	3.73558378
-0.31373355	0.39137298	3.73558521
-0.31569678	0.39594507	3.73558950
-0.31629685	0.39763820	3.73559093
-0.31879860	0.40396440	3.73559666
-0.32020327	0.40485752	3.73559761
-0.32074147	0.40661216	3.73559928
-0.32208437	0.40756673	3.73560023
-0.32243678	0.40950596	3.73560190
-0.32347012	0.41076815	3.73560309
-0.32487494	0.41166127	3.73560429
-0.32599238	0.41318488	3.73560572
-0.32638451	0.41473973	3.73560691
-0.32766548	0.41575593	3.73560810
-0.32859728	0.41746414	3.73560977
-0.32874173	0.41926503	3.73561120
-0.32913327	0.42082024	3.73561263
-0.32927781	0.42262113	3.73561406
-0.33010653	0.42637658	3.73561740
-0.33138743	0.42739272	3.73561859
-0.33211043	0.43479699	3.73562479
-0.33405337	0.43744469	3.73562741
-0.33426082	0.44341689	3.73563242
-0.33589426	0.44637233	3.73563504
-0.33649439	0.44806534	3.73563671
-0.33065066	0.61953545	3.73577952
-0.33067265	0.62569231	3.73578477
-0.32872930	0.62887859	3.73578715
-0.32777792	0.62947917	3.73578739
-0.32775897	0.63178754	3.73578954
-0.32765585	0.63383472	3.73579121
-0.32682893	0.63431180	3.73579144
-0.32575378	0.63503540	3.73579192
-0.32546496	0.63726711	3.73579359
-0.32480419	0.63986838	3.73579574
-0.32420588	0.64240783	3.73579764
-0.32313073	0.64313149	3.73579812
-0.32127157	0.64657915	3.73580074
-0.32061136	0.64918005	3.73580289
-0.31953615	0.64990371	3.73580337
-0.31846163	0.65062708	3.73580360
-0.31761515	0.65341294	3.73580599
-0.31571296	0.65461367	3.73580670
-0.31379196	0.65812290	3.73580933
-0.31344241	0.66464895	3.73581457
-0.31242970	0.66531068	3.73581505
-0.31135455	0.66603428	3.73581553
-0.30980501	0.66917425	3.73581791
-0.30800772	0.67256033	3.73582029
-0.30645797	0.67570043	3.73582268
-0.30358624	0.67980969	3.73582578
-0.30329850	0.68627429	3.73583102
-0.30222395	0.68699747	3.73583150
-0.29982665	0.68869066	3.73583245
-0.29802942	0.69207668	3.73583508
-0.29695421	0.69280034	3.73583555
-0.29647967	0.69521666	3.73583746
-0.29600462	0.69763339	3.73583937
-0.29511702	0.70240498	3.73584318
-0.29410425	0.70306659	3.73584366
-0.29152134	0.70494425	3.73584485
-0.28943470	0.71056247	3.73584914
-0.28854871	0.71956646	3.73585653
-0.28747356	0.72029006	3.73585701
-0.28604764	0.72330689	3.73585939
-0.28497311	0.72403026	3.73585963
-0.28288701	0.72964805	3.73586416
-0.28189993	0.73326397	3.73586702
-0.28168979	0.73472720	3.73586822
-0.28063539	0.73737478	3.73587012
-0.28043276	0.73826641	3.73587084
-0.27944237	0.73925102	3.73587155
-0.27855301	0.73979008	3.73587179
-0.27745348	0.74179232	3.73587346
-0.27637893	0.74251556	3.73587394
-0.27518171	0.74759477	3.73587799
-0.27410656	0.74831837	3.73587823
-0.27303201	0.74904168	3.73587871
-0.27177286	0.75418240	3.73588276
-0.27069777	0.75490606	3.73588324
-0.27036929	0.75752211	3.73588538
-0.26933977	0.75889081	3.73588634
-0.26867360	0.76046228	3.73588753
-0.26820061	0.76127750	3.73588824
-0.26735085	0.76143211	3.73588824
-0.26698324	0.76443231	3.73589063
-0.26505840	0.76531053	3.73589110
-0.26410764	0.76591069	3.73589134
-0.26328015	0.76638818	3.73589158
-0.26264215	0.76931208	3.73589396
-0.26103055	0.77251351	3.73589635
-0.25939879	0.77379060	3.73589730
-0.25846821	0.77631521	3.73589921
-0.25708413	0.77734613	3.73589993
-0.25599006	0.78037822	3.73590231
-0.25408790	0.78157902	3.73590279
-0.25290966	0.78434974	3.73590493
-0.25181615	0.78738141	3.73590732
-0.25061727	0.78822809	3.73590779
-0.24981044	0.79062968	3.73590970
-0.24848822	0.79159909	3.73591042
-0.24768680	0.79503042	3.73591304
-0.24650526	0.79516977	3.73591304
-0.24576244	0.79590827	3.73591352
-0.24468735	0.79663193	3.73591399
-0.24379848	0.79717058	3.73591423
-0.24235193	0.79826343	3.73591495
-0.24134044	0.80315799	3.73591900
-0.24020395	0.80394280	3.73591948
-0.23906697	0.80472791	3.73591971
-0.23755904	0.80588198	3.73592067
-0.23588882	0.81177634	3.73592520
-0.23445974	0.81216192	3.73592520
-0.23346716	0.81474805	3.73592734
-0.23049255	0.81507057	3.73592710
-0.22516097	0.82093489	3.73593116
-0.22456267	0.82347429	3.73593307
-0.22282851	0.83103174	3.73593926
-0.22020251	0.83066255	3.73593855
-0.21912791	0.83138573	3.73593879
-0.21809578	0.83435631	3.73594117
-0.21695928	0.83514106	3.73594165
-0.21582225	0.83592629	3.73594213
-0.21480958	0.83658797	3.73594260
-0.21113132	0.83726490	3.73594260
-0.20921020	0.84077406	3.73594522
-0.20658550	0.84463775	3.73594785
-0.20596644	0.84525311	3.73594832
-0.20472631	0.84808534	3.73595047
-0.20255819	0.85184038	3.73595333
-0.20148304	0.85256398	3.73595381
-0.20101057	0.85337877	3.73595428
-0.19811420	0.85293317	3.73595357
-0.19406627	0.85821187	3.73595715
-0.19255790	0.85936618	3.73595786
-0.19137973	0.86213690	3.73596001
-0.18862997	0.86189085	3.73595953
-0.18677072	0.86533844	3.73596191
-0.18551046	0.86624628	3.73596263
-0.18305244	0.87223375	3.73596716
-0.18191594	0.87301856	3.73596764
-0.18077891	0.87380373	3.73596811
-0.17904356	0.87712836	3.73597050
-0.17687365	0.87665081	3.73596978
-0.17340304	0.88330001	3.73597479
-0.16858822	0.88476169	3.73597527
-0.16544925	0.89142603	3.73598027
-0.16286580	0.89913768	3.73598647
-0.15854749	0.90433991	3.73599005
-0.15530373	0.90881896	3.73599315
-0.15359116	0.91246593	3.73599601
-0.15086153	0.91414428	3.73599696
-0.14978693	0.91486746	3.73599744
-0.14875473	0.91783810	3.73599982
-0.14546855	0.92006981	3.73600101
-0.14431314	0.92316306	3.73600340
-0.14286667	0.92425585	3.73600411
-0.14210156	0.92467135	3.73600435
-0.14125510	0.92745733	3.73600650
-0.13964348	0.93065882	3.73600888
-0.13722596	0.93042755	3.73600841
-0.13602710	0.93127429	3.73600888
-0.13377543	0.93900108	3.73601508
-0.13055119	0.94117129	3.73601627
-0.12792814	0.94926739	3.73602271
-0.12575768	0.94879013	3.73602200
-0.12282397	0.95296121	3.73602486
-0.11588501	0.98055863	3.73604703
-0.11485283	0.98352921	3.73604918
-0.11222696	0.98316002	3.73604846
-0.10691774	0.99518085	3.73605776
-0.10315759	1.00406206	3.73606443
-0.09547468	1.02816522	3.73608351
-0.09417269	1.03105903	3.73608565
-0.09115709	1.04343438	3.73609567
-0.08917612	1.06130481	3.73611021
-0.09335456	1.08873415	3.73613405
-0.09546326	1.09933984	3.73614311
-0.09725044	1.10775697	3.73615050
-0.10003300	1.11242354	3.73615503
-0.14794835	1.17378068	3.73621440
-0.17272711	1.19791889	3.73623872
-0.20786276	1.22916853	3.73627090
-0.21588129	1.22944629	3.73627257
-0.22396174	1.22966242	3.73627400
-0.23049887	1.22821391	3.73627377
-0.23288596	1.22869456	3.73627472
-0.23505636	1.22917175	3.73627543
-0.24303311	1.23143530	3.73627877
-0.24650556	1.22901857	3.73627710
-0.24886322	1.22771001	3.73627639
-0.25241560	1.22875774	3.73627806
-0.25315839	1.22801912	3.73627758
-0.25398588	1.22754169	3.73627710
-0.25603202	1.22814226	3.73627806
-0.25704673	1.22587895	3.73627639
-0.25849116	1.22638774	3.73627710
-0.26326472	1.22691154	3.73627830
-0.26497900	1.22749686	3.73627901
-0.26694298	1.22623467	3.73627830
-0.26878318	1.22509539	3.73627758
-0.27153301	1.22534156	3.73627830
-0.27923983	1.22752845	3.73628139
-0.28221440	1.22720599	3.73628163
-0.28607830	1.22634435	3.73628163
-0.29573029	1.22957742	3.73628592
-0.46528995	1.22154236	3.73630738
-0.52270639	1.21969831	3.73631525
-0.52886444	1.21919084	3.73631597
-0.54080886	1.21854544	3.73631740
-0.55860144	1.21770060	3.73631954
-0.56329298	1.21636164	3.73631930
-0.56951243	1.21579301	3.73631978
-0.57058758	1.21506929	3.73631954
-0.57420343	1.21445429	3.73631954
-0.58017588	1.21413147	3.73632026
-0.58391607	1.21339297	3.73632026
-0.58716100	1.21314692	3.73632050
-0.59457946	1.21173143	3.73632073
-0.59532231	1.21099305	3.73632002
-0.60026085	1.20940816	3.73631954
-0.62080371	1.20880914	3.73632264
-0.62472904	1.20788646	3.73632240
-0.62568039	1.20728600	3.73632216
-0.62935865	1.20660901	3.73632216
-0.63787240	1.20639443	3.73632336
-0.64250141	1.20511734	3.73632312
-0.64388597	1.20408595	3.73632240
-0.64661300	1.20400965	3.73632288
-0.64744055	1.20353222	3.73632264
-0.65335059	1.20327115	3.73632336
-0.65709066	1.20253277	3.73632336
-0.65841353	1.20156312	3.73632264
-0.66419977	1.20142508	3.73632360
-0.66473663	1.19894683	3.73632169
-0.66777313	1.19856286	3.73632169
-0.67126572	1.19807053	3.73632193
-0.67316782	1.19686973	3.73632121
-0.68064815	1.19539285	3.73632121
-0.68190843	1.19448495	3.73632073
-0.69124967	1.19379282	3.73632169
-0.86237884	1.19037628	3.73634720
-0.86415493	1.19090009	3.73634791
-0.86800003	1.19234705	3.73634982
-0.86971432	1.19293237	3.73635054
-0.87252599	1.19311702	3.73635125
-0.87622440	1.19436455	3.73635292
-0.87750542	1.19538069	3.73635411
-0.87918049	1.19635010	3.73635507
-0.88122660	1.19695067	3.73635602
-0.88542080	1.19770551	3.73635721
-0.88678592	1.19898295	3.73635864
-0.89232290	1.20069230	3.73636103
-0.89660120	1.20170844	3.73636246
-0.89751083	1.20309377	3.73636389
-0.90102351	1.20452595	3.73636556
-0.90300763	1.20518804	3.73636651
-0.90765738	1.20583498	3.73636770
-0.90912408	1.20666659	3.73636866
-0.91245162	1.20828283	3.73637056
-0.91551089	1.20822132	3.73637104
-0.91844636	1.20828283	3.73637176
-0.92171144	1.20996106	3.73637366
-0.92342579	1.21054649	3.73637438
-0.92547226	1.21114659	3.73637533
-0.93165070	1.21256363	3.73637748
-0.93390512	1.21330202	3.73637843
-0.93586713	1.21364129	3.73637915
-0.93717033	1.21498036	3.73638034
-0.93946451	1.21533430	3.73638105
-0.94919723	1.21619737	3.73638344
-0.94985926	1.21782899	3.73638487
-0.95711213	1.21852255	3.73638678
-0.96037775	1.22020054	3.73638868
-0.96242380	1.22080100	3.73638940
-0.96453232	1.22133958	3.73639035
-0.97376937	1.22269547	3.73639297
-0.97502804	1.22338867	3.73639369
-0.97614563	1.22491229	3.73639512
-0.98011434	1.22623610	3.73639703
-0.98724401	1.22705257	3.73639894
-0.98802984	1.22856104	3.73640037
-0.99057108	1.22866929	3.73640084
-0.99284244	1.22870076	3.73640108
-0.99846572	1.22906995	3.73640251
-0.99999434	1.22984004	3.73640323
-1.00428951	1.23014927	3.73640418
-1.00447905	1.23259556	3.73640633
-1.01148438	1.23353529	3.73640823
-1.01518333	1.23478246	3.73640990
-1.01522624	1.23702931	3.73641181
-1.01962841	1.23792243	3.73641348
-1.02138555	1.24075472	3.73641610
-1.02665555	1.24501908	3.73642039
-1.03227675	1.24698985	3.73642302
-1.03579009	1.24842143	3.73642492
-1.04153502	1.25026929	3.73642731
-1.04172182	1.25431752	3.73643088
-1.04395413	1.25473297	3.73643160
-1.04721928	1.25641119	3.73643351
-1.05054688	1.25802755	3.73643541
-1.05271673	1.25850511	3.73643613
-1.05279922	1.26036751	3.73643780
-1.06005216	1.26106119	3.73643947
-1.06028068	1.26312351	3.73644137
-1.06459832	1.26375556	3.73644257
-1.06548882	1.26744938	3.73644567
-1.06955922	1.26832724	3.73644710
-1.07065439	1.26952803	3.73644829
-1.07075930	1.27171338	3.73645020
-1.07455921	1.27251494	3.73645163
-1.07493389	1.27477705	3.73645353
-1.07774353	1.27656317	3.73645544
-1.07902443	1.27757931	3.73645663
-1.08088529	1.27836406	3.73645759
-1.08262193	1.27927232	3.73645854
-1.08315790	1.28262854	3.73646140
-1.08535063	1.28342843	3.73646259
-1.08638382	1.28469086	3.73646379
-1.08708560	1.28593791	3.73646498
-1.08861411	1.28670788	3.73646569
-1.08973157	1.28823161	3.73646736
-1.09159255	1.28901637	3.73646832
-1.09249997	1.29200315	3.73647094
-1.09653068	1.29326546	3.73647261
-1.09770799	1.29632902	3.73647547
-1.10273087	1.30083919	3.73648000
-1.10459125	1.30162454	3.73648095
-1.10661674	1.30613458	3.73648500
-1.10924256	1.30650389	3.73648596
-1.11066759	1.30932128	3.73648834
-1.11182463	1.31046057	3.73648953
-1.11248124	1.31106222	3.73649025
-1.11351466	1.31232452	3.73649144
-1.11616290	1.31301653	3.73649240
-1.11629045	1.31552446	3.73649454
-1.11720002	1.31690979	3.73649597
-1.11911476	1.31820512	3.73649740
-1.11930597	1.31905031	3.73649812
-1.11915767	1.32045221	3.73649931
-1.12108004	1.32117569	3.73650002
-1.12196732	1.32223821	3.73650122
-1.12255251	1.32303679	3.73650193
-1.12244356	1.32405436	3.73650289
-1.12385356	1.32597733	3.73650455
-1.12382925	1.32725596	3.73650575
-1.12585855	1.32856333	3.73650718
-1.12641358	1.32961106	3.73650813
-1.12688756	1.33302879	3.73651099
-1.12884951	1.33336806	3.73651171
-1.12962043	1.33398175	3.73651242
-1.12947237	1.33538353	3.73651338
-1.13048303	1.33632326	3.73651433
-1.13166296	1.33778501	3.73651576
-1.13273537	1.33866334	3.73651671
-1.13319468	1.34118629	3.73651886
-1.13350224	1.34248018	3.73652005
-1.13497686	1.34273958	3.73652053
-1.13557100	1.34340334	3.73652124
-1.13571548	1.34520411	3.73652267
-1.13654041	1.34632862	3.73652387
-1.13743520	1.34681940	3.73652434
-1.13780451	1.34805167	3.73652554
-1.13947964	1.34902108	3.73652649
-1.13939285	1.35036159	3.73652768
-1.14071894	1.35202324	3.73652935
-1.14077854	1.35356319	3.73653054
-1.14205956	1.35457921	3.73653173
-1.14365005	1.35528779	3.73653245
-1.14449775	1.35673463	3.73653388
-1.14435494	1.35916615	3.73653579
-1.14578247	1.36038160	3.73653722
-1.14708042	1.36069107	3.73653769
-1.14726937	1.36313760	3.73653960
-1.14805508	1.36464608	3.73654103
-1.14890277	1.36609304	3.73654246
-1.14935684	1.36758637	3.73654389
-1.15059268	1.36795700	3.73654437
-1.15053606	1.36904836	3.73654532
-1.15105212	1.37048006	3.73654652
-1.15351462	1.37135673	3.73654771
-1.15363634	1.37283528	3.73654890
-1.15378082	1.37463617	3.73655033
-1.15481412	1.37589836	3.73655176
-1.15692794	1.37746704	3.73655343
-1.15706444	1.37983990	3.73655534
-1.15778828	1.38141000	3.73655677
-1.15857410	1.38291836	3.73655820
-1.15892649	1.38485765	3.73655987
-1.16072500	1.38570440	3.73656082
-1.16152751	1.38650584	3.73656178
-1.16206563	1.38826036	3.73656321
-1.16320813	1.38850498	3.73656368
-1.16306746	1.38933504	3.73656440
-1.16316688	1.39049077	3.73656535
-1.16341245	1.39184594	3.73656654
-1.16440082	1.39246297	3.73656726
-1.16598177	1.39330649	3.73656821
-1.16641319	1.39447737	3.73656917
-1.16649568	1.39633989	3.73657084
-1.16802430	1.39710987	3.73657179
-1.16810083	1.39794278	3.73657250
-1.16942680	1.39960432	3.73657393
-1.17016768	1.40046751	3.73657489
-1.17064381	1.40228367	3.73657656
-1.17180097	1.40342271	3.73657751
-1.17233920	1.40517735	3.73657918
-1.17415833	1.40794826	3.73658180
-1.17416370	1.40897799	3.73658276
-1.17488217	1.40951812	3.73658323
-1.17610657	1.41162562	3.73658514
-1.17690754	1.41402817	3.73658729
-1.17902088	1.41559708	3.73658895
-1.17982209	1.41799974	3.73659110
-1.18123436	1.41832113	3.73659158
-1.18228459	1.41887641	3.73659229
-1.18235183	1.41984487	3.73659325
-1.18234217	1.42201805	3.73659492
-1.18352211	1.42347980	3.73659635
-1.18555129	1.42478728	3.73659778
-1.18596029	1.42563510	3.73659873
-1.18598795	1.42698765	3.73659968
-1.18689215	1.42734337	3.73660016
-1.18804932	1.42848253	3.73660135
-1.18885946	1.42871237	3.73660159
-1.18902075	1.42980647	3.73660254
-1.18908799	1.43077469	3.73660350
-1.18951917	1.43194544	3.73660445
-1.18986630	1.43285489	3.73660541
-1.19032776	1.43377638	3.73660612
-1.19092786	1.43546939	3.73660779
-1.19297385	1.43606997	3.73660851
-1.19369018	1.43821168	3.73661041
-1.19390416	1.43937933	3.73661137
-1.19537079	1.44021082	3.73661232
-1.19654489	1.44064319	3.73661304
-1.19641900	1.44236779	3.73661447
-1.19733608	1.44318151	3.73661518
-1.19853282	1.44393635	3.73661613
-1.19854748	1.44483089	3.73661685
-1.19925654	1.44550633	3.73661757
-1.19933331	1.44633925	3.73661828
-1.20125604	1.44706249	3.73661923
-1.20146942	1.44823062	3.73662019
-1.20243335	1.45012617	3.73662186
-1.20315719	1.45169616	3.73662329
-1.20386624	1.45237160	3.73662400
-1.20594788	1.45579076	3.73662734
-1.20710504	1.45692992	3.73662829
-1.20955062	1.45851350	3.73663020
-1.20944762	1.46056068	3.73663187
-1.21118402	1.46146894	3.73663282
-1.21214795	1.46336448	3.73663473
-1.21364272	1.46554828	3.73663664
-1.21494603	1.46688724	3.73663807
-1.21680701	1.46767211	3.73663902
-1.21723819	1.46884286	3.73663998
-1.21801841	1.46932149	3.73664069
-1.21777630	1.47059751	3.73664165
-1.21957469	1.47144413	3.73664260
-1.22023666	1.47307563	3.73664403
-1.22191191	1.47404528	3.73664522
-1.22230327	1.47560048	3.73664665
-1.22273469	1.47677100	3.73664761
-1.22498703	1.47911119	3.73664999
-1.22643685	1.48064959	3.73665142
-1.22631097	1.48237419	3.73665285
-1.22868705	1.48459101	3.73665524
-1.22922528	1.48634553	3.73665667
-1.22992682	1.48759270	3.73665786
-1.23116827	1.48899341	3.73665929
-1.23356187	1.49050283	3.73666096
-1.23338151	1.49171734	3.73666191
-1.23337948	1.49331880	3.73666334
-1.23563397	1.49405742	3.73666430
-1.23564863	1.49495196	3.73666501
-1.23629582	1.49568880	3.73666573
-1.23629391	1.49729037	3.73666716
-1.23778272	1.49844480	3.73666835
-1.23819172	1.49929261	3.73666906
-1.23921037	1.49966025	3.73666954
-1.23910117	1.50067794	3.73667049
-1.23972404	1.50269365	3.73667216
-1.24027920	1.50374115	3.73667312
-1.24170613	1.50495720	3.73667455
-1.24220526	1.50709581	3.73667645
-1.24325550	1.50765109	3.73667693
-1.24439585	1.50949728	3.73667884
-1.24466348	1.51117551	3.73668027
-1.24520159	1.51293015	3.73668170
-1.24678993	1.51524019	3.73668385
-1.25144506	1.51691675	3.73668623
-1.25030446	1.52090478	3.73668933
-1.25164723	1.52185917	3.73669028
-1.25218546	1.52361393	3.73669195
-1.25297117	1.52512240	3.73669338
-1.25524843	1.52618325	3.73669457
-1.25611305	1.52692318	3.73669529
-1.25731528	1.52870786	3.73669696
-1.25685704	1.53041768	3.73669839
-1.25840831	1.53151000	3.73669958
-1.25958788	1.53297234	3.73670101
-1.26124024	1.53361917	3.73670173
-1.26152861	1.53722143	3.73670483
-1.26274776	1.53829896	3.73670602
-1.26673937	1.53994536	3.73670793
-1.26663363	1.54359436	3.73671103
-1.26741934	1.54510283	3.73671246
-1.26826692	1.54654980	3.73671389
-1.26973367	1.54738128	3.73671484
-1.27118134	1.55052137	3.73671770
-1.27215266	1.55184507	3.73671889
-1.27281475	1.55347657	3.73672032
-1.27659583	1.55658674	3.73672366
-1.28037894	1.55809498	3.73672557
-1.28168058	1.56103516	3.73672819
-1.28252828	1.56248200	3.73672962
-1.28409970	1.56549907	3.73673224
-1.28788078	1.56860900	3.73673558
-1.28906024	1.57007122	3.73673701
-1.29125047	1.57247245	3.73673940
-1.29311156	1.57325733	3.73674035
-1.29350305	1.57481265	3.73674178
-1.29565239	1.57919967	3.73674583
-1.29939389	1.58269405	3.73674941
-1.30210233	1.58492565	3.73675156
-1.30274141	1.58623481	3.73675275
-1.30423093	1.58738875	3.73675418
-1.30739439	1.58951306	3.73675632
-1.30733097	1.59117556	3.73675776
-1.30811679	1.59268415	3.73675919
-1.31003892	1.59340775	3.73676014
-1.31179833	1.59463859	3.73676133
-1.31121683	1.59647095	3.73676276
-1.31313896	1.59719467	3.73676372
-1.31392479	1.59870315	3.73676515
-1.31553602	1.60133553	3.73676777
-1.31632185	1.60284400	3.73676896
-1.31741703	1.60404468	3.73677015
-1.31869793	1.60506082	3.73677135
-1.31993937	1.60646152	3.73677278
-1.32084882	1.60784674	3.73677397
-1.32303929	1.61024833	3.73677635
-1.32415533	1.61337328	3.73677921
-1.32814443	1.61662126	3.73678255
-1.32828879	1.61842227	3.73678422
-1.33393228	1.62071586	3.73678708
-1.33324921	1.62299442	3.73678875
-1.33694935	1.62847447	3.73679399
-1.34108281	1.63352346	3.73679900
-1.34629083	1.63784957	3.73680353
-1.34810996	1.64062011	3.73680615
-1.34945285	1.64157486	3.73680711
-1.34974337	1.64357543	3.73680878
-1.35108626	1.64453018	3.73680973
-1.35224342	1.64566934	3.73681092
-1.35356724	1.64893222	3.73681402
-1.35670924	1.65073323	3.73681593
-1.35710073	1.65228868	3.73681736
-1.35865211	1.65338099	3.73681855
-1.36148393	1.65549016	3.73682070
-1.36264110	1.65662920	3.73682189
-1.36272371	1.65849185	3.73682356
-1.36315811	1.66229379	3.73682666
-1.36842859	1.66655779	3.73683119
-1.37128115	1.67059088	3.73683500
-1.37233460	1.67377758	3.73683786
-1.38653314	1.67970455	3.73684525
-1.38554060	1.68229067	3.73684716
-1.38959146	1.68547738	3.73685050
-1.39422214	1.68843269	3.73685384
-1.39932597	1.69057298	3.73685646
-1.40017366	1.69201982	3.73685789
-1.40102136	1.69346678	3.73685932
-1.40538168	1.69634557	3.73686242
-1.41594315	1.70096421	3.73686790
-1.41699934	1.70254898	3.73686957
-1.41879773	1.70339561	3.73687053
-1.42142153	1.70536637	3.73687267
-1.42195976	1.70712113	3.73687410
-1.43814242	1.71371019	3.73688245
-1.43888307	1.71457338	3.73688316
-1.44254243	1.71620488	3.73688531
-1.44461119	1.71712780	3.73688626
-1.44552088	1.71851325	3.73688769
-1.44806039	1.72022259	3.73688960
-1.46711636	1.72693527	3.73689842
-1.47286129	1.72878289	3.73690081
-1.52555919	1.73699200	3.73691654
-1.53244126	1.73805439	3.73691845
-1.55186605	1.73593211	3.73691988
-1.55661881	1.73453200	3.73691964
-1.58261263	1.72531486	3.73691607
-1.61007416	1.71109509	3.73690891
-1.61933100	1.70430803	3.73690462
-1.62228549	1.70206118	3.73690319
-1.63322389	1.69143903	3.73689628
-1.63791370	1.68586755	3.73689222
-1.64353406	1.67777157	3.73688650
-1.68177581	1.61886883	3.73684335
-1.69103098	1.59778214	3.73682714
-1.69561827	1.58258986	3.73681521
-1.69760036	1.56895232	3.73680401
-1.69774365	1.56068683	3.73679709
-1.69819808	1.55634618	3.73679352
-1.69823980	1.55436015	3.73679185
-1.72495818	1.39237344	3.73666048
-1.73738360	1.31127334	3.73659444
-1.73802364	1.30674791	3.73659062
-1.73792458	1.30559206	3.73658967
-1.73897755	1.29871202	3.73658419
-1.73922181	1.29583442	3.73658180
-1.74067080	1.28730607	3.73657489
-1.74029768	1.28344285	3.73657155
-1.74046278	1.28133416	3.73656988
-1.73973882	1.27976429	3.73656845
-1.74085402	1.27282214	3.73656273
-1.74120462	1.27052903	3.73656082
-1.74124646	1.26854300	3.73655915
-1.74248493	1.26147830	3.73655343
-1.74329066	1.25484395	3.73654795
-1.74262857	1.25321245	3.73654652
-1.74285543	1.25104225	3.73654485
-1.74308300	1.24887180	3.73654294
-1.74413574	1.24199164	3.73653746
-1.74518895	1.23511112	3.73653173
-1.74491966	1.22920036	3.73652673
-1.74479413	1.22509098	3.73652339
-1.74512458	1.22087336	3.73651981
-1.74541390	1.21864128	3.73651791
-1.74694109	1.20934486	3.73651052
-1.74675441	1.20529664	3.73650694
-1.74749756	1.19872427	3.73650169
-1.74883962	1.18961203	3.73649430
-1.75040913	1.17832923	3.73648500
-1.75257719	1.16450715	3.73647380
-1.75804770	1.13184547	3.73644733
-1.75825429	1.12775087	3.73644376
-1.75759244	1.12611938	3.73644233
-1.75883150	1.11905432	3.73643661
-1.75792193	1.11766887	3.73643541
-1.75790119	1.11574495	3.73643374
-1.75930512	1.10657120	3.73642635
-1.75858128	1.10500109	3.73642468
-1.75884998	1.10084510	3.73642135
-1.80077732	0.93565798	3.73628974
-1.80335784	0.91948110	3.73627663
-1.80739903	0.85540318	3.73622346
-1.80733454	0.84116542	3.73621154
-1.81367636	0.67766827	3.73607516
-1.81476963	0.66456938	3.73606443
-1.81493461	0.66246080	3.73606277
-1.81563663	0.65787393	3.73605895
-1.81615293	0.65347165	3.73605537
-1.81813252	0.62553477	3.73603225
-1.81703353	0.60580194	3.73601556
-1.81459367	0.58934695	3.73600125
