//X	Y	Z
-0.19544691	0.15453747	3.45263314
-0.19707054	0.15778618	3.45263648
-0.19646370	0.16270499	3.45263720
-0.19605815	0.16404210	3.45263696
-0.19620901	0.16600217	3.45263791
-0.19745719	0.16726428	3.45264006
-0.19761652	0.16950330	3.45264077
-0.19750273	0.17156789	3.45264149
-0.19785875	0.17438708	3.45264268
-0.19836944	0.17638998	3.45264411
-0.19863325	0.17767069	3.45264482
-0.19885206	0.17894608	3.45264554
-0.20006889	0.18061888	3.45264769
-0.20024240	0.18188876	3.45264840
-0.19957536	0.18347287	3.45264792
-0.20067179	0.18416038	3.45264959
-0.19959921	0.18708161	3.45264912
-0.19995344	0.19267136	3.45265126
-0.19944352	0.19496705	3.45265126
-0.20024848	0.19922543	3.45265365
-0.19997180	0.20182705	3.45265412
-0.20189434	0.20316939	3.45265722
-0.20034045	0.20644781	3.45265627
-0.20024371	0.20907108	3.45265675
-0.20188278	0.20996502	3.45265937
-0.20073378	0.21329172	3.45265889
-0.20122248	0.21459928	3.45265985
-0.20043427	0.21658348	3.45265937
-0.20126903	0.21751785	3.45266080
-0.20178813	0.21979980	3.45266223
-0.20224774	0.22304614	3.45266390
-0.20251155	0.22432663	3.45266461
-0.20416433	0.22563681	3.45266724
-0.20336157	0.22859032	3.45266724
-0.20402390	0.23116781	3.45266891
-0.20406288	0.23242168	3.45266938
-0.20593446	0.23500714	3.45267272
-0.20548534	0.23925212	3.45267344
-0.20453233	0.24454427	3.45267367
-0.20503718	0.24779560	3.45267558
-0.20791572	0.24967225	3.45267987
-0.20901185	0.25035945	3.45268154
-0.20721036	0.25430092	3.45268035
-0.20699328	0.25593892	3.45268059
-0.20591193	0.25858074	3.45268011
-0.20707768	0.26149675	3.45268250
-0.20721394	0.26442575	3.45268369
-0.20698225	0.26703295	3.45268416
-0.20883161	0.26892304	3.45268726
-0.20816398	0.27189270	3.45268726
-0.20957500	0.27261740	3.45268941
-0.20940506	0.27578866	3.45269012
-0.20885003	0.27807888	3.45269012
-0.20918924	0.28033954	3.45269132
-0.21018094	0.28198507	3.45269322
-0.21058726	0.28494680	3.45269465
-0.20979303	0.28817940	3.45269465
-0.20947731	0.28952736	3.45269465
-0.21017623	0.29183072	3.45269632
-0.20986909	0.29345781	3.45269632
-0.21026784	0.29475486	3.45269728
-0.21137476	0.29724914	3.45269966
-0.21017236	0.30029118	3.45269895
-0.21108276	0.30220541	3.45270085
-0.21272707	0.30323631	3.45270324
-0.21237475	0.30485800	3.45270324
-0.21250361	0.30612260	3.45270395
-0.21224123	0.30775499	3.45270395
-0.21300733	0.31075954	3.45270610
-0.21313626	0.31202418	3.45270658
-0.21165800	0.31628260	3.45270586
-0.21192926	0.31922770	3.45270729
-0.21416068	0.32185626	3.45271111
-0.21417660	0.32380009	3.45271158
-0.21432757	0.32576019	3.45271254
-0.21395248	0.32807195	3.45271277
-0.21401334	0.33002114	3.45271349
-0.21303070	0.33295313	3.45271301
-0.21384275	0.33457741	3.45271468
-0.21398526	0.33625829	3.45271540
-0.21458912	0.33841434	3.45271683
-0.21428692	0.34017819	3.45271707
-0.21553725	0.34296787	3.45271945
-0.21571887	0.34590250	3.45272064
-0.21658403	0.34781122	3.45272255
-0.21690643	0.34951368	3.45272350
-0.21741194	0.35137963	3.45272470
-0.21773583	0.35599500	3.45272660
-0.21772277	0.35987753	3.45272779
-0.21758711	0.36124682	3.45272803
-0.21832597	0.36341912	3.45272970
-0.22007716	0.36501914	3.45273256
-0.21981496	0.36665165	3.45273280
-0.22018462	0.36988688	3.45273423
-0.22094536	0.37275419	3.45273614
-0.22287649	0.37437594	3.45273924
-0.22215605	0.37567550	3.45273876
-0.22366554	0.37669045	3.45274115
-0.22261584	0.37892166	3.45274043
-0.22487229	0.38238773	3.45274448
-0.22616541	0.38365489	3.45274663
-0.22519714	0.38561773	3.45274591
-0.22564942	0.38719937	3.45274711
-0.22779077	0.38981700	3.45275092
-0.22658312	0.39272192	3.45275021
-0.22809488	0.39526451	3.45275283
-0.22827637	0.39819920	3.45275402
-0.22919506	0.40039295	3.45275593
-0.23005104	0.40340778	3.45275807
-0.23107660	0.40617096	3.45276046
-0.23222524	0.40852791	3.45276260
-0.23310506	0.40946770	3.45276427
-0.23244643	0.41133118	3.45276380
-0.23387611	0.41552782	3.45276713
-0.23507071	0.41650510	3.45276904
-0.23421526	0.41778833	3.45276833
-0.23582298	0.41909319	3.45277095
-0.23514760	0.42039803	3.45277023
-0.23425478	0.42334083	3.45276999
-0.23458570	0.42532241	3.45277119
-0.23579621	0.42824343	3.45277357
-0.23651814	0.42985702	3.45277524
-0.23635101	0.43163729	3.45277548
-0.23494583	0.43534774	3.45277476
-0.23616052	0.43702585	3.45277691
-0.23470700	0.44058865	3.45277619
-0.23466951	0.44224775	3.45277667
-0.23458135	0.44515038	3.45277739
-0.23567891	0.44875079	3.45278001
-0.23343277	0.45277542	3.45277810
-0.23358375	0.45473564	3.45277905
-0.23315662	0.45967573	3.45278001
-0.23572916	0.46179432	3.45278406
-0.23793316	0.46359038	3.45278764
-0.24115461	0.46787030	3.45279336
-0.24197638	0.47268701	3.45279598
-0.24175072	0.47404552	3.45279622
-0.24297649	0.47461191	3.45279789
-0.24526227	0.47613984	3.45280147
-0.24631590	0.47834939	3.45280361
-0.24865508	0.48016185	3.45280743
-0.24815941	0.48148808	3.45280719
-0.24757379	0.48280361	3.45280671
-0.24971628	0.48403615	3.45281005
-0.25038481	0.48536509	3.45281124
-0.24952334	0.48789695	3.45281100
-0.25107175	0.49016574	3.45281386
-0.25080341	0.49304670	3.45281434
-0.25131404	0.49504954	3.45281553
-0.25129354	0.49726731	3.45281625
-0.25257117	0.50088930	3.45281911
-0.25196266	0.50289482	3.45281887
-0.25161058	0.50451678	3.45281911
-0.25172997	0.50688738	3.45281982
-0.25173765	0.50855201	3.45282054
-0.25158131	0.51213908	3.45282125
-0.25134104	0.51446688	3.45282173
-0.25157350	0.51615834	3.45282269
-0.25107932	0.52039796	3.45282316
-0.25116330	0.52165717	3.45282388
-0.25073469	0.52368414	3.45282388
-0.24967575	0.52702177	3.45282340
-0.25155652	0.52850103	3.45282650
-0.25224626	0.53191072	3.45282841
-0.25217229	0.53384405	3.45282888
-0.25245821	0.53581995	3.45283008
-0.25237590	0.53747380	3.45283031
-0.25302988	0.53977227	3.45283198
-0.25215161	0.54174566	3.45283151
-0.25170332	0.54460508	3.45283175
-0.25258315	0.54554486	3.45283318
-0.25236583	0.54718250	3.45283341
-0.25114137	0.54952937	3.45283246
-0.25185645	0.55377674	3.45283484
-0.25287122	0.55473268	3.45283651
-0.25209039	0.55838150	3.45283651
-0.25267655	0.56136429	3.45283818
-0.25108540	0.56630194	3.45283771
-0.25240892	0.56854391	3.45284009
-0.25246137	0.57021397	3.45284081
-0.25252235	0.57216311	3.45284152
-0.25136495	0.57521051	3.45284081
-0.25256801	0.57646704	3.45284295
-0.25328982	0.57808065	3.45284438
-0.25312519	0.58138859	3.45284510
-0.25287992	0.58357948	3.45284557
-0.25307578	0.58554482	3.45284653
-0.25242978	0.58920974	3.45284677
-0.25354207	0.59184086	3.45284915
-0.25351310	0.59377950	3.45284963
-0.25436985	0.59540904	3.45285130
-0.25400931	0.59675169	3.45285130
-0.25291127	0.59883511	3.45285034
-0.25241476	0.60154688	3.45285058
-0.25345486	0.60334045	3.45285249
-0.25407833	0.60466409	3.45285368
-0.25381619	0.60629654	3.45285392
-0.25510061	0.60728437	3.45285606
-0.25391597	0.60949957	3.45285511
-0.25326258	0.61149991	3.45285487
-0.25330073	0.61413908	3.45285583
-0.25378925	0.61544663	3.45285678
-0.25278974	0.61782026	3.45285606
-0.25324190	0.61940169	3.45285726
-0.25238568	0.62207055	3.45285702
-0.25291932	0.62338352	3.45285821
-0.25221241	0.62509894	3.45285773
-0.25306088	0.62644953	3.45285916
-0.25105661	0.63105959	3.45285797
-0.25068140	0.63337129	3.45285821
-0.25112510	0.63467354	3.45285916
-0.25064212	0.63780135	3.45285964
-0.24965197	0.63906872	3.45285869
-0.24912488	0.64080584	3.45285845
-0.24840444	0.64210528	3.45285797
-0.24732953	0.64349890	3.45285678
-0.24751693	0.64518499	3.45285773
-0.24672008	0.64688987	3.45285702
-0.24524784	0.64989960	3.45285606
-0.24503571	0.65167439	3.45285630
-0.23178238	0.66848463	3.45284367
-0.23146069	0.67108083	3.45284414
-0.23003942	0.67284751	3.45284271
-0.22951901	0.67486948	3.45284271
-0.22849411	0.67640513	3.45284176
-0.22823191	0.67803758	3.45284200
-0.22760135	0.67934787	3.45284152
-0.22723752	0.68054795	3.45284152
-0.22705472	0.68191731	3.45284152
-0.22623694	0.68430680	3.45284128
-0.22572160	0.68646550	3.45284128
-0.22455996	0.68799061	3.45284009
-0.22540855	0.68934131	3.45284176
-0.22446322	0.69061399	3.45284081
-0.22228670	0.69394833	3.45283890
-0.22012550	0.69784707	3.45283723
-0.21977013	0.69932652	3.45283723
-0.21954429	0.70068508	3.45283747
-0.21272421	0.70857561	3.45283055
-0.21031094	0.71161532	3.45282841
-0.20834070	0.71442366	3.45282650
-0.20753801	0.71737719	3.45282650
-0.20643151	0.71918142	3.45282555
-0.20607078	0.72052377	3.45282531
-0.20682919	0.72186345	3.45282698
-0.20616412	0.72344220	3.45282650
-0.20501423	0.72538906	3.45282555
-0.08323151	0.84852421	3.45269990
-0.08046204	0.84874457	3.45269632
-0.07833505	0.84792274	3.45269299
-0.07632679	0.84809190	3.45269036
-0.07466614	0.84803581	3.45268822
-0.07276839	0.84876305	3.45268583
-0.07137096	0.84845436	3.45268393
-0.06953055	0.84837693	3.45268130
-0.06750536	0.84798753	3.45267844
-0.06593663	0.84793663	3.45267630
-0.06474280	0.84833908	3.45267487
-0.06302565	0.84785616	3.45267248
-0.06047761	0.84796089	3.45266891
-0.05837953	0.84811926	3.45266628
-0.05757129	0.84924889	3.45266557
-0.05608058	0.84878719	3.45266342
-0.05345404	0.84776962	3.45265937
-0.05219138	0.84747684	3.45265770
-0.05068636	0.84798431	3.45265579
-0.04762685	0.84747159	3.45265150
-0.04539371	0.84761387	3.45264864
-0.04381549	0.84866899	3.45264673
-0.04124129	0.84932137	3.45264339
-0.03955621	0.84980720	3.45264125
-0.03814256	0.85047346	3.45263958
-0.03671569	0.85056996	3.45263767
-0.03526199	0.85136759	3.45263600
-0.03383523	0.85146415	3.45263410
-0.03246295	0.85199302	3.45263243
-0.03111058	0.85168976	3.45263052
-0.02939844	0.85410869	3.45262909
-0.02795285	0.85365212	3.45262694
-0.02594405	0.85397488	3.45262432
-0.02393627	0.85399055	3.45262170
-0.02284765	0.85496789	3.45262051
-0.02046263	0.85453558	3.45261717
-0.01827359	0.85606861	3.45261455
-0.01484501	0.85661906	3.45261025
-0.01221991	0.85851455	3.45260715
-0.01093447	0.85891199	3.45260549
-0.00938404	0.85956776	3.45260382
-0.00722635	0.86069006	3.45260119
-0.00585979	0.86120242	3.45259953
-0.00445199	0.86061984	3.45259738
-0.00263393	0.86108422	3.45259500
-0.00149006	0.86178255	3.45259380
-0.00006968	0.86216384	3.45259190
0.00112015	0.86147708	3.45259023
0.00290447	0.86305827	3.45258832
0.00446826	0.86314416	3.45258617
0.00560224	0.86258304	3.45258451
0.00713968	0.86212134	3.45258212
0.00818354	0.86310393	3.45258117
0.00999737	0.86232555	3.45257854
0.01190394	0.86292690	3.45257616
0.01299834	0.86223412	3.45257425
0.01470196	0.86216724	3.45257211
0.01645410	0.86195230	3.45256948
0.01902735	0.86121935	3.45256591
0.02229816	0.86109591	3.45256138
0.02538902	0.86099380	3.45255733
0.02953887	0.86422920	3.45255256
0.03112030	0.86514211	3.45255089
0.03278583	0.86479557	3.45254850
0.03443944	0.86487091	3.45254636
0.03733593	0.86382103	3.45254207
0.03866714	0.86559844	3.45254087
0.04028243	0.86539412	3.45253849
0.04285097	0.86495143	3.45253491
0.04580688	0.86486560	3.45253086
0.04846174	0.86440122	3.45252728
0.05317813	0.86382121	3.45252061
0.05553168	0.86297834	3.45251727
0.05783272	0.86380529	3.45251441
0.06038398	0.86376745	3.45251083
0.06264597	0.86584842	3.45250845
0.06397039	0.86499178	3.45250654
0.06571156	0.86658406	3.45250463
0.06974649	0.86345088	3.45249820
0.07113034	0.86355805	3.45249629
0.07273996	0.86502409	3.45249462
0.07444644	0.86634791	3.45249271
0.07606679	0.86600703	3.45249033
0.07742244	0.86556131	3.45248842
0.07897359	0.86468345	3.45248604
0.08005625	0.86549050	3.45248485
0.08241075	0.86495453	3.45248151
0.08391058	0.86559886	3.45247984
0.08553290	0.86526346	3.45247746
0.08697027	0.86508608	3.45247555
0.08859253	0.86475050	3.45247316
0.08981919	0.86556971	3.45247173
0.09302968	0.86309671	3.45246673
0.09473342	0.86579478	3.45246530
0.09648877	0.86543769	3.45246267
0.09858364	0.86573863	3.45246005
0.09943825	0.86671489	3.45245910
0.10102284	0.86640698	3.45245695
0.10256171	0.86579752	3.45245457
0.10483384	0.86468565	3.45245123
0.10809016	0.86359298	3.45244646
0.10922617	0.86303723	3.45244479
0.11017495	0.86416745	3.45244384
0.11278450	0.86370862	3.45244026
0.11395800	0.86481196	3.45243883
0.11513716	0.86424518	3.45243716
0.11697924	0.86401969	3.45243454
0.11807805	0.86472344	3.45243335
0.11939031	0.86413509	3.45243144
0.12216228	0.86282754	3.45242715
0.12435025	0.86297536	3.45242429
0.12600720	0.86567330	3.45242286
0.12746722	0.86510783	3.45242071
0.12921369	0.86487633	3.45241833
0.13065803	0.86456776	3.45241642
0.13368624	0.86364418	3.45241189
0.13590473	0.86281741	3.45240879
0.13730294	0.86389410	3.45240712
0.13884008	0.86327904	3.45240498
0.14084828	0.86344820	3.45240211
0.14286357	0.86348599	3.45239949
0.14716607	0.86184806	3.45239329
0.14852488	0.86294675	3.45239162
0.15017992	0.86287427	3.45238948
0.15437227	0.86194789	3.45238352
0.15661371	0.86181116	3.45238042
0.15807867	0.86203337	3.45237851
0.15998620	0.86125529	3.45237565
0.16128200	0.86137885	3.45237398
0.16369814	0.86135745	3.45237064
0.16509563	0.86104864	3.45236874
0.16669059	0.86154550	3.45236683
0.16845632	0.86091453	3.45236421
0.16969490	0.86131167	3.45236254
0.17347401	0.86071301	3.45235729
0.17500120	0.86052513	3.45235515
0.17645282	0.86131716	3.45235348
0.18062872	0.85941631	3.45234728
0.18483126	0.86098146	3.45234203
0.18913704	0.85920125	3.45233583
0.19462019	0.85700250	3.45232773
0.19599658	0.85877442	3.45232630
0.19965833	0.85901886	3.45232153
0.20284003	0.86029148	3.45231748
0.20402795	0.86236423	3.45231652
0.20484680	0.86337388	3.45231581
0.20611209	0.86447215	3.45231438
0.20777744	0.86412573	3.45231223
0.21048838	0.86476755	3.45230865
0.21254265	0.86631662	3.45230627
0.21440232	0.86691803	3.45230412
0.21738571	0.86599970	3.45229983
0.21892709	0.86678112	3.45229793
0.22028810	0.86619866	3.45229602
0.22276384	0.86714077	3.45229292
0.22534329	0.86765635	3.45228958
0.22771126	0.86778259	3.45228648
0.22962099	0.86824197	3.45228386
0.23189902	0.86837882	3.45228100
0.23324728	0.86959755	3.45227957
0.23605746	0.87133491	3.45227623
0.23925084	0.87218595	3.45227218
0.24097329	0.87433124	3.45227051
0.24318939	0.87503207	3.45226789
0.24480772	0.87621850	3.45226598
0.24688286	0.87568700	3.45226312
0.24886572	0.87669402	3.45226073
0.25082892	0.87686849	3.45225811
0.25338531	0.87669408	3.45225453
0.25492710	0.87747538	3.45225263
0.25610882	0.87829959	3.45225143
0.25749034	0.87993491	3.45225000
0.26051432	0.88053346	3.45224619
0.26256597	0.88361049	3.45224428
0.27034879	0.88515162	3.45223427
0.27415347	0.88939917	3.45223045
0.27713847	0.89125174	3.45222712
0.28090727	0.89661092	3.45222378
0.28380167	0.89708871	3.45221996
0.28779364	0.89965022	3.45221543
0.28985369	0.90244794	3.45221353
0.29177046	0.90554106	3.45221186
0.29412353	0.90899646	3.45220971
0.29749888	0.91551542	3.45220733
0.30481166	0.93347776	3.45220304
0.30676997	0.95237416	3.45220637
0.30576998	0.95429921	3.45220828
0.30621141	0.96020889	3.45220947
0.30550390	0.96279156	3.45221138
0.30414838	0.96892130	3.45221496
0.30133671	0.97009718	3.45221925
0.30124539	0.97302103	3.45222020
0.29988456	0.97360355	3.45222235
0.29985237	0.97749150	3.45222354
0.29951328	0.97975212	3.45222473
0.29810590	0.98325324	3.45222759
0.29690135	0.98742294	3.45223069
0.29476500	0.98990381	3.45223427
0.29173297	0.99526834	3.45223999
0.28872442	0.99702418	3.45224476
0.28573298	0.99822152	3.45224905
0.28433287	1.00005817	3.45225143
0.28314209	1.00381160	3.45225430
0.28303611	1.00576627	3.45225501
0.27886802	1.01168668	3.45226264
0.27765650	1.01322222	3.45226479
0.27102262	1.01500785	3.45227408
0.26687211	1.01607084	3.45228004
0.26480281	1.01785111	3.45228338
0.26147723	1.02117217	3.45228910
0.25870180	1.02262223	3.45229316
0.25553566	1.02370393	3.45229793
0.24588895	1.02308369	3.45231056
0.24328399	1.02340615	3.45231438
0.24041045	1.02514589	3.45231867
0.23616910	1.02483439	3.45232439
0.23237222	1.02460623	3.45232940
0.23044640	1.02609086	3.45233250
0.22680986	1.02777398	3.45233798
0.21767503	1.03237367	3.45235157
0.21537405	1.03154659	3.45235443
0.20701981	1.02950549	3.45236516
0.20501715	1.02935302	3.45236778
0.20158690	1.03171575	3.45237303
0.19884968	1.03329158	3.45237732
0.19720459	1.03293693	3.45237947
0.19550353	1.03439474	3.45238209
0.19313991	1.03566539	3.45238566
0.19185603	1.03511989	3.45238733
0.19067496	1.03568113	3.45238900
0.18756968	1.03481388	3.45239305
0.18498886	1.03721142	3.45239735
0.17821527	1.04206848	3.45240784
0.17652267	1.04324722	3.45241070
0.17051715	1.04065347	3.45241785
0.16792881	1.04195058	3.45242167
0.16561848	1.04278266	3.45242524
0.16417289	1.04323912	3.45242715
0.16182435	1.04394531	3.45243073
0.15991622	1.04625702	3.45243382
0.15780210	1.04804242	3.45243740
0.15561658	1.04928577	3.45244074
0.15084344	1.05305791	3.45244837
0.14682078	1.05147099	3.45245314
0.14422745	1.05290484	3.45245719
0.14159799	1.05253160	3.45246053
0.13937330	1.05210996	3.45246339
0.13667166	1.05257440	3.45246720
0.13535684	1.05177164	3.45246887
0.13317978	1.05273569	3.45247197
0.13157159	1.05388689	3.45247459
0.12878239	1.05452096	3.45247865
0.12696242	1.05405128	3.45248079
0.12533993	1.05423307	3.45248318
0.12411600	1.05495894	3.45248508
0.12200660	1.05368876	3.45248747
0.12125331	1.05489159	3.45248890
0.11935848	1.05386841	3.45249104
0.11750144	1.05465794	3.45249391
0.11599928	1.05385447	3.45249557
0.11439431	1.05378509	3.45249772
0.11036605	1.05386841	3.45250320
0.10918498	1.05442977	3.45250487
0.10637838	1.05546880	3.45250916
0.10448825	1.05584192	3.45251179
0.10232288	1.05914950	3.45251560
0.09663910	1.05638719	3.45252252
0.09382659	1.05617738	3.45252633
0.09259737	1.05688632	3.45252800
0.09134322	1.05689991	3.45252991
0.08926469	1.05757380	3.45253277
0.08481389	1.05964375	3.45253944
0.08310080	1.05860472	3.45254135
0.08146673	1.05936182	3.45254397
0.07803297	1.05894828	3.45254850
0.07679003	1.06007338	3.45255041
0.07537824	1.05941260	3.45255208
0.07439685	1.06078458	3.45255399
0.07285607	1.06138885	3.45255613
0.07102853	1.06258368	3.45255899
0.06885719	1.06187749	3.45256162
0.06484509	1.06570077	3.45256829
0.06285983	1.06622159	3.45257115
0.05980545	1.06659758	3.45257545
0.05725271	1.06954837	3.45257974
0.05391645	1.06745946	3.45258355
0.05241227	1.06833732	3.45258594
0.04866391	1.07088006	3.45259190
0.04410958	1.07337701	3.45259881
0.04272157	1.07202661	3.45260024
0.03436553	1.07735074	3.45261312
0.02989143	1.07581174	3.45261860
0.02725637	1.07710862	3.45262265
0.02518094	1.07764053	3.45262551
0.02297175	1.07680833	3.45262837
0.02168447	1.07640517	3.45262980
0.01936084	1.07780707	3.45263338
0.01681864	1.07603204	3.45263648
0.01517946	1.07692611	3.45263886
0.01034266	1.07849145	3.45264578
0.00567096	1.07906616	3.45265245
0.00329465	1.07921910	3.45265555
-0.00033653	1.08091879	3.45266104
-0.00284117	1.08080292	3.45266438
-0.00556457	1.08211637	3.45266843
-0.00828898	1.08189058	3.45267200
-0.01102263	1.08347750	3.45267630
-0.15218544	1.18291044	3.45289803
-0.15255255	1.18461776	3.45289898
-0.15268135	1.18588221	3.45289969
-0.15382504	1.18810272	3.45290184
-0.15571111	1.18971908	3.45290494
-0.15499592	1.19115555	3.45290446
-0.15611136	1.19392920	3.45290685
-0.15570062	1.19512939	3.45290661
-0.15559536	1.19747329	3.45290709
-0.15705973	1.19848275	3.45290947
-0.15723866	1.19988954	3.45291018
-0.15617543	1.20170462	3.45290923
-0.15702289	1.20444047	3.45291138
-0.15726370	1.20641112	3.45291233
-0.15855354	1.20753610	3.45291424
-0.15768689	1.20993114	3.45291400
-0.15709543	1.21249557	3.45291400
-0.15774941	1.21479344	3.45291543
-0.15731573	1.21668386	3.45291543
-0.15760159	1.21865988	3.45291662
-0.15775245	1.22061992	3.45291734
-0.15893251	1.22256637	3.45291948
-0.15839201	1.22388744	3.45291924
-0.15906292	1.22674429	3.45292115
-0.16022611	1.22813225	3.45292306
-0.16146821	1.23064256	3.45292544
-0.16179067	1.23234487	3.45292640
-0.16214758	1.23377883	3.45292735
-0.16232151	1.23504877	3.45292807
-0.16375774	1.23661125	3.45293045
-0.16434658	1.23820317	3.45293188
-0.16450417	1.24044812	3.45293260
-0.16554606	1.24223602	3.45293474
-0.16574204	1.24420154	3.45293546
-0.16620767	1.24619901	3.45293689
-0.16696441	1.24754429	3.45293832
-0.16731805	1.24883580	3.45293903
-0.16735697	1.25008965	3.45293951
-0.16757768	1.25135946	3.45294023
-0.16847098	1.25271523	3.45294189
-0.16770053	1.25387251	3.45294118
-0.16773951	1.25512636	3.45294166
-0.16826797	1.25630260	3.45294285
-0.16840190	1.25770402	3.45294333
-0.16902542	1.25902760	3.45294452
-0.16946316	1.26157832	3.45294595
-0.16992879	1.26357579	3.45294738
-0.17054123	1.26601100	3.45294881
-0.17217100	1.26801133	3.45295167
-0.17283964	1.26934028	3.45295310
-0.17301351	1.27061033	3.45295358
-0.17411208	1.27282548	3.45295572
-0.17491359	1.27417588	3.45295739
-0.17549735	1.27563107	3.45295858
-0.17558646	1.27702713	3.45295906
-0.17641932	1.27796698	3.45296049
-0.17655349	1.27936864	3.45296121
-0.17726886	1.28069735	3.45296264
-0.17820019	1.28192735	3.45296431
-0.17914033	1.28328288	3.45296597
-0.17832160	1.28429246	3.45296502
-0.17931664	1.28608072	3.45296693
-0.18008161	1.28770518	3.45296860
-0.17999250	1.28907406	3.45296884
-0.18062472	1.29067719	3.45297027
-0.18225932	1.29296780	3.45297313
-0.18292636	1.29414868	3.45297432
-0.18386942	1.29580021	3.45297623
-0.18462807	1.29714012	3.45297766
-0.18516684	1.29858983	3.45297885
-0.18620163	1.30024636	3.45298076
-0.18683875	1.30198622	3.45298219
-0.18788397	1.30391657	3.45298409
-0.18807465	1.30574501	3.45298505
-0.18874323	1.30707419	3.45298624
-0.19003016	1.30958986	3.45298886
-0.19169474	1.31132174	3.45299172
-0.19223678	1.31291389	3.45299292
-0.19350678	1.31487107	3.45299530
-0.19389957	1.31741655	3.45299649
-0.19617057	1.31991351	3.45300031
-0.19563854	1.32151365	3.45300007
-0.19650382	1.32342267	3.45300198
-0.19821858	1.32529676	3.45300484
-0.20185292	1.32990420	3.45301127
-0.20403332	1.33377564	3.45301533
-0.20514041	1.33627009	3.45301771
-0.20793080	1.34104919	3.45302296
-0.20700741	1.34301710	3.45302224
-0.20787275	1.34492624	3.45302415
-0.20873809	1.34683526	3.45302582
-0.20973825	1.34876013	3.45302773
-0.21303779	1.35262907	3.45303345
-0.21348149	1.35393131	3.45303440
-0.21254462	1.35548317	3.45303369
-0.21305007	1.35734916	3.45303488
-0.21399081	1.36023819	3.45303702
-0.21478921	1.36144650	3.45303845
-0.21542114	1.36304927	3.45303988
-0.21754214	1.36788487	3.45304418
-0.21939415	1.37130296	3.45304775
-0.21967980	1.37327886	3.45304894
-0.22094154	1.37495708	3.45305109
-0.22044075	1.37614644	3.45305085
-0.22149947	1.37849283	3.45305300
-0.22077921	1.37979245	3.45305252
-0.22115502	1.38177931	3.45305347
-0.22144911	1.38403451	3.45305467
-0.22265971	1.38695574	3.45305729
-0.22217268	1.38856149	3.45305705
-0.22273684	1.39084899	3.45305848
-0.22335425	1.39342105	3.45306015
-0.22467771	1.39566290	3.45306253
-0.22675699	1.40063560	3.45306706
-0.22948021	1.40471387	3.45307207
-0.23090214	1.40724587	3.45307469
-0.23171407	1.40887010	3.45307636
-0.23214325	1.41114163	3.45307755
-0.23285058	1.41372442	3.45307946
-0.23371598	1.41563344	3.45308113
-0.23395920	1.41913176	3.45308256
-0.23423815	1.42374194	3.45308447
-0.23443401	1.42570722	3.45308518
-0.23514158	1.42829013	3.45308709
-0.23534581	1.43053472	3.45308805
-0.23573002	1.43280077	3.45308924
-0.23741570	1.43661332	3.45309281
-0.23846099	1.43854392	3.45309472
-0.23973328	1.44202876	3.45309758
-0.24044847	1.44627643	3.45309973
-0.24057728	1.44754100	3.45310044
-0.24144268	1.44945014	3.45310211
-0.24215001	1.45203280	3.45310402
-0.24315184	1.45687115	3.45310688
-0.24415213	1.45879626	3.45310879
-0.24528718	1.46073723	3.45311093
-0.24628747	1.46266258	3.45311284
-0.24633482	1.46419561	3.45311332
-0.24664363	1.46548176	3.45311427
-0.24887726	1.46963775	3.45311856
-0.24956271	1.47152531	3.45311999
-0.25156328	1.47537553	3.45312405
-0.25285012	1.47789121	3.45312643
-0.25348219	1.47949421	3.45312786
-0.25492606	1.48272133	3.45313072
-0.25888613	1.48917329	3.45313811
-0.26165438	1.49325693	3.45314312
-0.26261154	1.49517119	3.45314503
-0.26475349	1.49932230	3.45314932
-0.27009651	1.50705206	3.45315886
-0.27417976	1.51309836	3.45316625
-0.27769300	1.51810575	3.45317268
-0.27769530	1.51963353	3.45317316
-0.27929720	1.52218699	3.45317602
-0.34804630	1.61979675	3.45329952
-0.34857401	1.62235832	3.45330095
-0.34871873	1.62556684	3.45330215
-0.35015434	1.62851489	3.45330501
-0.35036701	1.63103867	3.45330620
-0.35083270	1.63303626	3.45330739
-0.35014275	1.63531041	3.45330715
-0.35032430	1.63824511	3.45330834
-0.35131598	1.63989079	3.45331025
-0.35091883	1.64150727	3.45331025
-0.35179180	1.64508092	3.45331264
-0.35189775	1.64703560	3.45331335
-0.35180083	1.64965856	3.45331407
-0.35142574	1.65197062	3.45331430
-0.35114035	1.65429270	3.45331454
-0.35138890	1.65792823	3.45331597
-0.35273442	1.66086543	3.45331883
-0.35076511	1.66228855	3.45331645
-0.34765363	1.66440415	3.45331311
-0.34647328	1.66814148	3.45331264
-0.34446657	1.67122388	3.45331097
-0.34507227	1.67337430	3.45331240
-0.34454864	1.67525399	3.45331216
-0.34330648	1.67842746	3.45331144
-0.34203780	1.67938316	3.45331025
-0.34034681	1.68111777	3.45330834
-0.33902398	1.68317449	3.45330739
-0.33950943	1.68433964	3.45330834
-0.33915707	1.68596137	3.45330834
-0.33832383	1.68794024	3.45330787
-0.33665475	1.69037008	3.45330644
-0.33575115	1.69150567	3.45330548
-0.33641639	1.69269228	3.45330667
-0.33505610	1.69364321	3.45330524
-0.33324042	1.69563520	3.45330334
-0.33256492	1.69693995	3.45330286
-0.33216783	1.69855642	3.45330286
-0.33118787	1.70009744	3.45330191
-0.33055222	1.70127082	3.45330143
-0.32938716	1.70265353	3.45330048
-0.32739493	1.70476675	3.45329833
-0.32677713	1.70787835	3.45329857
-0.32476297	1.70929623	3.45329618
-0.32377774	1.71070015	3.45329547
-0.32132727	1.71248031	3.45329261
-0.31903386	1.71497214	3.45329022
-0.31768808	1.71771872	3.45328927
-0.31686836	1.72011352	3.45328903
-0.31376454	1.72389412	3.45328593
-0.31305689	1.72699511	3.45328593
-0.31200466	1.72769856	3.45328474
-0.31056988	1.72904921	3.45328331
-0.31077927	1.73143065	3.45328426
-0.30961445	1.73281348	3.45328307
-0.30624673	1.73531306	3.45327950
-0.30476603	1.73804367	3.45327830
-0.30276719	1.73987186	3.45327616
-0.30203554	1.74228299	3.45327592
-0.29940200	1.74389946	3.45327282
-0.29571623	1.74621904	3.45326877
-0.29470298	1.74817646	3.45326781
-0.29379949	1.74931216	3.45326710
-0.29213643	1.75049341	3.45326519
-0.29081354	1.75255024	3.45326400
-0.29057342	1.75487816	3.45326447
-0.28956962	1.75572920	3.45326328
-0.28853106	1.75684893	3.45326233
-0.28786075	1.75829065	3.45326185
-0.28482479	1.76138639	3.45325875
-0.28326860	1.76313686	3.45325708
-0.27884898	1.76634026	3.45325232
-0.27487805	1.77098238	3.45324826
-0.27366796	1.77235985	3.45324707
-0.27271935	1.77348995	3.45324612
-0.26740447	1.77810812	3.45324039
-0.26797983	1.77928424	3.45324159
-0.26592374	1.78083885	3.45323944
-0.26462895	1.78234208	3.45323801
-0.26386872	1.78377318	3.45323753
-0.26344869	1.78607965	3.45323753
-0.26175940	1.78780854	3.45323586
-0.26119417	1.78982532	3.45323586
-0.26115525	1.79133630	3.45323610
-0.25953534	1.79252851	3.45323443
-0.25904676	1.79398620	3.45323420
-0.25795302	1.79482687	3.45323300
-0.25699934	1.79582024	3.45323205
-0.25633886	1.79768932	3.45323157
-0.25494093	1.79861236	3.45323014
-0.25389215	1.79945838	3.45322895
-0.24952728	1.80309415	3.45322418
-0.24908179	1.80456257	3.45322394
-0.24733731	1.80601251	3.45322227
-0.24585754	1.80735791	3.45322061
-0.24509740	1.80878890	3.45321989
-0.24357253	1.81012869	3.45321846
-0.24185008	1.81227398	3.45321679
-0.24070716	1.81435192	3.45321584
-0.23913655	1.81707191	3.45321465
-0.23661819	1.81953657	3.45321202
-0.23345247	1.82275331	3.45320868
-0.23357198	1.82512379	3.45320964
-0.23169252	1.82655752	3.45320749
-0.23010001	1.82858229	3.45320606
-0.22953308	1.83045053	3.45320582
-0.22894245	1.83162951	3.45320535
-0.22753581	1.83242702	3.45320368
-0.22613424	1.83336127	3.45320225
-0.22505832	1.83614004	3.45320153
-0.22417489	1.83797681	3.45320106
-0.22185606	1.83963048	3.45319843
-0.22267973	1.84167659	3.45320010
-0.22111502	1.84314775	3.45319843
-0.21997821	1.84397745	3.45319724
-0.21898454	1.84510231	3.45319629
-0.21791807	1.84677529	3.45319533
-0.21661484	1.84799945	3.45319390
-0.21624899	1.84920502	3.45319366
-0.21567714	1.85093677	3.45319366
-0.21504655	1.85224700	3.45319319
-0.21272588	1.85390639	3.45319057
-0.21245527	1.85525966	3.45319057
-0.20974857	1.85742354	3.45318770
-0.20881593	1.86049783	3.45318723
-0.20675573	1.86329544	3.45318532
-0.20481700	1.86569321	3.45318365
-0.20550746	1.86771750	3.45318508
-0.20191512	1.87019050	3.45318103
-0.19952473	1.87530541	3.45317936
-0.20008796	1.87897813	3.45318127
-0.19910467	1.88037682	3.45318055
-0.19791579	1.88106966	3.45317912
-0.19751099	1.88378656	3.45317936
-0.19778675	1.88548911	3.45318031
-0.19662684	1.88700867	3.45317912
-0.19475916	1.88886416	3.45317721
-0.19517136	1.89057684	3.45317841
-0.19414654	1.89211261	3.45317745
-0.19242832	1.89301503	3.45317531
-0.19222975	1.89520574	3.45317578
-0.19285843	1.89666605	3.45317721
-0.19135991	1.89745843	3.45317531
-0.18744412	1.89961457	3.45317078
-0.18681356	1.90092480	3.45317030
-0.18518957	1.90335989	3.45316887
-0.18466178	1.90648258	3.45316911
-0.18538377	1.90809619	3.45317054
-0.18348154	1.91022003	3.45316863
-0.18311334	1.91266298	3.45316911
-0.18224773	1.91367269	3.45316815
-0.18017486	1.91466892	3.45316577
-0.17855078	1.91710413	3.45316434
-0.17848188	1.91917396	3.45316482
-0.17716002	1.91984534	3.45316315
-0.17443120	1.92131400	3.45316005
-0.17301854	1.92335999	3.45315886
-0.17214224	1.92532802	3.45315814
-0.17029411	1.92635095	3.45315599
-0.16970855	1.92766643	3.45315576
-0.16750506	1.93016899	3.45315337
-0.16829067	1.93234086	3.45315528
-0.16658089	1.93352234	3.45315337
-0.16658521	1.93504477	3.45315385
-0.16536155	1.93600607	3.45315242
-0.16518593	1.93750668	3.45315266
-0.16373247	1.93830431	3.45315099
-0.16171819	1.93972206	3.45314860
-0.16049966	1.94081998	3.45314741
-0.15756813	1.94295716	3.45314407
-0.15748477	1.94599640	3.45314479
-0.15505749	1.94708681	3.45314193
-0.15517691	1.94945741	3.45314288
-0.15322956	1.95157576	3.45314097
-0.15264422	1.95289147	3.45314050
-0.15191433	1.95529711	3.45314026
-0.15081629	1.95738041	3.45313954
-0.14892337	1.95839822	3.45313716
-0.14456221	1.96202302	3.45313239
-0.14426866	1.96406627	3.45313263
-0.14234424	1.96549463	3.45313048
-0.14298141	1.96723425	3.45313191
-0.14174938	1.96791661	3.45313048
-0.13977996	1.96933937	3.45312834
-0.13838172	1.97041595	3.45312691
-0.13890594	1.97283483	3.45312834
-0.13600582	1.97456169	3.45312500
-0.13622987	1.97597384	3.45312572
-0.13416976	1.97877169	3.45312381
-0.13266683	1.98080647	3.45312238
-0.13100722	1.98213017	3.45312047
-0.12922534	1.98523939	3.45311904
-0.12828529	1.98664904	3.45311832
-0.12859315	1.98932064	3.45311952
-0.12722629	1.98998654	3.45311785
-0.12731531	1.99138272	3.45311856
-0.12734157	1.99360013	3.45311928
-0.12598819	1.99468219	3.45311761
-0.12525928	1.99570262	3.45311713
-0.12449729	1.99713910	3.45311642
-0.12335515	1.99783206	3.45311522
-0.12252367	1.99980497	3.45311475
-0.12237355	2.00214386	3.45311522
-0.12116677	2.00366330	3.45311403
-0.12005186	2.00518847	3.45311308
-0.12045568	2.00662208	3.45311403
-0.11964020	2.00777411	3.45311332
-0.11765409	2.00863862	3.45311093
-0.11624959	2.01096368	3.45310974
-0.11441517	2.01240301	3.45310760
-0.11279210	2.01345277	3.45310569
-0.11207497	2.01765990	3.45310616
-0.10910791	2.01868558	3.45310235
-0.10831115	2.02039051	3.45310187
-0.10753638	2.02279091	3.45310163
-0.10683477	2.02464342	3.45310116
-0.10681930	2.02699780	3.45310187
-0.10434684	2.02808261	3.45309901
-0.10400820	2.03012061	3.45309925
-0.10320628	2.03168869	3.45309854
-0.10073906	2.03291035	3.45309567
-0.10070160	2.03456974	3.45309615
-0.09952810	2.03567314	3.45309496
-0.09949923	2.03761172	3.45309544
-0.09835711	2.03830457	3.45309424
-0.09723705	2.03969240	3.45309305
-0.09646314	2.04070735	3.45309234
-0.09267238	2.04245234	3.45308781
-0.09178576	2.04414654	3.45308709
-0.08573350	2.04674053	3.45307970
-0.07948473	2.04860091	3.45307183
-0.08103526	2.05531621	3.45307612
-0.08023846	2.05702114	3.45307565
-0.08127668	2.06158543	3.45307851
-0.08087015	2.06430769	3.45307875
-0.08059949	2.06566119	3.45307875
-0.07972121	2.06763458	3.45307827
-0.07853332	2.06970716	3.45307732
-0.07800630	2.07144427	3.45307708
-0.07677436	2.07212639	3.45307565
-0.07696170	2.07381225	3.45307636
-0.07603011	2.07550120	3.45307565
-0.07519674	2.07748008	3.45307517
-0.07439667	2.07904267	3.45307469
-0.07395452	2.08065367	3.45307446
-0.07271919	2.08119321	3.45307302
-0.07118931	2.08239627	3.45307136
-0.07054624	2.08467031	3.45307112
-0.06926405	2.08520985	3.45306969
-0.06944814	2.08675361	3.45307040
-0.06769347	2.08792996	3.45306826
-0.06623319	2.08844256	3.45306659
-0.06660065	2.09015012	3.45306754
-0.06475249	2.09117293	3.45306540
-0.06381482	2.09411049	3.45306516
-0.06219083	2.09654593	3.45306373
-0.06094098	2.09805465	3.45306230
-0.06067032	2.09940815	3.45306253
-0.05930337	2.10007381	3.45306087
-0.05753607	2.10221362	3.45305920
-0.05766392	2.10486364	3.45306015
-0.05668256	2.10625672	3.45305920
-0.05619359	2.10786796	3.45305920
-0.05542666	2.10901403	3.45305848
-0.05465606	2.11017132	3.45305777
-0.05261981	2.11089373	3.45305514
-0.05135658	2.11198664	3.45305395
-0.05158693	2.11368370	3.45305467
-0.04768765	2.11486483	3.45304990
-0.04649460	2.11680079	3.45304871
-0.04599556	2.11798453	3.45304847
-0.04440206	2.11862922	3.45304656
-0.04308525	2.11943746	3.45304513
-0.04344919	2.12100267	3.45304608
-0.04186070	2.12178421	3.45304418
-0.03975493	2.12304306	3.45304179
-0.03851384	2.12483120	3.45304060
-0.03888813	2.12667012	3.45304155
-0.03760415	2.12721562	3.45304012
-0.03398949	2.12899280	3.45303583
-0.03246999	2.13046980	3.45303416
-0.03059065	2.13190317	3.45303202
-0.02864414	2.13263631	3.45302963
-0.02732730	2.13344455	3.45302820
-0.02579409	2.13450527	3.45302653
-0.02503383	2.13593626	3.45302582
-0.02518666	2.13789082	3.45302677
-0.02399760	2.13858342	3.45302534
-0.02300423	2.13970852	3.45302439
-0.02235073	2.14170885	3.45302415
-0.02259541	2.14366817	3.45302510
-0.02095151	2.14417076	3.45302296
-0.02004278	2.14516973	3.45302200
-0.01875925	2.14556146	3.45302033
-0.01798344	2.14658189	3.45301962
-0.01635379	2.14734674	3.45301771
-0.01576823	2.14866281	3.45301747
-0.01459813	2.14990830	3.45301628
-0.01303029	2.15123749	3.45301437
-0.01153690	2.15216637	3.45301270
-0.00880307	2.15349841	3.45300937
-0.00809300	2.15507174	3.45300913
-0.00654608	2.15571618	3.45300722
-0.00568223	2.15672016	3.45300627
-0.00408727	2.15721679	3.45300436
-0.00404131	2.15859699	3.45300460
-0.00258452	2.15925193	3.45300293
-0.00181574	2.16040397	3.45300221
-0.00069922	2.16193438	3.45300126
0.00062621	2.16246319	3.45299959
0.00121689	2.16364193	3.45299911
0.00252539	2.16472960	3.45299768
0.00392962	2.16705441	3.45299649
0.00476617	2.16889119	3.45299602
0.00629091	2.17023087	3.45299435
0.00655651	2.17172098	3.45299459
0.00779366	2.17226624	3.45299292
0.00842750	2.17343378	3.45299244
0.01065820	2.17510414	3.45299006
0.01117229	2.17864275	3.45299053
0.01271075	2.17956638	3.45298862
0.01258427	2.18206859	3.45298958
0.01630408	2.18342471	3.45298505
0.01605105	2.18566370	3.45298600
0.01756001	2.18618202	3.45298409
0.01790524	2.18793511	3.45298433
0.01953995	2.18856335	3.45298219
0.02003229	2.19003224	3.45298195
0.02098942	2.19088316	3.45298100
0.02171826	2.19190359	3.45298028
0.02285510	2.19273305	3.45297909
0.02444041	2.19365692	3.45297718
0.02416623	2.19521141	3.45297813
0.02488488	2.19650555	3.45297766
0.02625865	2.19704008	3.45297575
0.02899587	2.19822955	3.45297265
0.02860653	2.20063233	3.45297384
0.03046292	2.20137596	3.45297146
0.03039175	2.20359921	3.45297241
0.03083730	2.20506763	3.45297217
0.03203452	2.20548129	3.45297074
0.03346926	2.20683193	3.45296931
0.03504753	2.20788717	3.45296741
0.03778470	2.20907664	3.45296407
0.03769559	2.21047258	3.45296454
0.03929585	2.21083236	3.45296264
0.03909993	2.21279788	3.45296359
0.04181504	2.21468258	3.45296049
0.04394227	2.21677971	3.45295811
0.04595751	2.21958232	3.45295644
0.04782921	2.22268105	3.45295477
0.04960430	2.22315621	3.45295262
0.05041641	2.22721577	3.45295262
0.05192673	2.22758627	3.45295072
0.05352861	2.23071694	3.45294952
0.05520606	2.23286772	3.45294809
0.05655199	2.23561430	3.45294714
0.05797839	2.23724413	3.45294571
0.05951995	2.23802543	3.45294380
0.06005526	2.23948336	3.45294356
0.06105399	2.24047112	3.45294261
0.06214601	2.24130630	3.45294142
0.06333399	2.24337864	3.45294046
0.06409085	2.24495268	3.45293975
0.06568688	2.24683452	3.45293832
0.06599402	2.24846172	3.45293832
0.06721091	2.25247312	3.45293808
0.06816882	2.25470948	3.45293736
0.06936097	2.25525999	3.45293593
0.07032704	2.25706363	3.45293522
0.07164985	2.25912023	3.45293403
0.07165635	2.26052237	3.45293450
0.07294506	2.26077747	3.45293283
0.07382798	2.26246047	3.45293212
0.07504648	2.26355839	3.45293093
0.07598695	2.26512170	3.45293021
0.07739049	2.26606131	3.45292854
0.07855549	2.26744413	3.45292735
0.07941398	2.26858521	3.45292664
0.07954991	2.26995420	3.45292687
0.08057487	2.27149010	3.45292592
0.08215809	2.27240896	3.45292401
0.08282834	2.27385044	3.45292377
0.08386374	2.27511239	3.45292258
0.08474854	2.27680111	3.45292211
0.08634025	2.27744007	3.45291996
0.08720404	2.27844453	3.45291924
0.08843705	2.28051162	3.45291829
0.09042323	2.28137612	3.45291567
0.09104019	2.28310251	3.45291543
0.09249705	2.28375745	3.45291376
0.09377992	2.28568292	3.45291257
0.09475988	2.28722405	3.45291185
0.09597832	2.28832221	3.45291042
0.09684044	2.28932071	3.45290971
0.09866816	2.29104471	3.45290780
0.10001647	2.29226351	3.45290637
0.10066980	2.29426384	3.45290589
0.10213649	2.29449177	3.45290399
0.10280359	2.29607582	3.45290375
0.10448715	2.29670978	3.45290160
0.10566050	2.29781342	3.45290041
0.10624093	2.29926586	3.45290017
0.10819066	2.29985642	3.45289755
0.11129931	2.30058122	3.45289373
0.11192402	2.30356193	3.45289373
0.11316597	2.30381680	3.45289207
0.11481118	2.30417109	3.45288992
0.11627132	2.30468392	3.45288825
0.11667705	2.30602074	3.45288801
0.11912137	2.30655265	3.45288491
0.11942345	2.30831647	3.45288515
0.11998677	2.31032777	3.45288491
0.12155154	2.31179881	3.45288324
0.12216353	2.31658077	3.45288396
0.12277532	2.31844401	3.45288372
0.12368089	2.31958508	3.45288301
0.12510103	2.31996679	3.45288110
0.12577662	2.32127142	3.45288062
0.12752950	2.32244205	3.45287871
0.12799472	2.32474303	3.45287871
0.12906957	2.32613683	3.45287776
0.13083607	2.32689071	3.45287561
0.13108993	2.32880259	3.45287585
0.13146830	2.33097219	3.45287609
0.13372961	2.33166742	3.45287323
0.13435152	2.33325720	3.45287275
0.13572186	2.33378053	3.45287108
0.13816625	2.33431220	3.45286798
0.13899946	2.33629131	3.45286751
0.13975132	2.33800125	3.45286703
0.14120066	2.34032106	3.45286584
0.14274225	2.34110260	3.45286393
0.14286131	2.34302998	3.45286441
0.14408809	2.34384918	3.45286298
0.14693812	2.34571791	3.45285964
0.14868271	2.34716749	3.45285773
0.14975858	2.34994650	3.45285726
0.15018702	2.35197353	3.45285726
0.15169728	2.35234427	3.45285535
0.15301937	2.35301542	3.45285392
0.15377200	2.35611129	3.45285368
0.15475720	2.35751534	3.45285296
0.15642530	2.35855985	3.45285106
0.15714052	2.35999632	3.45285034
0.15841705	2.36051917	3.45284891
0.15965849	2.36230755	3.45284772
0.16096213	2.36368489	3.45284653
0.16237879	2.36405563	3.45284462
0.16393861	2.36581731	3.45284319
0.16705745	2.36626863	3.45283914
0.16959268	2.36817479	3.45283628
0.16942811	2.37055063	3.45283723
0.17275852	2.37139106	3.45283294
0.17357302	2.37392306	3.45283270
0.17476851	2.37433100	3.45283127
0.17602098	2.37723064	3.45283031
0.17660797	2.37839842	3.45283008
0.17803848	2.37850595	3.45282817
0.17948180	2.37957740	3.45282650
0.18178284	2.38040447	3.45282364
0.18188488	2.38289070	3.45282435
0.18300822	2.38413668	3.45282316
0.18505639	2.38443685	3.45282054
0.18864465	2.38566685	3.45281601
0.19040692	2.38794351	3.45281434
0.19180515	2.38902020	3.45281291
0.19257066	2.39031434	3.45281219
0.19423878	2.39135885	3.45281029
0.19567677	2.39256763	3.45280862
0.19690973	2.39463449	3.45280766
0.19784474	2.39618134	3.45280695
0.20029768	2.39643359	3.45280361
0.20135573	2.39838552	3.45280290
0.20268089	2.39891434	3.45280123
0.20382303	2.39960694	3.45280004
0.20427883	2.40080190	3.45279956
0.20614371	2.40126634	3.45279741
0.20743749	2.40138459	3.45279551
0.20799583	2.40353251	3.45279551
0.21040559	2.40379572	3.45279241
0.21166909	2.40488863	3.45279098
0.21309018	2.40665483	3.45278955
0.21446648	2.40842700	3.45278835
0.21675909	2.40953326	3.45278549
0.21796995	2.41229582	3.45278478
0.21924490	2.41296721	3.45278335
0.22152591	2.41449499	3.45278072
0.22300047	2.41597700	3.45277929
0.22847199	2.41696548	3.45277214
0.22884804	2.42066216	3.45277286
0.23382860	2.42172027	3.45276642
0.23474678	2.42382503	3.45276570
0.23486054	2.42588973	3.45276618
0.23725668	2.42656922	3.45276332
0.23928782	2.42742848	3.45276070
0.23990381	2.43053436	3.45276093
0.24145573	2.43104219	3.45275903
0.24208432	2.43234682	3.45275855
0.24559110	2.43330836	3.45275426
0.24751562	2.43473649	3.45275211
0.24933648	2.43659210	3.45275021
0.25006536	2.43761230	3.45274949
0.25167391	2.43769288	3.45274734
0.25348628	2.43982720	3.45274544
0.25465971	2.44093084	3.45274425
0.25596797	2.44201827	3.45274282
0.25719500	2.44283676	3.45274138
0.25751066	2.44418502	3.45274138
0.25891736	2.44498253	3.45273995
0.25944203	2.44824719	3.45274019
0.26077738	2.44850254	3.45273852
0.26263386	2.44924617	3.45273614
0.26622027	2.45047045	3.45273161
0.26773989	2.45194721	3.45273018
0.26924357	2.45536757	3.45272923
0.27078521	2.45614910	3.45272732
0.27193412	2.45947576	3.45272684
0.27282947	2.46089053	3.45272613
0.27635971	2.46100855	3.45272136
0.27904853	2.46234584	3.45271802
0.27908927	2.46386266	3.45271850
0.28007114	2.46540928	3.45271778
0.28155419	2.46661234	3.45271611
0.28273606	2.46743655	3.45271468
0.28318337	2.46891069	3.45271468
0.28488028	2.46897459	3.45271230
0.28518745	2.47060156	3.45271254
0.28616080	2.47242808	3.45271158
0.28652129	2.47377038	3.45271158
0.28879941	2.47390723	3.45270872
0.29045400	2.47536778	3.45270681
0.29535738	2.47740030	3.45270085
0.30166632	2.47884512	3.45269275
0.30372646	2.48164248	3.45269084
0.30395082	2.48591423	3.45269203
0.30478495	2.48927855	3.45269179
0.30789876	2.48986650	3.45268774
0.30840215	2.49521208	3.45268893
0.31270629	2.49634504	3.45268345
0.31551978	2.49794006	3.45268011
0.31713143	2.49941134	3.45267844
0.32062161	2.49939775	3.45267367
0.32210234	2.50212860	3.45267248
0.32397580	2.50231361	3.45267010
0.32575062	2.50278902	3.45266771
0.32598242	2.50539613	3.45266843
0.32678777	2.50682139	3.45266771
0.33012128	2.50751972	3.45266342
0.33166823	2.50816417	3.45266151
0.33318678	2.50825548	3.45265961
0.33572093	2.50877643	3.45265627
0.33781248	2.51198483	3.45265436
0.34214985	2.51353383	3.45264912
0.34373671	2.51431012	3.45264721
0.34596974	2.51445246	3.45264411
0.34799236	2.51559091	3.45264173
0.34940010	2.51777363	3.45264053
0.35183603	2.51858449	3.45263767
0.35253438	2.52057934	3.45263720
0.35346115	2.52240491	3.45263648
0.35460311	2.52309799	3.45263529
0.35734954	2.52539325	3.45263219
0.35862654	2.52607036	3.45263076
0.35967869	2.52677369	3.45262957
0.36298087	2.52706051	3.45262527
0.36466357	2.52907467	3.45262361
0.36762869	2.53009486	3.45261979
0.37029785	2.53059959	3.45261645
0.37137306	2.53199291	3.45261550
0.37216970	2.53369784	3.45261478
0.37307847	2.53469658	3.45261407
0.37394243	2.53570104	3.45261312
0.37666842	2.53577852	3.45260954
0.37982374	2.53650355	3.45260549
0.38143229	2.53658438	3.45260334
0.38353059	2.53674245	3.45260048
0.38449973	2.54009080	3.45260024
0.38576391	2.54256916	3.45259929
0.38741857	2.54402924	3.45259762
0.39083883	2.54485917	3.45259333
0.39222246	2.54496670	3.45259142
0.39408746	2.54543114	3.45258904
0.39670417	2.54760599	3.45258617
0.39735848	2.55099130	3.45258641
0.39894503	2.55176759	3.45258451
0.40201339	2.55665970	3.45258188
0.40684023	2.55828643	3.45257592
0.40800616	2.56105471	3.45257521
0.41263017	2.56201339	3.45256925
0.41475821	2.56549549	3.45256734
0.41583326	2.56688905	3.45256639
0.41762295	2.56833386	3.45256448
0.41975081	2.57181597	3.45256257
0.42167506	2.57324409	3.45256042
0.42361498	2.57702756	3.45255899
0.42405182	2.57877517	3.45255899
0.42577341	2.57953525	3.45255709
0.42799065	2.58162117	3.45255470
0.42936674	2.58339310	3.45255327
0.43147105	2.58480048	3.45255089
0.43353879	2.58593369	3.45254850
0.43559140	2.59039569	3.45254707
0.43706504	2.59049249	3.45254517
0.44226825	2.59581637	3.45253992
0.44351408	2.60745049	3.45254183
0.44527313	2.60986972	3.45254016
0.44643813	2.61125231	3.45253897
0.44826496	2.61435604	3.45253754
0.44962534	2.61807179	3.45253682
0.44971940	2.63220549	3.45254111
0.44407246	2.65675092	3.45255661
0.44299692	2.65965581	3.45255899
0.38476107	2.72879505	3.45265913
0.36247015	2.75469112	3.45269752
0.30058125	2.81332421	3.45279932
0.27969858	2.83141994	3.45283318
0.25584039	2.84876990	3.45287085
0.24137789	2.85608339	3.45289278
0.23050964	2.86019111	3.45290852
0.21517637	2.86555338	3.45293093
0.20898694	2.86742210	3.45293999
0.18760648	2.87281895	3.45297050
0.16911975	2.87577415	3.45299625
0.14557740	2.87604070	3.45302820
0.12005505	2.87500358	3.45306230
0.11860329	2.87421155	3.45306396
0.09504709	2.86920977	3.45309424
0.09139273	2.86730099	3.45309854
0.08765736	2.86635494	3.45310330
0.08206826	2.86497831	3.45311046
0.07213289	2.86217809	3.45312285
0.07159573	2.86071444	3.45312309
0.06950599	2.86027670	3.45312595
0.05945855	2.85818267	3.45313883
0.05370784	2.85612035	3.45314598
0.05026802	2.85445833	3.45315003
0.04781428	2.85282063	3.45315289
0.04590967	2.85222459	3.45315528
0.04445788	2.85143280	3.45315695
0.04307729	2.85118318	3.45315862
0.04067793	2.85064602	3.45316172
0.03298160	2.84923649	3.45317173
0.02996618	2.84835863	3.45317554
0.01909497	2.84539175	3.45318913
0.01542377	2.84404087	3.45319366
0.01313874	2.84127021	3.45319605
0.01127890	2.84066868	3.45319819
0.00850520	2.83920598	3.45320153
0.00764149	2.83820128	3.45320249
0.00705600	2.83688569	3.45320272
0.00516823	2.83573103	3.45320511
0.00205940	2.83500624	3.45320892
0.00144580	2.83313775	3.45320916
-0.00223386	2.83206654	3.45321393
-0.00436613	2.83010626	3.45321608
-0.00587124	2.82959867	3.45321798
-0.00735956	2.82853293	3.45321965
-0.00854987	2.82798791	3.45322108
-0.00990322	2.82690573	3.45322251
-0.01247492	2.82472563	3.45322537
-0.01409817	2.82367587	3.45322728
-0.01558626	2.82260990	3.45322895
-0.01853475	2.82103133	3.45323229
-0.02018937	2.81957078	3.45323420
-0.02196419	2.81909537	3.45323634
-0.02327251	2.81800771	3.45323777
-0.02507648	2.81559420	3.45323944
-0.02530229	2.81423593	3.45323944
-0.02736992	2.81310248	3.45324183
-0.02842292	2.81101370	3.45324254
-0.03011495	2.80789399	3.45324397
-0.03190443	2.80644941	3.45324588
-0.03171372	2.80462098	3.45324492
-0.03321892	2.80411363	3.45324683
-0.03552073	2.80190110	3.45324922
-0.03572950	2.79998398	3.45324898
-0.03638300	2.79798388	3.45324922
-0.03732318	2.79657412	3.45324993
-0.03957155	2.79407692	3.45325232
-0.04122612	2.79261661	3.45325398
-0.04111865	2.78774881	3.45325232
-0.04377434	2.78682804	3.45325565
-0.04644445	2.78493786	3.45325875
-0.04687673	2.78013444	3.45325780
-0.04823834	2.77933145	3.45325923
-0.05104437	2.77607226	3.45326209
-0.05166408	2.77295494	3.45326185
-0.05255920	2.77153993	3.45326281
-0.05306917	2.76924419	3.45326257
-0.05520216	2.76881742	3.45326543
-0.05625415	2.76811361	3.45326662
-0.05904993	2.76734614	3.45327020
-0.05854014	2.76395798	3.45326829
-0.05997574	2.76122165	3.45326948
-0.06052235	2.75865221	3.45326948
-0.06224057	2.75775027	3.45327139
-0.06308049	2.75605607	3.45327210
-0.06275332	2.75129843	3.45327020
-0.06610990	2.74991035	3.45327425
-0.06670973	2.74762511	3.45327425
-0.06742510	2.74618912	3.45327473
-0.06796557	2.74486804	3.45327520
-0.06870899	2.74287844	3.45327544
-0.06905276	2.74097705	3.45327544
-0.07113832	2.73901772	3.45327759
-0.07272241	2.73671365	3.45327902
-0.07268363	2.73546004	3.45327854
-0.07403553	2.73423004	3.45327997
-0.07669356	2.73207164	3.45328283
-0.07769307	2.72969794	3.45328355
-0.07790181	2.72778106	3.45328307
-0.07758835	2.72343969	3.45328140
-0.08007574	2.72291875	3.45328450
-0.07993850	2.72137499	3.45328379
-0.08124179	2.72015071	3.45328522
-0.08208343	2.71845102	3.45328593
-0.08306012	2.71676779	3.45328665
-0.08386531	2.71534181	3.45328736
-0.08394763	2.71368766	3.45328689
-0.08395034	2.71229696	3.45328641
-0.08459195	2.71095324	3.45328689
