//X	Y	Z
-0.79485840	-0.44202244	1.95372522
-0.78769433	-0.46597958	1.95364809
-0.78242612	-0.47763264	1.95360923
-0.77822602	-0.48618960	1.95358038
-0.77588886	-0.49092564	1.95356429
-0.77348781	-0.49562380	1.95354843
-0.77070081	-0.50002271	1.95353305
-0.73264062	-0.55775452	1.95333052
-0.71850336	-0.57631046	1.95326388
-0.69597822	-0.60542023	1.95315909
-0.67040449	-0.63282788	1.95305693
-0.66161472	-0.64046967	1.95302713
-0.62594718	-0.66987884	1.95291078
-0.58944148	-0.69475693	1.95280731
-0.58464050	-0.69756293	1.95279503
-0.53968906	-0.72374260	1.95268095
-0.50234020	-0.74334753	1.95259249
-0.48142350	-0.75339198	1.95254576
-0.47308689	-0.75676382	1.95252895
-0.44820392	-0.76504290	1.95248425
-0.44577795	-0.76578569	1.95248008
-0.42307729	-0.77181703	1.95244384
-0.41914511	-0.77205384	1.95244002
-0.40383655	-0.77200723	1.95242774
-0.39657035	-0.77097082	1.95242500
-0.39520347	-0.77057087	1.95242512
-0.37275258	-0.76368570	1.95242751
-0.35661873	-0.75775492	1.95243216
-0.35356978	-0.75605261	1.95243478
-0.35265934	-0.75534862	1.95243609
-0.34974989	-0.75375259	1.95243847
-0.34056476	-0.74926805	1.95244443
-0.33818012	-0.74807692	1.95244610
-0.33074743	-0.74429131	1.95245135
-0.32864788	-0.74267119	1.95245445
-0.32700917	-0.74141812	1.95245695
-0.32433510	-0.73998499	1.95245898
-0.32245004	-0.73853898	1.95246184
-0.31999019	-0.73727977	1.95246363
-0.31830835	-0.73597759	1.95246613
-0.31778353	-0.73557258	1.95246685
-0.31662685	-0.73467565	1.95246863
-0.31603774	-0.73423254	1.95246947
-0.31371704	-0.73307943	1.95247102
-0.31291378	-0.73246235	1.95247221
-0.31161755	-0.73145914	1.95247412
-0.31127504	-0.73120928	1.95247459
-0.31092134	-0.73092914	1.95247519
-0.31022513	-0.73039913	1.95247614
-0.30955017	-0.72985816	1.95247722
-0.30889702	-0.72937715	1.95247817
-0.30857548	-0.72911608	1.95247865
-0.30623388	-0.72797400	1.95248020
-0.30556986	-0.72746301	1.95248115
-0.30574787	-0.72694695	1.95248282
-0.30515876	-0.72650385	1.95248365
-0.30252779	-0.72511983	1.95248568
-0.30180973	-0.72452974	1.95248687
-0.30065271	-0.72363257	1.95248866
-0.29949600	-0.72273570	1.95249033
-0.29907829	-0.72241765	1.95249093
-0.29866058	-0.72209960	1.95249152
-0.29330218	-0.71927428	1.95249569
-0.29200593	-0.71827114	1.95249760
-0.29067782	-0.71724916	1.95249963
-0.29035628	-0.71698809	1.95250010
-0.28941375	-0.71626496	1.95250154
-0.28906000	-0.71598494	1.95250201
-0.28759268	-0.71485686	1.95250416
-0.28717494	-0.71453893	1.95250487
-0.28718159	-0.71389776	1.95250678
-0.28688124	-0.71362579	1.95250726
-0.28639948	-0.71326989	1.95250797
-0.28369334	-0.71181762	1.95251012
-0.28373209	-0.71119565	1.95251203
-0.28148669	-0.71011055	1.95251346
-0.28071526	-0.70951235	1.95251453
-0.27980486	-0.70880842	1.95251596
-0.27798378	-0.70740026	1.95251870
-0.12209952	-0.63397002	1.95261168
-0.12045386	-0.63335788	1.95261216
-0.11869481	-0.63329995	1.95261085
-0.11452523	-0.63139057	1.95261323
-0.11410090	-0.63171363	1.95261192
-0.11210185	-0.63082147	1.95261300
-0.11003185	-0.63053238	1.95261216
-0.10603398	-0.62874830	1.95261419
-0.10502053	-0.62862825	1.95261383
-0.10448882	-0.62886405	1.95261264
-0.10287559	-0.62827116	1.95261312
-0.09866729	-0.62698388	1.95261359
-0.09519428	-0.62560481	1.95261490
-0.09305593	-0.62460667	1.95261610
-0.08821573	-0.62282741	1.95261753
-0.08607742	-0.62182927	1.95261872
-0.08393912	-0.62083113	1.95262003
-0.08309709	-0.62083614	1.95261931
-0.07776391	-0.61867070	1.95262146
-0.07744664	-0.61908072	1.95262003
-0.07113909	-0.61617339	1.95262349
-0.06941852	-0.61549330	1.95262420
-0.06780501	-0.61490017	1.95262468
-0.06619176	-0.61430722	1.95262516
-0.06405350	-0.61330909	1.95262635
-0.06268661	-0.61290908	1.95262647
-0.06068750	-0.61201698	1.95262754
-0.05987735	-0.61204082	1.95262682
-0.05851045	-0.61164081	1.95262682
-0.05637211	-0.61064267	1.95262814
-0.05451230	-0.60985655	1.95262897
-0.05009643	-0.60775423	1.95263159
-0.04848324	-0.60716128	1.95263207
-0.04409950	-0.60507810	1.95263481
-0.04248600	-0.60448492	1.95263529
-0.04020844	-0.60338080	1.95263672
-0.03810228	-0.60240173	1.95263791
-0.03512194	-0.60140860	1.95263851
-0.03150965	-0.59992349	1.95263994
-0.02523395	-0.59703505	1.95264351
-0.02323485	-0.59614295	1.95264459
0.00417873	-0.58148348	1.95266616
0.01303320	-0.57530689	1.95267737
0.02354581	-0.56650519	1.95269513
0.04921864	-0.53352737	1.95277262
0.05874086	-0.50059116	1.95286298
0.06377088	-0.48031044	1.95291924
0.06425203	-0.47665942	1.95292974
0.06551994	-0.46650204	1.95295894
0.06695174	-0.45228359	1.95300019
0.06714514	-0.44689155	1.95301604
0.06678663	-0.44454747	1.95302331
0.05937541	-0.40898585	1.95313513
0.05856029	-0.40633789	1.95314372
0.05781621	-0.40429282	1.95315039
0.05738926	-0.40265787	1.95315552
0.05618191	-0.39966777	1.95316541
0.05495415	-0.39996189	1.95316553
0.05435593	-0.39845186	1.95317054
0.05340417	-0.39722186	1.95317495
0.05308697	-0.39681190	1.95317650
0.05220364	-0.39487278	1.95318294
0.05089077	-0.38998681	1.95319855
0.03661488	-0.34404722	1.95334673
0.03596952	-0.34325713	1.95334971
0.03526828	-0.34116322	1.95335650
0.03454418	-0.34104121	1.95335746
0.03410232	-0.34010708	1.95336056
0.03368196	-0.33911318	1.95336390
0.03308626	-0.33891523	1.95336485
0.03291916	-0.33836922	1.95336664
0.03262314	-0.33797014	1.95336807
0.03227378	-0.33757919	1.95336950
0.03160724	-0.33677816	1.95337248
0.03089519	-0.33471417	1.95337915
0.02957107	-0.33506531	1.95337915
0.02938227	-0.33457917	1.95338082
0.02919379	-0.33402231	1.95338261
0.02895116	-0.33361515	1.95338404
0.02833423	-0.33340621	1.95338511
0.02802785	-0.33296627	1.95338666
0.02774260	-0.33253729	1.95338821
0.02733949	-0.33222514	1.95338941
0.02715101	-0.33166838	1.95339131
0.02666193	-0.33145422	1.95339227
0.02631268	-0.33106321	1.95339370
0.02585614	-0.33075923	1.95339501
0.02557088	-0.33033025	1.95339656
0.02507211	-0.33000427	1.95339787
0.02472271	-0.32961336	1.95339930
0.02440543	-0.32920337	1.95340085
0.02403433	-0.32887232	1.95340204
0.02372733	-0.32850325	1.95340347
0.02315288	-0.32831618	1.95340443
0.02267928	-0.32733029	1.95340776
0.02246927	-0.32683325	1.95340943
0.02207698	-0.32649124	1.95341074
0.02165261	-0.32616824	1.95341206
0.02131410	-0.32574725	1.95341361
0.02084736	-0.32540238	1.95341504
0.02051806	-0.32516408	1.95341599
0.02007292	-0.32475930	1.95341754
0.01979859	-0.32430038	1.95341909
0.01948088	-0.32396120	1.95342040
0.01910976	-0.32363009	1.95342171
0.01866531	-0.32315442	1.95342350
0.01852958	-0.32266039	1.95342505
0.01798771	-0.32238346	1.95342624
0.01748167	-0.32148734	1.95342934
0.01708934	-0.32114533	1.95343065
0.01691130	-0.32062936	1.95343232
0.01606664	-0.31931242	1.95343697
0.01568521	-0.31894040	1.95343840
0.01494361	-0.31820738	1.95344114
0.01441205	-0.31797141	1.95344234
0.01394520	-0.31762648	1.95344377
0.01367028	-0.31723848	1.95344508
0.01329980	-0.31683648	1.95344663
0.01311084	-0.31635046	1.95344818
0.01244008	-0.31622046	1.95344913
0.01218695	-0.31577247	1.95345068
0.01178428	-0.31538957	1.95345211
0.01143393	-0.31514025	1.95345318
0.01124500	-0.31465423	1.95345473
0.01039727	-0.31386653	1.95345771
0.01021815	-0.31349224	1.95345902
0.00953041	-0.31268027	1.95346200
0.00908362	-0.31248814	1.95346296
0.00852112	-0.31212935	1.95346439
0.00807138	-0.31069601	1.95346904
0.00713518	-0.31046459	1.95347047
0.00670848	-0.31042513	1.95347095
0.00604729	-0.30881137	1.95347631
0.00530195	-0.30867851	1.95347726
0.00509180	-0.30818155	1.95347893
0.00480666	-0.30775249	1.95348048
0.00437144	-0.30745941	1.95348167
0.00388338	-0.30710357	1.95348310
0.00366427	-0.30624911	1.95348585
0.00321672	-0.30630264	1.95348608
0.00258590	-0.30488253	1.95349085
0.00180795	-0.30483946	1.95349157
0.00162997	-0.30432346	1.95349324
0.00106625	-0.30410656	1.95349431
0.00093128	-0.30354148	1.95349610
0.00063577	-0.30307162	1.95349777
-0.00054422	-0.29903403	1.95351076
-0.00143600	-0.29843700	1.95351326
-0.00280129	-0.29685405	1.95351899
-0.00396740	-0.29579809	1.95352316
-0.07138365	-0.13660234	1.95405138
-0.07129411	-0.13590428	1.95405340
-0.07133290	-0.13528229	1.95405519
-0.07125352	-0.13454318	1.95405734
-0.07133534	-0.13397025	1.95405912
-0.07148122	-0.13343519	1.95406091
-0.07178342	-0.13232422	1.95406437
-0.07144075	-0.13207419	1.95406485
-0.07157832	-0.13019720	1.95407057
-0.07106426	-0.12982208	1.95407128
-0.07124895	-0.12866502	1.95407486
-0.07144815	-0.12813807	1.95407665
-0.07107351	-0.12786910	1.95407712
-0.07148939	-0.12620398	1.95408237
-0.07111478	-0.12593502	1.95408285
-0.07149864	-0.12425099	1.95408821
-0.07112381	-0.12398189	1.95408869
-0.07077029	-0.12370188	1.95408928
-0.07090536	-0.12313691	1.95409107
-0.07087582	-0.12180594	1.95409501
-0.07099211	-0.11993986	1.95410061
-0.07083915	-0.11944951	1.95410192
-0.07087658	-0.11851087	1.95410478
-0.07100124	-0.11798675	1.95410645
-0.07092284	-0.11749357	1.95410788
-0.07056928	-0.11721356	1.95410836
-0.07065162	-0.11671140	1.95411003
-0.07054302	-0.11630770	1.95411110
-0.07035802	-0.11579842	1.95411241
-0.07049251	-0.11516255	1.95411444
-0.07015707	-0.11434234	1.95411658
-0.06977094	-0.11397246	1.95411742
-0.06948815	-0.11308937	1.95411980
-0.06968372	-0.11196227	1.95412338
-0.06936228	-0.11170132	1.95412385
-0.06951860	-0.11112543	1.95412564
-0.06965306	-0.11048956	1.95412767
-0.06926858	-0.11033230	1.95412791
-0.06890472	-0.11009323	1.95412827
-0.06896409	-0.10938933	1.95413041
-0.06870623	-0.10909548	1.95413113
-0.06873580	-0.10865609	1.95413244
-0.06877407	-0.10796328	1.95413446
-0.06846231	-0.10759047	1.95413542
-0.06843854	-0.10714296	1.95413673
-0.06817959	-0.10670739	1.95413780
-0.06808082	-0.10619197	1.95413923
-0.06787571	-0.10583533	1.95414007
-0.06791620	-0.10542593	1.95414138
-0.06731630	-0.10495292	1.95414233
-0.06697129	-0.10441935	1.95414364
-0.06704949	-0.10324623	1.95414710
-0.06715181	-0.10259131	1.95414925
-0.06654330	-0.10237187	1.95414937
-0.06635576	-0.10140415	1.95415211
-0.06650163	-0.10086904	1.95415378
-0.06598883	-0.10063580	1.95415401
-0.06606880	-0.09985007	1.95415652
-0.06569416	-0.09958109	1.95415699
-0.06580800	-0.09902708	1.95415866
-0.06519721	-0.09852410	1.95415974
-0.06464022	-0.09810007	1.95416057
-0.06495317	-0.09701899	1.95416403
-0.06393804	-0.09668630	1.95416415
-0.06382833	-0.09614089	1.95416570
-0.06379215	-0.09545100	1.95416772
-0.06370249	-0.09475284	1.95416975
-0.06306884	-0.09404826	1.95417130
-0.06286292	-0.09344580	1.95417297
-0.06261481	-0.09304021	1.95417392
-0.06258942	-0.09238019	1.95417595
-0.06261900	-0.09194081	1.95417726
-0.06202821	-0.09128505	1.95417869
-0.06142831	-0.09081206	1.95417964
-0.06108148	-0.08989107	1.95418215
-0.06101978	-0.08854101	1.95418608
-0.06066626	-0.08826101	1.95418668
-0.06031265	-0.08798096	1.95418715
-0.06061115	-0.08626987	1.95419252
-0.05972181	-0.08555487	1.95419395
-0.05951430	-0.08473989	1.95419621
-0.05931335	-0.08328380	1.95420039
-0.05871332	-0.08281072	1.95420122
-0.05882302	-0.08158572	1.95420504
-0.05805175	-0.08098768	1.95420611
-0.05759769	-0.07997963	1.95420885
-0.05707535	-0.07826260	1.95421350
-0.05726673	-0.07646452	1.95421898
-0.05691318	-0.07618450	1.95421958
-0.05550323	-0.07573547	1.95421970
-0.05505585	-0.07408634	1.95422435
-0.05410915	-0.07269237	1.95422769
-0.05365509	-0.07168430	1.95423031
-0.05381019	-0.06919621	1.95423782
-0.05253950	-0.06885322	1.95423782
-0.05250978	-0.06752210	1.95424175
-0.05266488	-0.06503402	1.95424926
-0.05185069	-0.06438705	1.95425057
-0.05172052	-0.06232789	1.95425665
-0.05122788	-0.06194196	1.95425737
-0.05070538	-0.06022482	1.95426202
-0.04976531	-0.05818978	1.95426738
-0.04936313	-0.05687313	1.95427096
-0.04936992	-0.05623214	1.95427287
-0.04884080	-0.05515610	1.95427561
-0.04779101	-0.05434601	1.95427716
-0.04712280	-0.05316405	1.95428014
-0.04776644	-0.05039096	1.95428896
-0.04766599	-0.04966289	1.95429111
-0.04724410	-0.04867393	1.95429361
-0.04707946	-0.04790787	1.95429575
-0.04710732	-0.04725587	1.95429778
-0.04687849	-0.04645182	1.95429993
-0.04655699	-0.04619074	1.95430052
-0.04645237	-0.04479173	1.95430458
-0.04631972	-0.04404466	1.95430672
-0.04599831	-0.04378369	1.95430720
-0.04570670	-0.04325822	1.95430851
-0.04584841	-0.04205219	1.95431221
-0.04552564	-0.04147463	1.95431376
-0.04462738	-0.04111716	1.95431399
-0.04477325	-0.04058209	1.95431578
-0.04495792	-0.03942500	1.95431936
-0.04445432	-0.03900909	1.95432019
-0.04417167	-0.03812608	1.95432258
-0.04396396	-0.03731102	1.95432484
-0.04316730	-0.03605293	1.95432794
-0.04344827	-0.03495289	1.95433140
-0.04295543	-0.03456686	1.95433223
-0.04261283	-0.03431682	1.95433271
-0.04250154	-0.03355891	1.95433486
-0.04236892	-0.03281184	1.95433688
-0.04152254	-0.03214575	1.95433819
-0.04092928	-0.03103170	1.95434105
-0.04096806	-0.03040968	1.95434296
-0.04083560	-0.02966271	1.95434511
-0.04076713	-0.02895363	1.95434713
-0.03953517	-0.02798855	1.95434904
-0.03935961	-0.02719250	1.95435119
-0.03933424	-0.02653252	1.95435321
-0.03894436	-0.02556247	1.95435572
-0.03881190	-0.02481548	1.95435786
-0.03857219	-0.02398144	1.95436013
-0.03789721	-0.02344044	1.95436120
-0.03784216	-0.02144930	1.95436716
-0.03727426	-0.02099526	1.95436800
-0.03735180	-0.01975122	1.95437181
-0.03703038	-0.01949029	1.95437229
-0.03696207	-0.01878130	1.95437431
-0.03711470	-0.01760526	1.95437801
-0.03676359	-0.01601322	1.95438242
-0.03641005	-0.01573317	1.95438302
-0.03606573	-0.01350014	1.95438933
-0.03572124	-0.01126698	1.95439577
-0.03605863	-0.00893395	1.95440292
-0.03566215	-0.00860502	1.95440364
-0.03503256	-0.00680092	1.95440841
-0.03514640	-0.00624689	1.95441020
-0.03430250	-0.00426880	1.95441544
-0.03441639	-0.00371480	1.95441711
-0.03395817	-0.00203575	1.95442176
-0.03392848	-0.00070466	1.95442569
-0.03375971	0.00073230	1.95442986
-0.03397235	0.00254132	1.95443547
-0.03398988	0.00315243	1.95443726
-0.03383554	0.00395937	1.95443952
-0.03356372	0.00481248	1.95444191
-0.03360495	0.00674653	1.95444763
-0.03357543	0.00807755	1.95445156
-0.03339984	0.00887363	1.95445383
-0.03371958	0.01059562	1.95445919
-0.03336601	0.01087564	1.95445979
-0.03365372	0.01261663	1.95446515
-0.03411931	0.01487371	1.95447230
-0.03450993	0.01719874	1.95447946
-0.03437747	0.01794572	1.95448160
-0.03458995	0.01975486	1.95448720
-0.03460333	0.02103689	1.95449102
-0.03466579	0.02298187	1.95449686
-0.03481675	0.02614090	1.95450640
-0.03564079	0.03074208	1.95452070
-0.03540112	0.03157613	1.95452297
-0.03675519	0.03839618	1.95454443
-0.03686909	0.03895016	1.95454609
-0.03807887	0.04325224	1.95455992
-0.03873706	0.04539523	1.95456684
-0.04465383	0.06244545	1.95462239
-0.04614224	0.06653540	1.95463574
-0.04840674	0.07265148	1.95465577
-0.05035152	0.07704553	1.95467043
-0.05596904	0.08908963	1.95471084
-0.06285325	0.10146162	1.95475316
-0.07959930	0.12390046	1.95483351
-0.09048155	0.13448827	1.95487380
-0.09844003	0.14209518	1.95490277
-0.09921378	0.14280918	1.95490551
-0.10576152	0.14757000	1.95492494
-0.11159980	0.15157875	1.95494163
-0.11258788	0.15211879	1.95494401
-0.12767562	0.16010740	1.95498002
-0.15627146	0.16617329	1.95502102
-0.22038496	0.17606515	1.95510221
-0.24041140	0.17502724	1.95511520
-0.28772479	0.17113230	1.95514178
-0.31532109	0.16836080	1.95515573
-0.33044773	0.16326188	1.95515275
-0.44811568	0.11201015	1.95509505
-0.57985878	0.05331618	1.95502651
-0.63791531	0.02571860	1.95499110
-0.64057851	0.02431551	1.95498908
-0.65358746	0.01693058	1.95497763
-0.73438120	-0.02920389	1.95490539
-0.73764437	-0.03108010	1.95490241
-0.74113196	-0.03308928	1.95489919
-0.74465245	-0.03518850	1.95489585
-0.74890459	-0.03843674	1.95488954
-0.75012594	-0.03937203	1.95488775
-0.75206465	-0.04089689	1.95488477
-0.75421822	-0.04259604	1.95488143
-0.75906444	-0.04702941	1.95487225
-0.76880574	-0.05700338	1.95485032
-0.77975202	-0.06873605	1.95482421
-0.78457749	-0.07502148	1.95480943
-0.78932917	-0.08138084	1.95479429
-0.79488641	-0.09218138	1.95476663
-0.79900032	-0.10060176	1.95474494
-0.80025530	-0.10353887	1.95473719
-0.80129528	-0.10623112	1.95473003
-0.81108218	-0.14059064	1.95463562
-0.81447160	-0.15763517	1.95458758
-0.81481612	-0.15986829	1.95458126
-0.81519675	-0.16279134	1.95457280
-0.81339246	-0.27020192	1.95425165
-0.81271547	-0.28475320	1.95420778
-0.81133336	-0.30072764	1.95415914
-0.81093329	-0.30500555	1.95414603
-0.80115378	-0.40362960	1.95384455
-0.79949546	-0.41807988	1.95380020
-0.79895651	-0.42225200	1.95378733
-0.79817122	-0.42623115	1.95377493
