//X	Y	Z
-0.78607994	0.54055500	1.43405771
-0.80734885	0.53296471	1.43387473
-0.81802559	0.52832359	1.43378329
-0.83562291	0.51741785	1.43363440
-0.84681249	0.50654870	1.43354177
-0.84886062	0.49111146	1.43353200
-0.84793699	0.49022913	1.43354058
-0.84807181	0.48762712	1.43354082
-0.85309947	0.46781412	1.43350720
-0.85291827	0.46642578	1.43350959
-0.85278487	0.46479645	1.43351161
-0.85401928	0.45920408	1.43350375
-0.85433519	0.45799038	1.43350160
-0.85459906	0.45633093	1.43350017
-0.85410202	0.45615625	1.43350470
-0.85472953	0.45304242	1.43350089
-0.85467756	0.45259681	1.43350148
-0.85499132	0.45103979	1.43349957
-0.85517168	0.44785360	1.43349969
-0.85472238	0.44743794	1.43350387
-0.85501122	0.44582975	1.43350220
-0.85733032	0.43433771	1.43348801
-0.85793293	0.43117264	1.43348444
-0.85782874	0.43028122	1.43348575
-0.85827088	0.42509231	1.43348467
-0.85816461	0.42385757	1.43348622
-0.85806048	0.42296621	1.43348765
-0.85748851	0.42263785	1.43349290
-0.85819101	0.41967762	1.43348825
-0.85852754	0.41782844	1.43348634
-0.85934412	0.41290170	1.43348181
-0.85955584	0.41079646	1.43348098
-0.85950387	0.41035089	1.43348169
-0.85907948	0.40998644	1.43348563
-0.86002517	0.40600225	1.43347943
-0.85860676	0.40528843	1.43349230
-0.85889125	0.40299368	1.43349111
-0.85846257	0.40194267	1.43349540
-0.85696924	0.40107518	1.43350899
-0.85733080	0.39927745	1.43350673
-0.85769439	0.39782304	1.43350434
-0.85736144	0.39578402	1.43350840
-0.85755247	0.39482048	1.43350720
-0.85732567	0.39401641	1.43350959
-0.85760379	0.39069173	1.43350899
-0.85744333	0.38866806	1.43351150
-0.85726225	0.38727966	1.43351376
-0.85674012	0.38705376	1.43351853
-0.85707891	0.38554797	1.43351638
-0.85704529	0.38412347	1.43351746
-0.85621303	0.38207278	1.43352580
-0.85613596	0.38157597	1.43352675
-0.85545999	0.38035607	1.43353331
-0.85478395	0.37913635	1.43353999
-0.85432386	0.37700427	1.43354511
-0.85387456	0.37658879	1.43354928
-0.85396791	0.37576377	1.43354893
-0.85393661	0.37468264	1.43354976
-0.85397995	0.37375522	1.43354988
-0.85345799	0.37352929	1.43355465
-0.85287964	0.37217104	1.43356049
-0.85284817	0.37108997	1.43356133
-0.85278976	0.36961427	1.43356264
-0.85307425	0.36731949	1.43356133
-0.85236895	0.36536202	1.43356860
-0.85181773	0.36439818	1.43357396
-0.85195661	0.36298907	1.43357348
-0.85140318	0.36168206	1.43357909
-0.84978300	0.36021531	1.43359411
-0.84972453	0.35873964	1.43359542
-0.84940773	0.35588494	1.43359971
-0.84875667	0.35471645	1.43360603
-0.84794927	0.35271692	1.43361425
-0.84814262	0.35159054	1.43361318
-0.84771609	0.35088298	1.43361723
-0.84706926	0.35040098	1.43362319
-0.84572142	0.34915420	1.43363571
-0.84591031	0.34784734	1.43363476
-0.84587890	0.34676623	1.43363559
-0.84429008	0.34638062	1.43364978
-0.84415436	0.34491429	1.43365180
-0.84362811	0.34400183	1.43365693
-0.84285432	0.34342682	1.43366396
-0.84255481	0.34281224	1.43366694
-0.84227598	0.34206855	1.43366981
-0.84105718	0.34125823	1.43368101
-0.84102583	0.34017712	1.43368185
-0.84047890	0.33989999	1.43368685
-0.84064496	0.33888522	1.43368590
-0.84034121	0.33758417	1.43368924
-0.83988750	0.33698815	1.43369353
-0.83951104	0.33587661	1.43369746
-0.83913445	0.33527145	1.43370116
-0.83888483	0.33475932	1.43370354
-0.83832705	0.33327192	1.43370926
-0.83787560	0.33251312	1.43371367
-0.83782142	0.33172411	1.43371451
-0.83766949	0.33107352	1.43371630
-0.83749050	0.33002853	1.43371832
-0.83743417	0.32889619	1.43371952
-0.83692849	0.32734823	1.43372476
-0.83655190	0.32674307	1.43372834
-0.83649981	0.32629728	1.43372905
-0.83609629	0.32529753	1.43373322
-0.83523142	0.32487839	1.43374097
-0.83509779	0.32426158	1.43374252
-0.83487785	0.32347471	1.43374491
-0.83434457	0.32305101	1.43374979
-0.83424723	0.32217702	1.43375111
-0.83384800	0.32135767	1.43375504
-0.83344865	0.32104459	1.43375874
-0.83318788	0.32033455	1.43376136
-0.83334023	0.31946650	1.43376052
-0.83297950	0.31905800	1.43376398
-0.83248031	0.31853989	1.43376863
-0.83260310	0.31794646	1.43376780
-0.83203119	0.31761810	1.43377304
-0.83157742	0.31702223	1.43377733
-0.83160043	0.31622398	1.43377757
-0.83072460	0.31510067	1.43378592
-0.83012128	0.31369129	1.43379200
-0.82889813	0.31270054	1.43380320
-0.82849878	0.31238735	1.43380690
-0.82804954	0.31197190	1.43381107
-0.82757974	0.31168538	1.43381536
-0.82782066	0.31082428	1.43381369
-0.82657242	0.31028873	1.43382502
-0.82646841	0.30889100	1.43382668
-0.82564235	0.30837637	1.43383420
-0.82559264	0.30776775	1.43383491
-0.82511407	0.30661437	1.43383980
-0.82461035	0.30591610	1.43384457
-0.82435894	0.30455446	1.43384755
-0.82378018	0.30420855	1.43385279
-0.82414830	0.30293453	1.43385029
-0.82270265	0.30233246	1.43386328
-0.82267785	0.30177489	1.43386376
-0.82218087	0.30160019	1.43386829
-0.82125241	0.30122516	1.43387663
-0.82083082	0.30001026	1.43388093
-0.82033384	0.29932922	1.43388569
-0.81969833	0.29904515	1.43389142
-0.81953067	0.29852256	1.43389320
-0.81904495	0.29803947	1.43389773
-0.81873894	0.29690117	1.43390107
-0.81791306	0.29588032	1.43390882
-0.81783599	0.29538354	1.43390977
-0.81773406	0.29483533	1.43391097
-0.81720567	0.29357955	1.43391633
-0.81677246	0.29234821	1.43392074
-0.81595111	0.29150772	1.43392849
-0.81531787	0.29106072	1.43393421
-0.81505036	0.29033327	1.43393695
-0.81449676	0.28953260	1.43394232
-0.81437433	0.28911358	1.43394363
-0.81436771	0.28858984	1.43394399
-0.81394780	0.28840595	1.43394768
-0.81386423	0.28738523	1.43394899
-0.81331080	0.28607821	1.43395460
-0.81189466	0.28520155	1.43396747
-0.81156093	0.28486273	1.43397057
-0.81159085	0.28440666	1.43397057
-0.81113017	0.28346854	1.43397522
-0.81091034	0.28300658	1.43397737
-0.81068569	0.28254563	1.43397951
-0.81032705	0.28215560	1.43398297
-0.81025010	0.28165859	1.43398392
-0.80953759	0.28120244	1.43399036
-0.80945611	0.28052509	1.43399143
-0.80899775	0.27993017	1.43399584
-0.80873239	0.27954614	1.43399835
-0.80914813	0.27853727	1.43399525
-0.80854177	0.27732888	1.43400121
-0.80806768	0.27686206	1.43400562
-0.80711251	0.27540478	1.43401480
-0.80682921	0.27397451	1.43401814
-0.80700195	0.27348351	1.43401682
-0.80558348	0.27276984	1.43402970
-0.80530226	0.27218899	1.43403244
-0.80542284	0.27125230	1.43403196
-0.80532086	0.27070409	1.43403304
-0.80556464	0.26931724	1.43403172
-0.80530584	0.26830098	1.43403447
-0.80434835	0.26751304	1.43404341
-0.80377638	0.26718473	1.43404853
-0.80394471	0.26651332	1.43404746
-0.80346823	0.26570311	1.43405211
-0.80286705	0.26463702	1.43405795
-0.80224526	0.26420626	1.43406367
-0.80184364	0.26354986	1.43406749
-0.80146277	0.26225793	1.43407154
-0.80095041	0.26152366	1.43407643
-0.80029190	0.26120672	1.43408239
-0.80055773	0.26039696	1.43408048
-0.79965270	0.25853598	1.43408942
-0.79887891	0.25796074	1.43409657
-0.79850459	0.25719255	1.43410027
-0.79872274	0.25662360	1.43409872
-0.79866856	0.25583461	1.43409956
-0.79781985	0.25510594	1.43410742
-0.79751813	0.25465423	1.43411028
-0.79661703	0.25416759	1.43411851
-0.79659915	0.25344610	1.43411911
-0.79669023	0.25278383	1.43411863
-0.79611158	0.25243816	1.43412387
-0.79596412	0.25196788	1.43412542
-0.79609364	0.25139198	1.43412459
-0.79564440	0.25097635	1.43412876
-0.79528135	0.25073078	1.43413210
-0.79568559	0.24970552	1.43412912
-0.79580200	0.24808234	1.43412888
-0.79490328	0.24725105	1.43413734
-0.79446554	0.24685188	1.43414140
-0.79469728	0.24581148	1.43413985
-0.79381227	0.24533999	1.43414795
-0.79419160	0.24426369	1.43414509
-0.79393780	0.24306488	1.43414807
-0.79405880	0.24227165	1.43414736
-0.79371393	0.24090400	1.43415117
-0.79350549	0.24045826	1.43415320
-0.79360765	0.23966926	1.43415272
-0.79381931	0.23890144	1.43415129
-0.79390836	0.23738967	1.43415129
-0.79409945	0.23591997	1.43415046
-0.79412019	0.23528466	1.43415058
-0.79406810	0.23483886	1.43415129
-0.79394120	0.23423962	1.43415272
-0.79363942	0.23378807	1.43415558
-0.79345834	0.23239970	1.43415797
-0.79379928	0.23073091	1.43415582
-0.85232991	0.06772752	1.43372846
-0.85314727	0.06686893	1.43372178
-0.85374206	0.06690531	1.43371654
-0.85423708	0.06623050	1.43371248
-0.85483176	0.06626670	1.43370724
-0.85567605	0.06630884	1.43369985
-0.85674095	0.06561902	1.43369079
-0.85777855	0.06504098	1.43368196
-0.85817802	0.06484802	1.43367863
-0.85961705	0.06492636	1.43366587
-0.86023688	0.06450761	1.43366063
-0.86068189	0.06423654	1.43365693
-0.86119974	0.06326976	1.43365288
-0.86156988	0.06284505	1.43364978
-0.86223727	0.06269170	1.43364406
-0.86260736	0.06226700	1.43364096
-0.86310005	0.06226135	1.43363667
-0.86372471	0.06216637	1.43363118
-0.86434221	0.06107955	1.43362641
-0.86523879	0.06106114	1.43361855
-0.86603326	0.06100086	1.43361151
-0.86679828	0.06070901	1.43360496
-0.86844373	0.06121460	1.43359029
-0.86896360	0.06109717	1.43358576
-0.87037778	0.06061814	1.43357360
-0.87089550	0.06015752	1.43356919
-0.87169015	0.05959090	1.43356252
-0.87190390	0.05916643	1.43356085
-0.87240100	0.05934114	1.43355644
-0.87317050	0.05922965	1.43354976
-0.87383807	0.05856997	1.43354416
-0.87443280	0.05860634	1.43353891
-0.87525022	0.05774775	1.43353224
-0.87574720	0.05792246	1.43352783
-0.87701166	0.05764233	1.43351674
-0.87785172	0.05699794	1.43350971
-0.87983358	0.05616054	1.43349278
-0.88033080	0.05582908	1.43348861
-0.88075078	0.05550680	1.43348503
-0.88144541	0.05524167	1.43347907
-0.88258719	0.05555518	1.43346894
-0.88318634	0.05577175	1.43346345
-0.88506621	0.05438633	1.43344772
-0.88586789	0.05365580	1.43344104
-0.88675070	0.05378409	1.43343318
-0.88739324	0.05307318	1.43342793
-0.88783151	0.05278474	1.43342423
-0.88857603	0.05262204	1.43341780
-0.88901663	0.05217078	1.43341410
-0.88994932	0.05240132	1.43340588
-0.89036715	0.05256690	1.43340206
-0.89160419	0.05207366	1.43339145
-0.89222646	0.05181680	1.43338609
-0.89274371	0.05204382	1.43338144
-0.89335692	0.05193239	1.43337607
-0.89388770	0.05219434	1.43337131
-0.89463222	0.05203164	1.43336487
-0.89674103	0.05179365	1.43334639
-0.89884996	0.05104950	1.43332827
-0.89964914	0.05098812	1.43332124
-0.90041870	0.05087664	1.43331456
-0.90086150	0.05026239	1.43331099
-0.90266603	0.04991713	1.43329537
-0.90329015	0.05018508	1.43328965
-0.90373504	0.04991401	1.43328595
-0.90445471	0.04970010	1.43327975
-0.90569413	0.05019981	1.43326855
-0.90603721	0.04938071	1.43326592
-0.90628910	0.04889879	1.43326402
-0.90717465	0.04850134	1.43325639
-0.90769905	0.04805810	1.43325210
-0.90925848	0.04821214	1.43323827
-0.91066849	0.04704657	1.43322647
-0.91111791	0.04695587	1.43322253
-0.91218257	0.04677239	1.43321335
-0.91337645	0.04702516	1.43320262
-0.91480917	0.04556744	1.43319082
-0.91622114	0.04525140	1.43317866
-0.91673887	0.04479078	1.43317425
-0.91742921	0.04434529	1.43316841
-0.91817808	0.04436297	1.43316185
-0.91892272	0.04420026	1.43315542
-0.91956508	0.04399553	1.43314981
-0.92038238	0.04364329	1.43314290
-0.92107701	0.04337817	1.43313694
-0.92266583	0.04376379	1.43312275
-0.92370784	0.04336610	1.43311381
-0.92422771	0.04324884	1.43310928
-0.92542171	0.04299545	1.43309891
-0.92752838	0.04241427	1.43308067
-0.92896748	0.04198645	1.43306828
-0.93055862	0.04220908	1.43305409
-0.93092674	0.04093503	1.43305159
-0.93211401	0.04066425	1.43304133
-0.93270439	0.04001392	1.43303645
-0.93345344	0.04003159	1.43302989
-0.93381917	0.03942651	1.43302691
-0.93417549	0.03914851	1.43302393
-0.93499255	0.03930227	1.43301666
-0.93712425	0.03877231	1.43299830
-0.93771672	0.03846533	1.43299317
-0.93816173	0.03819426	1.43298948
-0.93920374	0.03779658	1.43298042
-0.93967807	0.03775709	1.43297637
-0.94027066	0.03745010	1.43297124
-0.94121498	0.03719093	1.43296313
-0.94173479	0.03707350	1.43295860
-0.94245672	0.03669660	1.43295240
-0.94334209	0.03648043	1.43294477
-0.94423890	0.03595585	1.43293715
-0.94562125	0.03591440	1.43292499
-0.94604135	0.03559230	1.43292153
-0.94651812	0.03488365	1.43291771
-0.94730580	0.03480599	1.43291080
-0.94777584	0.03458613	1.43290687
-0.94799846	0.03419751	1.43290508
-0.94936258	0.03412223	1.43289316
-0.94978935	0.03381750	1.43288946
-0.95022982	0.03387240	1.43288565
-0.95055676	0.03336266	1.43288302
-0.95119476	0.03297773	1.43287766
-0.95235932	0.03249276	1.43286765
-0.95266128	0.03193197	1.43286526
-0.95327425	0.03200200	1.43285978
-0.95381910	0.03193595	1.43285513
-0.95416427	0.03146003	1.43285227
-0.95506328	0.03077246	1.43284476
-0.95535624	0.03035711	1.43284237
-0.95627105	0.03037253	1.43283439
-0.95676589	0.03020406	1.43283010
-0.95719278	0.02989915	1.43282652
-0.95798051	0.02982150	1.43281960
-0.95842350	0.02870091	1.43281627
-0.95902491	0.02875466	1.43281102
-0.96001220	0.02908669	1.43280220
-0.96033245	0.02855957	1.43279958
-0.96066177	0.02788701	1.43279707
-0.96135408	0.02778488	1.43279099
-0.96254134	0.02751409	1.43278074
-0.96308631	0.02694170	1.43277621
-0.96431923	0.02608664	1.43276584
-0.96479803	0.02622769	1.43276155
-0.96524304	0.02595662	1.43275785
-0.96593535	0.02585448	1.43275177
-0.96645075	0.02555668	1.43274736
-0.96732259	0.02498089	1.43274009
-0.96808529	0.02485202	1.43273342
-0.97039598	0.02486074	1.43271303
-0.97274369	0.02291227	1.43269348
-0.97356129	0.02154752	1.43268704
-0.97457588	0.02176778	1.43267798
-0.97509146	0.02045764	1.43267417
-0.97591090	0.02044858	1.43266690
-0.97655559	0.02058720	1.43266118
-0.97707117	0.01927706	1.43265736
-0.97853333	0.01855710	1.43264484
-0.97950041	0.01800578	1.43263674
-0.97969806	0.01756595	1.43263519
-0.98110986	0.01775608	1.43262267
-0.98190218	0.01735245	1.43261588
-0.98254478	0.01664172	1.43261063
-0.98296493	0.01581327	1.43260741
-0.98321038	0.01513251	1.43260562
-0.98363268	0.01464741	1.43260217
-0.98442483	0.01474996	1.43259513
-0.98651063	0.01531045	1.43257654
-0.98745072	0.01436457	1.43256867
-0.98854244	0.01457547	1.43255901
-0.98896050	0.01340384	1.43255591
-0.98940545	0.01313277	1.43255222
-0.99091309	0.01182871	1.43253958
-0.99185514	0.01173251	1.43253136
-0.99304247	0.01095539	1.43252134
-0.99366021	0.01019345	1.43251634
-0.99482059	0.00851560	1.43250704
-0.99544019	0.00860319	1.43250155
-0.99687719	0.00833818	1.43248904
-0.99781728	0.00739247	1.43248129
-0.99818742	0.00696777	1.43247831
-0.99873209	0.00690154	1.43247354
-0.99976981	0.00581732	1.43246496
-1.00001526	0.00513655	1.43246317
-1.00145435	0.00521508	1.43245041
-1.00219679	0.00470903	1.43244421
-1.00278735	0.00355252	1.43243968
-1.00365651	0.00364588	1.43243194
-1.00511217	0.00189604	1.43242013
-1.00589812	-0.00004365	1.43241417
-1.00619340	-0.00062182	1.43241191
-1.00661349	-0.00094411	1.43240845
-1.00894690	-0.00072118	1.43238771
-1.00983477	-0.00211267	1.43238068
-1.01119900	-0.00218796	1.43236876
-1.01213694	-0.00347702	1.43236113
-1.01339912	-0.00410033	1.43235040
-1.01503372	-0.00480518	1.43233645
-1.01641440	-0.00670849	1.43232524
-1.01847112	-0.00739225	1.43230760
-1.02072120	-0.00920221	1.43228877
-1.02116621	-0.00947328	1.43228495
-1.02207899	-0.01081356	1.43227768
-1.02257407	-0.01098220	1.43227339
-1.02380705	-0.01284960	1.43226361
-1.02574539	-0.01225319	1.43224621
-1.02633381	-0.01375305	1.43224180
-1.02791631	-0.01490349	1.43222857
-1.02964211	-0.01728272	1.43221462
-1.03016210	-0.01740016	1.43221009
-1.03043234	-0.01802953	1.43220806
-1.03067768	-0.01871029	1.43220627
-1.03124750	-0.01872513	1.43220127
-1.03186297	-0.01983061	1.43219650
-1.03339136	-0.02227617	1.43218434
-1.03406096	-0.02208634	1.43217838
-1.03504872	-0.02327297	1.43217027
-1.03603435	-0.02480297	1.43216240
-1.03635454	-0.02533011	1.43215990
-1.03900599	-0.02597749	1.43213689
-1.03950083	-0.02614613	1.43213272
-1.03984392	-0.02696522	1.43213010
-1.04038668	-0.02788097	1.43212581
-1.04129934	-0.02871491	1.43211818
-1.04226446	-0.02960958	1.43211019
-1.04285908	-0.02957338	1.43210495
-1.04317939	-0.03010033	1.43210244
-1.04384685	-0.03076003	1.43209696
-1.04513407	-0.03133212	1.43208587
-1.04686010	-0.03371153	1.43207204
-1.04735708	-0.03353683	1.43206751
-1.04947805	-0.03628954	1.43205035
-1.05037236	-0.03614496	1.43204236
-1.05199623	-0.03907223	1.43202972
-1.05249119	-0.03924087	1.43202543
-1.05283618	-0.03971680	1.43202269
-1.05323148	-0.04009011	1.43201935
-1.05471408	-0.04144538	1.43200707
-1.05648768	-0.04406555	1.43199289
-1.05744410	-0.04633346	1.43198574
-1.05841327	-0.04603526	1.43197703
-1.05900156	-0.04753512	1.43197262
-1.05968976	-0.04882996	1.43196726
-1.06018686	-0.04865525	1.43196285
-1.06169236	-0.05030267	1.43195045
-1.06245744	-0.05110069	1.43194413
-1.06380677	-0.05408529	1.43193388
-1.06629360	-0.05794926	1.43191409
-1.06698191	-0.05924427	1.43190873
-1.06882811	-0.06205399	1.43189394
-1.07197607	-0.06760752	1.43186927
-1.07232141	-0.06808326	1.43186653
-1.07357287	-0.07092933	1.43185699
-1.07485366	-0.07253151	1.43184662
-1.07588911	-0.07395908	1.43183827
-1.07771051	-0.07681999	1.43182373
-1.07964826	-0.08130443	1.43180919
-1.07994354	-0.08188261	1.43180692
-1.08107674	-0.08344869	1.43179774
-1.08186698	-0.08419549	1.43179119
-1.08255506	-0.08549049	1.43178582
-1.08336806	-0.08652946	1.43177927
-1.08550763	-0.09026086	1.43176246
-1.08796000	-0.10012378	1.43174613
-1.08869529	-0.10623408	1.43174291
-1.08856189	-0.10786341	1.43174505
-1.08538890	-0.12861562	1.43178403
-1.08368421	-0.13567758	1.43180275
-1.08012617	-0.14553404	1.43183935
-1.07552266	-0.15161118	1.43188310
-1.06761992	-0.16108494	1.43195772
-1.04993033	-0.17933369	1.43212306
-1.04058480	-0.18499801	1.43220830
-1.02005339	-0.19655512	1.43239510
-0.97056425	-0.21175739	1.43283844
-0.95663309	-0.21567164	1.43296301
-0.95297670	-0.21658392	1.43299568
-0.95175791	-0.21688810	1.43300653
-0.95124018	-0.21642730	1.43301094
-0.95002133	-0.21673149	1.43302178
-0.94639206	-0.21724917	1.43305397
-0.94413126	-0.21715561	1.43307376
-0.94293952	-0.21706526	1.43308425
-0.94088280	-0.21638164	1.43310189
-0.93934590	-0.21581531	1.43311512
-0.93701029	-0.21587542	1.43313575
-0.93656528	-0.21560436	1.43313944
-0.93176484	-0.21666716	1.43318224
-0.92679197	-0.21774504	1.43322659
-0.92592478	-0.21749508	1.43323410
-0.92433369	-0.21771786	1.43324816
-0.92159653	-0.21843439	1.43327272
-0.92082697	-0.21832293	1.43327940
-0.91908830	-0.21850963	1.43329477
-0.91468513	-0.21960238	1.43333411
-0.91267192	-0.21984628	1.43335187
-0.91145957	-0.21912050	1.43336213
-0.90666127	-0.21983998	1.43340480
-0.90303195	-0.22035769	1.43343699
-0.89940268	-0.22087543	1.43346918
-0.89818382	-0.22117959	1.43348002
-0.89736873	-0.22048378	1.43348682
-0.89416158	-0.22098058	1.43351531
-0.89329433	-0.22073059	1.43352282
-0.89175320	-0.22085096	1.43353641
-0.88886845	-0.22153141	1.43356216
-0.88484186	-0.22201897	1.43359780
-0.88084024	-0.22245556	1.43363321
-0.88027269	-0.22209714	1.43363810
-0.87920362	-0.22209404	1.43364751
-0.87758756	-0.22236806	1.43366182
-0.87709695	-0.22151287	1.43366563
-0.87433696	-0.22193724	1.43369019
-0.87239850	-0.22202745	1.43370724
-0.87006068	-0.22243074	1.43372810
-0.86837411	-0.22217172	1.43374276
-0.86479467	-0.22258718	1.43377447
-0.86315805	-0.22222570	1.43378866
-0.86189139	-0.22228892	1.43379986
-0.86109698	-0.22222863	1.43380678
-0.85987818	-0.22253276	1.43381763
-0.85838473	-0.22289392	1.43383098
-0.85557699	-0.22307752	1.43385577
-0.85435814	-0.22338150	1.43386662
-0.68471515	-0.25793564	1.43537712
-0.68308347	-0.25858757	1.43539178
-0.68223470	-0.25931644	1.43539965
-0.68184888	-0.25959477	1.43540323
-0.68135178	-0.25976947	1.43540764
-0.68098885	-0.26001501	1.43541098
-0.67993337	-0.26048332	1.43542051
-0.67915952	-0.26105833	1.43542767
-0.67726672	-0.26173270	1.43544471
-0.67667687	-0.26227617	1.43545020
-0.67566913	-0.26298523	1.43545938
-0.67544246	-0.26378947	1.43546176
-0.67275298	-0.26474690	1.43548596
-0.67275310	-0.26525307	1.43548620
-0.67043817	-0.26594850	1.43550694
-0.66876775	-0.26650530	1.43552196
-0.66834563	-0.26703256	1.43552601
-0.66697711	-0.26764402	1.43553829
-0.66580611	-0.26818886	1.43554890
-0.66485763	-0.26912245	1.43555772
-0.66408592	-0.26935428	1.43556464
-0.66274941	-0.27007842	1.43557680
-0.66178024	-0.27037662	1.43558550
-0.66058421	-0.27097276	1.43559635
-0.65929055	-0.27143049	1.43560791
-0.65852118	-0.27182519	1.43561494
-0.65528697	-0.27271640	1.43564391
-0.65457654	-0.27315426	1.43565035
-0.65274733	-0.27387273	1.43566680
-0.65197563	-0.27410460	1.43567371
-0.65049356	-0.27477419	1.43568707
-0.64934534	-0.27561125	1.43569767
-0.64844656	-0.27593616	1.43570578
-0.64718020	-0.27650574	1.43571723
-0.64612722	-0.27731812	1.43572688
-0.64478368	-0.27787834	1.43573904
-0.64356279	-0.27852568	1.43575013
-0.64191055	-0.27904865	1.43576491
-0.64121389	-0.27963305	1.43577135
-0.64083940	-0.27989507	1.43577480
-0.63884896	-0.28043091	1.43579257
-0.63836545	-0.28057081	1.43579686
-0.63824993	-0.28115380	1.43579817
-0.63643199	-0.28167453	1.43581450
-0.63493866	-0.28254187	1.43582809
-0.63364506	-0.28299963	1.43583965
-0.63179064	-0.28358799	1.43585634
-0.63160247	-0.28398123	1.43585825
-0.63093293	-0.28417107	1.43586421
-0.63035655	-0.28467977	1.43586957
-0.62911063	-0.28537852	1.43588090
-0.62793958	-0.28592339	1.43589151
-0.62574947	-0.28686896	1.43591118
-0.62450570	-0.28722432	1.43592238
-0.62308723	-0.28793818	1.43593526
-0.62231565	-0.28816980	1.43594217
-0.62169176	-0.28861910	1.43594790
-0.61999869	-0.28939009	1.43596315
-0.61880273	-0.28998625	1.43597400
-0.61756122	-0.29050443	1.43598521
-0.61740708	-0.29099208	1.43598676
-0.61636311	-0.29144391	1.43599617
-0.61589801	-0.29173148	1.43600047
-0.61519873	-0.29197142	1.43600678
-0.61452240	-0.29217881	1.43601274
-0.61342871	-0.29323921	1.43602300
-0.61253226	-0.29372716	1.43603110
-0.61181277	-0.29401943	1.43603766
-0.61195606	-0.29474205	1.43603671
-0.61071014	-0.29544058	1.43604803
-0.60881734	-0.29611495	1.43606508
-0.60838419	-0.29734629	1.43606961
-0.60037720	-0.30009967	1.43614149
-0.59908354	-0.30055732	1.43615305
-0.59797388	-0.30098349	1.43616307
-0.59670973	-0.30171591	1.43617451
-0.59672809	-0.30218843	1.43617463
-0.59540528	-0.30305907	1.43618679
-0.59336483	-0.30402222	1.43620527
-0.59234130	-0.30460316	1.43621457
-0.59169036	-0.30544701	1.43622077
-0.58711016	-0.30706018	1.43626189
-0.58575982	-0.30763775	1.43627405
-0.58454114	-0.30844805	1.43628514
-0.58384663	-0.30868927	1.43629146
-0.58298862	-0.30909103	1.43629920
-0.58211035	-0.30954516	1.43630719
-0.58158839	-0.30977106	1.43631184
-0.58153635	-0.31021670	1.43631256
-0.58033133	-0.31066737	1.43632340
-0.57967794	-0.31167310	1.43632972
-0.57930350	-0.31193489	1.43633318
-0.57596725	-0.31337431	1.43636322
-0.57200962	-0.31593215	1.43639946
-0.56810808	-0.31717616	1.43643439
-0.55805808	-0.31971705	1.43652415
-0.44778499	-0.34320000	1.43750656
-0.44283700	-0.34422672	1.43755066
-0.43612546	-0.34549132	1.43761027
-0.39667350	-0.34683213	1.43795800
-0.39165485	-0.34681955	1.43800211
-0.38559878	-0.34673533	1.43805540
-0.36915582	-0.34633049	1.43819976
-0.36756691	-0.34620997	1.43821371
-0.35448310	-0.34516418	1.43832815
-0.34071118	-0.34332979	1.43844831
-0.32964268	-0.34119061	1.43854451
-0.32170656	-0.33921459	1.43861318
-0.31977248	-0.33861831	1.43862987
-0.31060565	-0.33544406	1.43870878
-0.30758178	-0.33420914	1.43873477
-0.27272928	-0.31977841	1.43903351
-0.12410352	-0.24595508	1.44030106
-0.12331119	-0.24555163	1.44030786
-0.12093425	-0.24434091	1.44032812
-0.11934963	-0.24353364	1.44034159
-0.10527104	-0.23403165	1.44046032
-0.10148841	-0.23096865	1.44049191
-0.08977029	-0.22084895	1.44058955
-0.08505636	-0.21597335	1.44062841
-0.07765162	-0.20782384	1.44068921
-0.07585299	-0.20525488	1.44070363
-0.06670040	-0.18985933	1.44077587
-0.06598711	-0.18861553	1.44078147
-0.06134245	-0.18004166	1.44081771
-0.05611143	-0.16962442	1.44085813
-0.05333799	-0.16380905	1.44087946
-0.05299497	-0.16298994	1.44088197
-0.04356050	-0.13987558	1.44095254
-0.02656198	-0.09419936	1.44107759
-0.02558494	-0.09129612	1.44108462
-0.02538949	-0.09051292	1.44108593
-0.02480960	-0.08764000	1.44108951
-0.01631993	-0.03903674	1.44113815
-0.01192415	-0.00827071	1.44116032
-0.01152539	-0.00350308	1.44116127
-0.01051950	0.01103029	1.44116223
-0.01043457	0.01373474	1.44116163
-0.01146680	0.02906917	1.44114423
-0.01284957	0.04088941	1.44112575
-0.01624650	0.05752803	1.44108701
-0.01808017	0.06553257	1.44106662
-0.02435923	0.08402694	1.44100142
-0.03648400	0.11336646	1.44087911
-0.03751597	0.11582687	1.44086874
-0.04148746	0.12483750	1.44082892
-0.05421430	0.15253063	1.44070220
-0.06167927	0.16787985	1.44062829
-0.06832573	0.18052566	1.44056308
-0.07472274	0.19265917	1.44050026
-0.08056858	0.20332283	1.44044316
-0.09298089	0.22089274	1.44032454
-0.09468254	0.22303683	1.44030845
-0.12816370	0.26337907	1.43999243
-0.15241167	0.28647324	1.43976676
-0.18724820	0.31761169	1.43944371
-0.23148116	0.35674185	1.43903375
-0.24870706	0.37014693	1.43887508
-0.25148928	0.37230417	1.43884945
-0.26730388	0.38432541	1.43870389
-0.27356458	0.38908091	1.43864632
-0.33048427	0.42124543	1.43812847
-0.33441949	0.42340776	1.43809271
-0.36070174	0.43121123	1.43785739
-0.51231408	0.48106468	1.43649721
-0.51486969	0.48191145	1.43647432
-0.51678753	0.48263708	1.43645704
-0.51905251	0.48373625	1.43643653
-0.52052313	0.48438948	1.43642330
-0.52060008	0.48488647	1.43642235
-0.52403402	0.48618725	1.43639147
-0.52864105	0.48837638	1.43634975
-0.53135544	0.48938498	1.43632531
-0.53185248	0.48955977	1.43632090
-0.53280103	0.49049330	1.43631196
-0.53608948	0.49217361	1.43628216
-0.53830880	0.49385691	1.43626177
-0.54159725	0.49553707	1.43623197
-0.54326755	0.49660003	1.43621671
-0.54404134	0.49717528	1.43620956
-0.54578429	0.49804848	1.43619382
-0.55730277	0.50140589	1.43609071
-0.57757968	0.50718963	1.43590927
-0.58247769	0.50811392	1.43586564
-0.58361739	0.50757772	1.43585598
-0.75411069	0.53562993	1.43434143
