//X	Y	Z
-0.44088519	0.41054213	1.38447630
-0.44598851	0.40713540	1.38443315
-0.45091569	0.40222079	1.38438547
-0.45342845	0.39894816	1.38435841
-0.45409688	0.39804587	1.38435102
-0.45409486	0.39746499	1.38434887
-0.45446825	0.39691696	1.38434458
-0.45606977	0.39440149	1.38432574
-0.45741335	0.39211789	1.38430929
-0.45867416	0.38997719	1.38429379
-0.45902151	0.38912356	1.38428867
-0.46223214	0.38481909	1.38425350
-0.46202227	0.38338986	1.38424945
-0.46369249	0.38048390	1.38422883
-0.46412051	0.37890658	1.38422036
-0.46424046	0.37753057	1.38421464
-0.46449637	0.37671784	1.38421011
-0.46456173	0.37637129	1.38420844
-0.46484375	0.37586418	1.38420486
-0.46462068	0.37539274	1.38420451
-0.46431920	0.37511525	1.38420522
-0.46507043	0.37407014	1.38419688
-0.46479088	0.37293655	1.38419437
-0.46485189	0.37253904	1.38419259
-0.46590039	0.37060973	1.38417912
-0.46594837	0.37005928	1.38417685
-0.46600503	0.36961088	1.38417482
-0.46637642	0.36848179	1.38416851
-0.46641138	0.36777872	1.38416564
-0.46644631	0.36707541	1.38416290
-0.46648559	0.36642319	1.38416028
-0.46641377	0.36613813	1.38415956
-0.46634203	0.36585280	1.38415897
-0.46683523	0.36503962	1.38415301
-0.46693760	0.36457071	1.38415074
-0.46672431	0.36429605	1.38415098
-0.46705532	0.36372441	1.38414681
-0.46712404	0.36294290	1.38414359
-0.46740061	0.36228994	1.38413954
-0.46747029	0.36199433	1.38413799
-0.46756944	0.36156914	1.38413584
-0.46782428	0.36066169	1.38413095
-0.46780044	0.35982612	1.38412809
-0.46808681	0.35936990	1.38412464
-0.46819788	0.35900286	1.38412261
-0.46832862	0.35830963	1.38411927
-0.46829388	0.35790208	1.38411796
-0.46847361	0.35675329	1.38411272
-0.57713586	0.22229283	1.38296568
-0.57769537	0.22233848	1.38296247
-0.57826144	0.22190510	1.38295746
-0.57885128	0.22230732	1.38295543
-0.57944572	0.22164968	1.38294947
-0.57974511	0.22134650	1.38294649
-0.58036333	0.22152440	1.38294351
-0.58123308	0.22083864	1.38293576
-0.58213991	0.22003059	1.38292730
-0.58306849	0.21947730	1.38291967
-0.58683544	0.21454287	1.38287890
-0.58799160	0.21340105	1.38286781
-0.58868182	0.21275347	1.38286126
-0.58980858	0.21134984	1.38284934
-0.59019387	0.21085975	1.38284528
-0.59080350	0.21093577	1.38284183
-0.59200537	0.20977348	1.38283038
-0.59260845	0.20921788	1.38282466
-0.59322464	0.20881489	1.38281953
-0.59383208	0.20831025	1.38281405
-0.59623146	0.20593451	1.38279092
-0.59718829	0.20515689	1.38278234
-0.59779578	0.20465223	1.38277674
-0.59827042	0.20425993	1.38277245
-0.59863722	0.20419073	1.38277006
-0.59959412	0.20341316	1.38276148
-0.60013849	0.20272508	1.38275564
-0.60137510	0.20197028	1.38274539
-0.60197383	0.20136374	1.38273966
-0.60231459	0.20098889	1.38273621
-0.60350549	0.20025465	1.38272631
-0.60441232	0.19944665	1.38271797
-0.60496104	0.19880947	1.38271224
-0.60556185	0.19878367	1.38270855
-0.60587001	0.19858219	1.38270605
-0.60706085	0.19784793	1.38269615
-0.60823441	0.19690990	1.38268566
-0.60915858	0.19630545	1.38267791
-0.61033869	0.19488844	1.38266563
-0.61098099	0.19479132	1.38266134
-0.61221981	0.19350658	1.38264918
-0.61279899	0.19322604	1.38264477
-0.61455387	0.19147754	1.38262773
-0.61490327	0.19120476	1.38262463
-0.61552370	0.19085276	1.38261962
-0.61582744	0.19060048	1.38261688
-0.61673433	0.18979234	1.38260841
-0.61827254	0.18820441	1.38259339
-0.61885172	0.18792386	1.38258886
-0.61935467	0.18730727	1.38258362
-0.62000346	0.18673113	1.38257754
-0.62096035	0.18595354	1.38256896
-0.62162226	0.18553004	1.38256347
-0.62192166	0.18522686	1.38256049
-0.62571687	0.18006815	1.38251877
-0.63103545	0.17147718	1.38245523
-0.63234192	0.16931596	1.38243937
-0.65035510	0.13612689	1.38220918
-0.65074384	0.13520177	1.38220334
-0.66325247	0.10259442	1.38200831
-0.66463697	0.09570166	1.38197458
-0.66465598	0.09305915	1.38196468
-0.66423488	0.08517693	1.38193822
-0.66233450	0.07114516	1.38189793
-0.65905428	0.06228952	1.38188493
-0.63381165	0.02176276	1.38188708
-0.63260996	0.02181447	1.38189447
-0.63199508	0.02159259	1.38189733
-0.48773938	-0.07423064	1.38240945
-0.48843637	-0.07646787	1.38239706
-0.48848003	-0.07706930	1.38239455
-0.48859769	-0.07791533	1.38239074
-0.48827884	-0.07839663	1.38239086
-0.48838350	-0.07939551	1.38238657
-0.48855788	-0.08069016	1.38238072
-0.48819768	-0.08109996	1.38238132
-0.48834139	-0.08164036	1.38237846
-0.48839808	-0.08208878	1.38237655
-0.48799652	-0.08242732	1.38237774
-0.48809022	-0.08299813	1.38237500
-0.48785412	-0.08362236	1.38237417
-0.48764846	-0.08388984	1.38237441
-0.48719677	-0.08425876	1.38237572
-0.48748639	-0.08475872	1.38237214
-0.48746035	-0.08506435	1.38237119
-0.48742557	-0.08547187	1.38236988
-0.48706967	-0.08583093	1.38237071
-0.48723522	-0.08611665	1.38236868
-0.48705781	-0.08660839	1.38236797
-0.48707750	-0.08693457	1.38236654
-0.48682171	-0.08723244	1.38236701
-0.48646817	-0.08812126	1.38236582
-0.48653781	-0.08841702	1.38236439
-0.48619846	-0.08977763	1.38236141
-0.48606792	-0.09019522	1.38236058
-0.48574364	-0.09082217	1.38236022
-0.48598862	-0.09120689	1.38235736
-0.48578730	-0.09142358	1.38235784
-0.48531389	-0.09204718	1.38235831
-0.48555347	-0.09257758	1.38235497
-0.48547298	-0.09296457	1.38235402
-0.48486570	-0.09357053	1.38235545
-0.48502252	-0.09395833	1.38235307
-0.48509222	-0.09425390	1.38235152
-0.48488659	-0.09452155	1.38235176
-0.48460037	-0.09517601	1.38235104
-0.48459831	-0.09575689	1.38234901
-0.48434481	-0.09658487	1.38234746
-0.48423058	-0.09689341	1.38234699
-0.48391175	-0.09737469	1.38234711
-0.48387697	-0.09778221	1.38234580
-0.48378673	-0.09836579	1.38234425
-0.48351586	-0.09939756	1.38234198
-0.48348981	-0.09970319	1.38234103
-0.48311111	-0.10041164	1.38234079
-0.48320591	-0.10088778	1.38233840
-0.48303288	-0.10132858	1.38233781
-0.48286858	-0.10166752	1.38233757
-0.48266292	-0.10193516	1.38233781
-0.48239207	-0.10296675	1.38233566
-0.48216468	-0.10348909	1.38233507
-0.48200470	-0.10377710	1.38233495
-0.48141274	-0.10476021	1.38233495
-0.48119837	-0.10512954	1.38233483
-0.48085344	-0.10591645	1.38233399
-0.48033327	-0.10661445	1.38233459
-0.48000032	-0.10734326	1.38233387
-0.47977829	-0.10771976	1.38233376
-0.47939101	-0.10853013	1.38233316
-0.47898504	-0.10891959	1.38233411
-0.47881866	-0.10983940	1.38233173
-0.47835726	-0.11040493	1.38233244
-0.47819296	-0.11074387	1.38233221
-0.47795683	-0.11136809	1.38233125
-0.47739097	-0.11204556	1.38233221
-0.47698832	-0.11247878	1.38233304
-0.47679359	-0.11317430	1.38233161
-0.47648340	-0.11355370	1.38233209
-0.47663152	-0.11404316	1.38232934
-0.47589922	-0.11564043	1.38232791
-0.47565880	-0.11631545	1.38232684
-0.47526067	-0.11780854	1.38232374
-0.47474051	-0.11850635	1.38232422
-0.47443467	-0.11883480	1.38232493
-0.47427261	-0.11970367	1.38232267
-0.47463095	-0.12098558	1.38231575
-0.47386807	-0.12182861	1.38231730
-0.47334582	-0.12310728	1.38231564
-0.47376063	-0.12372679	1.38231087
-0.47115976	-0.12721634	1.38231361
-0.47114033	-0.12800100	1.38231087
-0.47121227	-0.12882650	1.38230741
-0.46973658	-0.13048220	1.38231015
-0.46922943	-0.13102734	1.38231122
-0.46867660	-0.13155180	1.38231254
-0.46852762	-0.13226807	1.38231087
-0.46775603	-0.13321294	1.38231194
-0.46564472	-0.13525033	1.38231719
-0.46542165	-0.13572171	1.38231671
-0.46412557	-0.13741556	1.38231826
-0.46421492	-0.13803734	1.38231540
-0.45993772	-0.14108290	1.38232982
-0.45591629	-0.14383046	1.38234389
-0.44416642	-0.15164275	1.38238561
-0.43901736	-0.15458342	1.38240564
-0.43718565	-0.15548751	1.38241327
-0.43473130	-0.15662029	1.38242376
-0.42955595	-0.15875578	1.38244700
-0.42818132	-0.15914515	1.38245380
-0.41875765	-0.16112354	1.38250303
-0.41509503	-0.16172579	1.38252270
-0.41068903	-0.16238663	1.38254678
-0.39364272	-0.16396582	1.38264310
-0.39286542	-0.16283509	1.38265204
-0.39246157	-0.16264367	1.38265514
-0.39225358	-0.16238137	1.38265729
-0.39199123	-0.16220044	1.38265955
-0.39152867	-0.16214129	1.38266253
-0.21967977	-0.14175186	1.38376832
-0.21894071	-0.14175947	1.38377273
-0.21872634	-0.14212883	1.38377261
-0.21818879	-0.14303057	1.38377249
-0.21653871	-0.14339177	1.38378108
-0.21605331	-0.14368208	1.38378286
-0.21158075	-0.14337152	1.38381088
-0.21151224	-0.14370060	1.38381004
-0.21066433	-0.14387092	1.38381457
-0.21005914	-0.14389603	1.38381803
-0.20839380	-0.14388010	1.38382816
-0.20769715	-0.14386433	1.38383234
-0.20718776	-0.14387940	1.38383532
-0.20668271	-0.14384365	1.38383853
-0.20649226	-0.14409712	1.38383877
-0.20634760	-0.14476228	1.38383710
-0.20551275	-0.14477979	1.38384211
-0.20525700	-0.14507782	1.38384247
-0.20267403	-0.14493649	1.38385856
-0.20147237	-0.14488497	1.38386595
-0.20081711	-0.14494047	1.38386965
-0.20046452	-0.14534329	1.38387024
-0.19979620	-0.14555164	1.38387358
-0.19928682	-0.14556684	1.38387656
-0.19886127	-0.14563012	1.38387883
-0.19797195	-0.14572901	1.38388383
-0.19764112	-0.14587711	1.38388526
-0.19734834	-0.14605272	1.38388634
-0.19691408	-0.14621791	1.38388836
-0.19579947	-0.14625823	1.38389492
-0.19494727	-0.14647950	1.38389921
-0.19453363	-0.14648470	1.38390160
-0.19401553	-0.14660180	1.38390434
-0.19369006	-0.14660409	1.38390625
-0.19302613	-0.14676146	1.38390970
-0.19265823	-0.14678715	1.38391173
-0.19222832	-0.14690138	1.38391399
-0.19123350	-0.14720689	1.38391876
-0.19097774	-0.14750494	1.38391924
-0.18972167	-0.14753480	1.38392663
-0.18920356	-0.14765191	1.38392937
-0.18840139	-0.14784259	1.38393342
-0.18738261	-0.14787304	1.38393939
-0.18690695	-0.14796671	1.38394189
-0.18546583	-0.14810425	1.38395011
-0.18508597	-0.14818785	1.38395202
-0.18456353	-0.14835589	1.38395452
-0.18371564	-0.14852625	1.38395905
-0.18269685	-0.14855653	1.38396502
-0.18167041	-0.14859398	1.38397098
-0.18160190	-0.14892304	1.38397026
-0.18048297	-0.14901428	1.38397658
-0.17985171	-0.14934501	1.38397920
-0.17881988	-0.14952831	1.38398468
-0.17793493	-0.14957622	1.38398981
-0.17755510	-0.14966007	1.38399172
-0.17730802	-0.14985606	1.38399255
-0.17684001	-0.14994271	1.38399506
-0.17655160	-0.15006740	1.38399625
-0.17607486	-0.15025581	1.38399851
-0.17533253	-0.15021949	1.38400304
-0.17480573	-0.15043850	1.38400543
-0.17410804	-0.15051740	1.38400924
-0.17325580	-0.15073869	1.38401353
-0.17291732	-0.15089397	1.38401508
-0.17216522	-0.15105429	1.38401902
-0.17161992	-0.15124343	1.38402152
-0.17107897	-0.15131886	1.38402450
-0.17082758	-0.15156597	1.38402510
-0.17030185	-0.15169008	1.38402784
-0.16969667	-0.15171517	1.38403130
-0.16914707	-0.15228361	1.38403249
-0.16848750	-0.15239021	1.38403606
-0.16818710	-0.15257286	1.38403726
-0.16789761	-0.15279244	1.38403821
-0.16747531	-0.15289950	1.38404024
-0.16703668	-0.15311559	1.38404214
-0.16639237	-0.15359917	1.38404417
-0.16509385	-0.15365244	1.38405180
-0.16475101	-0.15385848	1.38405311
-0.16322277	-0.15390401	1.38406205
-0.16238363	-0.15397240	1.38406682
-0.16062248	-0.15396658	1.38407743
-0.16019687	-0.15402968	1.38407981
-0.15963307	-0.15412624	1.38408279
-0.10746642	-0.15007849	1.38441062
-0.08528244	-0.14471453	1.38456333
-0.08381619	-0.14395218	1.38457501
-0.08234990	-0.14318979	1.38458657
-0.07850388	-0.14037782	1.38461995
-0.04552449	-0.10809022	1.38493669
-0.03462461	-0.09499949	1.38505030
-0.03298604	-0.09236158	1.38506985
-0.03196587	-0.09065655	1.38508224
-0.03038383	-0.08774769	1.38510251
-0.02962168	-0.08627457	1.38511240
-0.01775412	-0.06036687	1.38527906
-0.01662058	-0.05776482	1.38529551
-0.01319827	-0.04961937	1.38534594
-0.00796798	-0.03504860	1.38543105
-0.00666036	-0.02628586	1.38547111
0.01204781	0.13717523	1.38618553
0.01308809	0.16176848	1.38628232
0.00908160	0.19581106	1.38638377
0.00788078	0.20092186	1.38639534
0.00712243	0.20282476	1.38639784
-0.00143111	0.21407843	1.38638806
-0.00781944	0.22027218	1.38637257
-0.01377150	0.22460926	1.38635278
-0.01903382	0.22776377	1.38633287
-0.06131355	0.25289932	1.38617194
-0.07988003	0.26349771	1.38609958
-0.09163798	0.26811066	1.38604605
-0.20881379	0.30909052	1.38549435
-0.26625675	0.32945603	1.38522482
-0.26843131	0.33056593	1.38521588
-0.27397346	0.33263245	1.38519025
-0.27417913	0.33290014	1.38519001
-0.27525443	0.33359262	1.38518608
-0.27588898	0.33387959	1.38518333
-0.27648753	0.33438367	1.38518167
-0.27853698	0.33522207	1.38517249
-0.27896574	0.33596092	1.38517261
-0.30783781	0.34679925	1.38503933
-0.30768970	0.34728873	1.38504207
-0.30997318	0.34817028	1.38503158
-0.30967915	0.34901053	1.38503647
-0.31150550	0.34976882	1.38502836
-0.31153587	0.35012540	1.38502944
-0.31206477	0.35092509	1.38502920
-0.31255454	0.35126647	1.38502753
-0.31356451	0.35191441	1.38502383
-0.31345987	0.35258502	1.38502693
-0.31421849	0.35298604	1.38502395
-0.31426197	0.35349542	1.38502550
-0.31522951	0.35411996	1.38502204
-0.31527188	0.35453463	1.38502324
-0.31636465	0.35503983	1.38501859
-0.31617507	0.35599184	1.38502324
-0.31704903	0.35646781	1.38501978
-0.31713060	0.35694969	1.38502109
-0.31715667	0.35725537	1.38502204
-0.31746686	0.35763475	1.38502157
-0.31745800	0.35825241	1.38502383
-0.31767014	0.35915175	1.38502586
-0.31765485	0.35952884	1.38502741
-0.31809872	0.36100137	1.38503015
-0.31949073	0.36159447	1.38502395
-0.31970510	0.36196384	1.38502407
-0.32019696	0.36288592	1.38502455
-0.32037202	0.36390761	1.38502717
-0.32145166	0.36465123	1.38502347
-0.32159090	0.36517051	1.38502455
-0.32193911	0.36552241	1.38502383
-0.32262048	0.36588374	1.38502097
-0.32278806	0.36617872	1.38502109
-0.32296214	0.36671442	1.38502204
-0.32351929	0.36729002	1.38502085
-0.32364118	0.36760569	1.38502121
-0.32399380	0.36800835	1.38502061
-0.32429090	0.36823493	1.38501966
-0.32458800	0.36846149	1.38501871
-0.32476103	0.36890250	1.38501930
-0.32507333	0.36914322	1.38501835
-0.32528773	0.36951259	1.38501835
-0.32563916	0.37054005	1.38502002
-0.32612452	0.37083051	1.38501823
-0.32616255	0.37119406	1.38501930
-0.32636270	0.37203544	1.38502121
-0.32710823	0.37267473	1.38501918
-0.32819659	0.37352023	1.38501573
-0.32884413	0.37395984	1.38501346
-0.32868838	0.37444234	1.38501620
-0.32937297	0.37475970	1.38501322
-0.32925427	0.37511975	1.38501525
-0.32901907	0.37570107	1.38501883
-0.32904518	0.37600672	1.38501978
-0.33024666	0.37706587	1.38501644
-0.33147097	0.37847459	1.38501430
-0.33185947	0.37866029	1.38501263
-0.33229047	0.37886921	1.38501084
-0.33249617	0.37913671	1.38501060
-0.33237082	0.38036704	1.38501585
-0.33344612	0.38105953	1.38501203
-0.33374318	0.38128614	1.38501108
-0.33399457	0.38153321	1.38501048
-0.33391726	0.38182181	1.38501203
-0.33420777	0.38252741	1.38501287
-0.33553654	0.38404787	1.38501048
-0.33661187	0.38474041	1.38500655
-0.33739430	0.38564855	1.38500524
-0.33845764	0.38628328	1.38500118
-0.33835083	0.38709238	1.38500476
-0.33877295	0.38831025	1.38500679
-0.34339640	0.39073578	1.38498795
-0.34413752	0.39132407	1.38498569
-0.34431922	0.39186680	1.38498664
-0.34472516	0.39225623	1.38498557
-0.34466416	0.39265373	1.38498747
-0.34601915	0.39336923	1.38498199
-0.34672225	0.39398506	1.38497996
-0.34722936	0.39453024	1.38497901
-0.34969878	0.39639670	1.38497102
-0.35052812	0.39698792	1.38496828
-0.35177967	0.39807746	1.38496470
-0.35212356	0.39837837	1.38496375
-0.35211262	0.39880648	1.38496542
-0.35293654	0.39925200	1.38496208
-0.35334355	0.39973620	1.38496149
-0.35456675	0.40105003	1.38495898
-0.35721579	0.40287831	1.38494980
-0.36839131	0.40847236	1.38490343
-0.37204611	0.41017827	1.38488781
-0.38675451	0.41696003	1.38482451
-0.39868045	0.41952094	1.38476253
-0.40340984	0.41960317	1.38473439
-0.40725219	0.41944772	1.38471079
-0.41093776	0.41928875	1.38468814
-0.43482628	0.41338232	1.38452303
-0.43889746	0.41162267	1.38449216
-0.44009703	0.41099030	1.38448262
