//X	Y	Z
-0.41692358	-0.30832747	4.28392458
-0.38128656	-0.30833343	4.28391886
-0.37842578	-0.30830127	4.28391886
-0.36628771	-0.30815065	4.28391695
-0.36147866	-0.30787954	4.28391600
-0.35786825	-0.30720904	4.28391552
-0.34247199	-0.30402350	4.28391361
-0.33722582	-0.30224854	4.28391266
-0.30355272	-0.28833541	4.28390789
-0.23166671	-0.25596756	4.28389740
-0.21783404	-0.24894698	4.28389549
-0.17567223	-0.21606562	4.28388977
-0.17335489	-0.21411318	4.28388929
-0.16752005	-0.20889132	4.28388834
-0.16168520	-0.20366938	4.28388786
-0.13608155	-0.17850570	4.28388405
-0.11193374	-0.15121454	4.28388071
-0.08573851	-0.11917127	4.28387737
-0.06798258	-0.09558002	4.28387499
-0.05554709	-0.06414738	4.28387356
-0.03108379	0.03325823	4.28387070
-0.03117871	0.03389455	4.28387070
-0.01687461	0.10160226	4.28386927
0.01177761	0.22414868	4.28386641
0.01262492	0.22758368	4.28386641
0.01442724	0.23274586	4.28386641
0.01717317	0.24242312	4.28386593
0.02264097	0.26563755	4.28386545
0.02586511	0.27703652	4.28386497
0.03073063	0.29640585	4.28386450
0.03186491	0.30111876	4.28386450
0.03566498	0.31703603	4.28386402
0.06960508	0.45956498	4.28386021
0.07303464	0.47205260	4.28386021
0.06359288	0.48758250	4.28386164
0.05692196	0.49265692	4.28386259
0.05403563	0.49476811	4.28386307
0.05189756	0.49580151	4.28386354
0.05109411	0.49601704	4.28386354
0.04724008	0.49747276	4.28386402
0.04523796	0.49808767	4.28386450
0.04428440	0.49807692	4.28386450
0.03692985	0.50034082	4.28386545
0.03458697	0.50053185	4.28386593
0.02686328	0.50108254	4.28386736
0.02554196	0.50107503	4.28386736
0.02287182	0.50124061	4.28386784
0.02159020	0.49973422	4.28386784
0.01775026	0.50183493	4.28386831
0.01626471	0.50095648	4.28386879
0.01385239	0.49964029	4.28386927
0.00905749	0.50001383	4.28386974
0.00773475	0.49828994	4.28386974
-0.00493252	0.50070429	4.28387165
-0.00682691	0.49961108	4.28387213
-0.01054639	0.49893212	4.28387260
-0.01894802	0.50353801	4.28387403
-0.17759708	0.55588603	4.28389788
-0.18692537	0.56005406	4.28389931
-0.18929522	0.56067204	4.28389978
-0.19606391	0.56294996	4.28390074
-0.19681352	0.56231141	4.28390074
-0.20045000	0.56353790	4.28390121
-0.20325552	0.56436825	4.28390169
-0.21046127	0.56514204	4.28390312
-0.21181093	0.56384504	4.28390312
-0.21637405	0.56463397	4.28390360
-0.22016153	0.56416422	4.28390455
-0.22187747	0.56458670	4.28390455
-0.22382717	0.56263113	4.28390503
-0.22787386	0.56192666	4.28390551
-0.22968610	0.56126928	4.28390551
-0.23840724	0.55815858	4.28390694
-0.40488690	0.59649217	4.28393221
-0.41128504	0.60219967	4.28393316
-0.41380361	0.60430771	4.28393364
-0.41583121	0.60706586	4.28393364
-0.42162934	0.61343193	4.28393459
-0.42510012	0.61724585	4.28393507
-0.42505762	0.61917984	4.28393507
-0.42751956	0.62386686	4.28393555
-0.42947778	0.62813228	4.28393602
-0.43513989	0.63407975	4.28393698
-0.43768537	0.63661486	4.28393745
-0.43784833	0.63746035	4.28393745
-0.44199929	0.64214295	4.28393793
-0.44511792	0.64359266	4.28393841
-0.44511649	0.64530891	4.28393841
-0.44612396	0.64615226	4.28393841
-0.44937649	0.64998299	4.28393936
-0.44978395	0.65148491	4.28393936
-0.45287284	0.65594035	4.28393984
-0.45469642	0.65807068	4.28393984
-0.45479134	0.65870702	4.28393984
-0.45585263	0.66040432	4.28394032
-0.45686007	0.66124743	4.28394032
-0.45775843	0.66209918	4.28394032
-0.45907831	0.66380805	4.28394079
-0.46056113	0.66636235	4.28394079
-0.46205810	0.66827202	4.28394127
-0.46542123	0.67037791	4.28394175
-0.46768114	0.67247438	4.28394222
-0.46981862	0.67375404	4.28394222
-0.49209565	0.68592441	4.28394604
-0.49328011	0.68696851	4.28394604
-0.49453202	0.68846816	4.28394604
-0.50091743	0.69310397	4.28394747
-0.50138003	0.69374305	4.28394747
-0.50196457	0.69544578	4.28394747
-0.50531352	0.69819629	4.28394794
-0.50681043	0.70010608	4.28394842
-0.50883806	0.70286423	4.28394842
-0.50993896	0.70606011	4.28394890
-0.51028979	0.71014065	4.28394890
-0.51219559	0.71183580	4.28394890
-0.51385689	0.71287453	4.28394938
-0.51685083	0.71669376	4.28394985
-0.51863337	0.71904182	4.28395033
-0.52064824	0.72072840	4.28395033
-0.52203619	0.72264642	4.28395081
-0.52263194	0.72713715	4.28395081
-0.52408791	0.72926450	4.28395128
-0.52638829	0.73138952	4.28395128
-0.52810347	0.73328233	4.28395176
-0.53030896	0.73477125	4.28395224
-0.53038967	0.73605204	4.28395224
-0.53274393	0.73903131	4.28395224
-0.53396952	0.73985744	4.28395271
-0.53467667	0.74115324	4.28395271
-0.53900611	0.74432009	4.28395319
-0.53957784	0.74495095	4.28395367
-0.53974074	0.74579662	4.28395367
-0.54357779	0.75132996	4.28395414
-0.54518390	0.75323099	4.28395462
-0.54616302	0.75536358	4.28395462
-0.54847616	0.75856054	4.28395510
-0.54983723	0.76005167	4.28395510
-0.55383992	0.76299781	4.28395557
-0.55541909	0.76447171	4.28395605
-0.55781299	0.76894951	4.28395653
-0.55838335	0.77129686	4.28395653
-0.55889988	0.77279007	4.28395653
-0.56272554	0.77553558	4.28395748
-0.56216514	0.77769262	4.28395700
-0.56617934	0.78342688	4.28395796
-0.56503171	0.78731424	4.28395748
-0.56701964	0.78857392	4.28395796
-0.57116979	0.79472643	4.28395891
-0.57258463	0.79707164	4.28395891
-0.57359201	0.79791474	4.28395891
-0.57986701	0.80427545	4.28395987
-0.58238411	0.80810004	4.28396034
-0.58712244	0.81105220	4.28396130
-0.58958435	0.81573927	4.28396177
-0.59604907	0.82337230	4.28396273
-0.59690630	0.82444185	4.28396273
-0.60217386	0.82995933	4.28396368
-0.60577923	0.83590788	4.28396416
-0.60704523	0.83676285	4.28396463
-0.60771191	0.83802998	4.28396463
-0.60765529	0.84060872	4.28396463
-0.60972255	0.84486562	4.28396511
-0.61147821	0.84678698	4.28396511
-0.61360073	0.85018140	4.28396559
-0.61549091	0.85423750	4.28396606
-0.61605978	0.85830116	4.28396606
-0.61763763	0.86149168	4.28396606
-0.61811298	0.86320287	4.28396654
-0.62389410	0.87364620	4.28396749
-0.63174951	0.87976468	4.28396845
-0.63321972	0.88124716	4.28396893
-0.63571131	0.88292837	4.28396940
-0.63750798	0.88463199	4.28396940
-0.64142871	0.88801348	4.28396988
-0.64115584	0.88864666	4.28396988
-0.64882290	0.89177608	4.28397131
-0.65801513	0.89552575	4.28397274
-0.67345393	0.89040619	4.28397465
-0.67726970	0.88864702	4.28397560
-0.68856251	0.87222570	4.28397703
-0.69606507	0.85970682	4.28397799
-0.69797647	0.85453618	4.28397799
-0.69822657	0.84832686	4.28397799
-0.69655442	0.84425384	4.28397799
-0.69968510	0.83050209	4.28397799
-0.70007116	0.82471126	4.28397799
-0.69846511	0.82281029	4.28397799
-0.69854861	0.82065833	4.28397799
-0.69685328	0.81125546	4.28397751
-0.69747865	0.79622102	4.28397751
-0.69737661	0.78764743	4.28397751
-0.69514358	0.78597802	4.28397703
-0.69150907	0.78278857	4.28397655
-0.69121301	0.77809179	4.28397608
-0.69156086	0.76908594	4.28397608
-0.69195807	0.74956411	4.28397608
-0.69097459	0.73606133	4.28397560
-0.69036466	0.73221540	4.28397560
-0.68965828	0.72944969	4.28397560
-0.71494234	0.57715398	4.28397751
-0.72730207	0.55556434	4.28397942
-0.72870970	0.54997200	4.28397942
-0.72922903	0.54803240	4.28397942
-0.73196077	0.53899986	4.28397989
-0.73433912	0.52931958	4.28397989
-0.73462594	0.52804166	4.28397989
-0.73533654	0.52565819	4.28398037
-0.73584163	0.52436358	4.28398037
-0.74082839	0.50630373	4.28398085
-0.74506140	0.49403137	4.28398132
-0.78469181	0.33964133	4.28398561
-0.79004693	0.33785778	4.28398609
-0.79285812	0.33182243	4.28398657
-0.79651093	0.32921785	4.28398705
-0.79914141	0.32788473	4.28398752
-0.80323005	0.32549226	4.28398800
-0.80903375	0.32499266	4.28398895
-0.81106555	0.32260182	4.28398943
-0.81142044	0.32153317	4.28398943
-0.81666946	0.31632510	4.28398991
-0.81911004	0.31371966	4.28399038
-0.82783127	0.31060898	4.28399181
-0.83208132	0.31077862	4.28399229
-0.83642775	0.30986801	4.28399277
-0.83787227	0.30920720	4.28399324
-0.84762347	0.31251609	4.28399467
-0.85264164	0.30625343	4.28399515
-0.85465926	0.30450711	4.28399563
-0.85899425	0.30080852	4.28399611
-0.86219728	0.29863626	4.28399658
-0.87283838	0.29657599	4.28399801
-0.87631339	0.29524064	4.28399849
-0.88005829	0.29670504	4.28399897
-0.88113511	0.29604116	4.28399944
-0.88151693	0.29539949	4.28399944
-0.88722718	0.29254735	4.28400040
-0.88965368	0.29058641	4.28400040
-0.89910591	0.27611193	4.28400183
-0.90290606	0.27671391	4.28400230
-0.90585041	0.27452987	4.28400278
-0.91833067	0.27223915	4.28400469
-0.92462814	0.26765668	4.28400564
-0.92709428	0.26719445	4.28400564
-0.93088317	0.26500821	4.28400660
-0.93307728	0.26370913	4.28400660
-0.94467056	0.26335460	4.28400850
-0.95021689	0.26112691	4.28400898
-0.95475411	0.26001859	4.28400993
-0.95628077	0.25892237	4.28400993
-0.96114367	0.25950515	4.28401089
-0.96544909	0.25881234	4.28401136
-0.96839190	0.25834477	4.28401184
-0.97301257	0.25508475	4.28401232
-0.97591436	0.25483498	4.28401279
-0.98514909	0.25665042	4.28401423
-0.98761529	0.25618818	4.28401470
-0.98938644	0.25574848	4.28401518
-0.99350119	0.25525311	4.28401566
-0.99625158	0.25694594	4.28401613
-1.00295496	0.25558162	4.28401709
-1.01250362	0.25654644	4.28401852
-1.01980710	0.25452355	4.28401947
-1.02611446	0.25444555	4.28402042
-1.03922760	0.26157674	4.28402233
-1.05173612	0.25799653	4.28402424
-1.06235170	0.25379291	4.28402567
-1.07294047	0.24916235	4.28402710
-1.07586765	0.25105581	4.28402758
-1.07867742	0.24673696	4.28402805
-1.07912719	0.24630462	4.28402805
-1.08995032	0.23782586	4.28402948
-1.09380734	0.23584907	4.28402996
-1.09913707	0.23192182	4.28403091
-1.10899377	0.22238225	4.28403234
-1.11382115	0.21631707	4.28403282
-1.12013566	0.20765711	4.28403378
-1.12231839	0.20356983	4.28403425
-1.13625371	0.15409467	4.28403568
-1.13767815	0.14442492	4.28403568
-1.14113533	0.11437487	4.28403568
-1.14242530	0.10257010	4.28403616
-1.14392209	0.08796059	4.28403616
-1.14124632	0.07814128	4.28403568
-1.13060582	0.04569293	4.28403378
-1.12095487	0.01963545	4.28403187
-1.11462474	0.01413717	4.28403091
-1.09202337	-0.00144058	4.28402758
-1.08916390	-0.00312498	4.28402710
-1.08575821	-0.00329653	4.28402662
-1.07326961	-0.00722658	4.28402472
-1.07006943	-0.00848710	4.28402424
-1.06459510	-0.01119934	4.28402328
-1.05973363	-0.01349864	4.28402233
-1.04681051	-0.01935725	4.28402042
-1.04585695	-0.01934657	4.28402042
-1.03945589	-0.02162132	4.28401947
-1.03588748	-0.02263850	4.28401899
-1.02452934	-0.02637867	4.28401709
-1.01899981	-0.02822842	4.28401613
-1.01104581	-0.03008022	4.28401518
-1.00937033	-0.03047401	4.28401470
-0.84845340	-0.09138570	4.28399038
-0.84730995	-0.09264762	4.28399038
-0.83941346	-0.09854815	4.28398895
-0.83710027	-0.10174486	4.28398848
-0.83271706	-0.10576576	4.28398800
-0.83120590	-0.10703072	4.28398752
-0.83111095	-0.10766699	4.28398752
-0.82257527	-0.11465400	4.28398657
-0.81998867	-0.11697149	4.28398609
-0.81895435	-0.11824161	4.28398561
-0.81127453	-0.12244283	4.28398466
-0.81028128	-0.12393091	4.28398466
-0.80050600	-0.13109954	4.28398275
-0.79789162	-0.13237384	4.28398275
-0.79496419	-0.13426751	4.28398228
-0.78886437	-0.13846448	4.28398132
-0.78556931	-0.14036131	4.28398085
-0.78171670	-0.14353353	4.28397989
-0.77828705	-0.14756510	4.28397942
-0.77729374	-0.14905311	4.28397942
-0.77112788	-0.15542208	4.28397846
-0.76600862	-0.15920302	4.28397751
-0.76504225	-0.16026412	4.28397751
-0.76377624	-0.16111897	4.28397703
-0.76320446	-0.16174990	4.28397703
-0.76232028	-0.16324618	4.28397703
-0.76070005	-0.16450271	4.28397655
-0.75699747	-0.16790108	4.28397608
-0.75491464	-0.16979703	4.28397560
-0.75208360	-0.17277075	4.28397512
-0.74725187	-0.17807573	4.28397465
-0.73693031	-0.18373179	4.28397322
-0.68062437	-0.21371257	4.28396416
-0.67540932	-0.21665968	4.28396368
-0.66846502	-0.22085468	4.28396225
-0.66601449	-0.22275348	4.28396225
-0.66322309	-0.22422862	4.28396177
-0.65794003	-0.22738476	4.28396082
-0.64912963	-0.23177610	4.28395939
-0.56109297	-0.27425572	4.28394604
-0.55956769	-0.27487603	4.28394604
-0.55527788	-0.27654412	4.28394508
-0.54273522	-0.28132805	4.28394318
-0.49818429	-0.29258239	4.28393650
-0.44985998	-0.30401167	4.28392935
-0.44032547	-0.30562094	4.28392792
-0.43276554	-0.30679631	4.28392649
-0.42380270	-0.30777472	4.28392553
