//X	Y	Z
0.22087768	-1.10544252	3.47852015
0.21740632	-1.09814370	3.47849822
0.17714226	-1.03566384	3.47830009
0.17581566	-1.03471506	3.47829628
0.17463160	-1.03485286	3.47829533
0.17170273	-1.03049910	3.47828150
0.14021492	-0.98136443	3.47812557
0.13716707	-0.98010558	3.47811937
0.13598037	-0.97899467	3.47811532
0.13468421	-0.97714007	3.47810936
0.13284567	-0.97589540	3.47810435
0.13180397	-0.97534209	3.47810173
0.13006993	-0.97406709	3.47809672
0.12911747	-0.97310221	3.47809339
0.12825170	-0.97220027	3.47809029
0.12696823	-0.97131044	3.47808671
0.07292086	-0.88368857	3.47781110
0.07090890	-0.88048607	3.47780085
0.06877495	-0.87913007	3.47779536
0.06664399	-0.87902242	3.47779274
0.06507551	-0.87946010	3.47779226
0.06347637	-0.87908095	3.47778964
0.06229231	-0.87744117	3.47778440
0.06064184	-0.87503517	3.47777653
0.03467271	-0.83449274	3.47764802
0.03369480	-0.83337581	3.47764421
0.02737635	-0.82284391	3.47761130
0.02533404	-0.82054740	3.47760344
0.02247167	-0.81865621	3.47759557
0.02156016	-0.81822437	3.47759366
0.02068684	-0.81713188	3.47759008
0.01895981	-0.81432462	3.47758126
0.01693821	-0.81318331	3.47757626
0.01532626	-0.81183940	3.47757125
0.01442465	-0.81112391	3.47756839
0.01330436	-0.81069815	3.47756624
0.00947680	-0.80687743	3.47755265
0.00781925	-0.80600363	3.47754860
-0.08809514	-0.66352689	3.47709227
-0.08802418	-0.66143119	3.47708702
-0.08838570	-0.66063452	3.47708464
-0.08974824	-0.65809476	3.47707677
-0.08932561	-0.65707934	3.47707486
-0.08959862	-0.65409392	3.47706699
-0.09335237	-0.64764822	3.47704697
-0.09440469	-0.64387834	3.47703648
-0.09524769	-0.64187968	3.47703052
-0.09515356	-0.64041024	3.47702694
-0.09713499	-0.63630164	3.47701478
-0.10617103	-0.62093556	3.47696686
-0.10544557	-0.62022221	3.47696567
-0.11575241	-0.60315353	3.47691226
-0.11841382	-0.59751052	3.47689533
-0.11873506	-0.59552431	3.47689009
-0.11873773	-0.59427583	3.47688699
-0.11878891	-0.59224880	3.47688198
-0.11971093	-0.59037805	3.47687626
-0.12069677	-0.58729321	3.47686744
-0.12181719	-0.58508992	3.47686076
-0.12090833	-0.58427298	3.47685981
-0.12181114	-0.57472473	3.47683501
-0.12208708	-0.56521249	3.47681093
-0.13233052	-0.54752582	3.47675586
-0.13094786	-0.54594284	3.47675347
-0.13169432	-0.54372346	3.47674704
-0.13402463	-0.53978306	3.47673488
-0.13552716	-0.53735089	3.47672701
-0.13748838	-0.53267479	3.47671342
-0.13589941	-0.53156006	3.47671223
-0.13634036	-0.52916843	3.47670579
-0.13732366	-0.52733213	3.47670031
-0.13703083	-0.52619493	3.47669768
-0.13718127	-0.52491796	3.47669435
-0.13731369	-0.52349317	3.47669053
-0.13814187	-0.52015293	3.47668147
-0.13779572	-0.51879072	3.47667837
-0.14011082	-0.51350868	3.47666264
-0.14052634	-0.51121438	3.47665644
-0.14162654	-0.50838882	3.47664833
-0.14147386	-0.50741398	3.47664595
-0.14172886	-0.50611281	3.47664261
-0.14169809	-0.50520658	3.47664022
-0.14210303	-0.50440598	3.47663784
-0.14216694	-0.50319183	3.47663474
-0.14164786	-0.50195557	3.47663212
-0.14272253	-0.49928215	3.47662449
-0.14317362	-0.49717423	3.47661877
-0.14371601	-0.49600670	3.47661519
-0.14318423	-0.49395764	3.47661066
-0.14542593	-0.48605072	3.47658849
-0.14637841	-0.48330826	3.47658062
-0.14906794	-0.47804242	3.47656465
-0.14920041	-0.47667220	3.47656107
-0.14961305	-0.47562635	3.47655797
-0.14901738	-0.47479141	3.47655654
-0.15256828	-0.46584269	3.47653055
-0.15487058	-0.45974785	3.47651291
-0.15575676	-0.45769033	3.47650671
-0.15620542	-0.45505348	3.47649980
-0.15741278	-0.45278749	3.47649288
-0.15754263	-0.45088813	3.47648787
-0.15751226	-0.44998220	3.47648573
-0.15762725	-0.44851893	3.47648191
-0.15873493	-0.44550285	3.47647333
-0.15883979	-0.44197828	3.47646427
-0.15821633	-0.43898863	3.47645760
-0.16004018	-0.43462470	3.47644472
-0.16208261	-0.43055069	3.47643232
-0.16349383	-0.42723259	3.47642255
-0.16244243	-0.42572480	3.47641993
-0.16277866	-0.42330262	3.47641349
-0.16437833	-0.41936851	3.47640204
-0.16346951	-0.41855180	3.47640085
-0.16447072	-0.41503102	3.47639108
-0.16520427	-0.41199875	3.47638273
-0.16459087	-0.41107056	3.47638106
-0.16633271	-0.40782741	3.47637105
-0.16629253	-0.40486020	3.47636366
-0.16849567	-0.39979297	3.47634864
-0.16898985	-0.39762631	3.47634292
-0.16935648	-0.39610997	3.47633862
-0.16964729	-0.39321777	3.47633100
-0.17042665	-0.39065567	3.47632384
-0.17063585	-0.38888428	3.47631931
-0.17359786	-0.38241035	3.47630000
-0.17588493	-0.37675115	3.47628331
-0.17538625	-0.37435961	3.47627783
-0.17646374	-0.37221524	3.47627139
-0.17814475	-0.36716008	3.47625709
-0.17762822	-0.36645281	3.47625589
-0.17876922	-0.36309427	3.47624636
-0.17672467	-0.36136132	3.47624397
-0.17837514	-0.35717779	3.47623181
-0.17747641	-0.35664469	3.47623158
-0.18025008	-0.35078722	3.47621393
-0.17972907	-0.34374386	3.47619677
-0.17988941	-0.34275061	3.47619414
-0.17978549	-0.33922005	3.47618556
-0.18055804	-0.33334821	3.47617006
-0.18223400	-0.32723510	3.47615290
-0.19220017	-0.30625254	3.47609019
-0.19295196	-0.30153602	3.47607756
-0.19447780	-0.29675466	3.47606397
-0.19823445	-0.28906035	3.47604084
-0.20183344	-0.28111106	3.47601724
-0.20427319	-0.27642679	3.47600293
-0.21558070	-0.25756019	3.47594380
-0.21838233	-0.25385708	3.47593164
-0.24435219	-0.22617692	3.47583532
-0.24825841	-0.22248369	3.47582197
-0.26161209	-0.21293437	3.47578406
-0.28982079	-0.20029110	3.47572303
-0.29563180	-0.19816881	3.47571158
-0.30695274	-0.19475490	3.47569132
-0.31609145	-0.19347543	3.47567844
-0.34198391	-0.19316965	3.47565079
-0.34778935	-0.19354439	3.47564554
-0.35165444	-0.19393927	3.47564244
-0.35761756	-0.19456929	3.47563791
-0.37275985	-0.19688696	3.47562790
-0.40909612	-0.20434159	3.47560835
-0.41489857	-0.20596462	3.47560644
-0.41786236	-0.20707518	3.47560596
-0.42502213	-0.20865566	3.47560263
-0.43517622	-0.21225262	3.47560096
-0.43567741	-0.21339571	3.47560334
-0.43928799	-0.21509200	3.47560358
-0.44073665	-0.21598983	3.47560453
-0.44348109	-0.21681041	3.47560358
-0.44418904	-0.21743071	3.47560453
-0.44685480	-0.21812361	3.47560334
-0.44958183	-0.21885115	3.47560239
-0.45055923	-0.21951175	3.47560287
-0.45267001	-0.22055942	3.47560334
-0.45405775	-0.22142285	3.47560406
-0.45907092	-0.22354662	3.47560406
-0.46171889	-0.22414649	3.47560287
-0.46437943	-0.22733653	3.47560811
-0.46426448	-0.22879982	3.47561193
-0.47252664	-0.23163909	3.47561026
-0.47449186	-0.23502165	3.47561669
-0.47816071	-0.23800093	3.47562027
-0.47939044	-0.23860878	3.47562051
-0.48028916	-0.23914194	3.47562099
-0.48386624	-0.24118072	3.47562218
-0.48473194	-0.24205625	3.47562361
-0.48720410	-0.24408489	3.47562599
-0.49035886	-0.24510837	3.47562528
-0.49093929	-0.24637920	3.47562790
-0.49349001	-0.24853545	3.47563052
-0.49715620	-0.25276339	3.47563744
-0.49882901	-0.25323141	3.47563672
-0.50051439	-0.25451231	3.47563815
-0.50142574	-0.25585794	3.47564054
-0.50421619	-0.25714880	3.47564101
-0.50849879	-0.26105642	3.47564626
-0.50830472	-0.26239216	3.47564983
-0.51239169	-0.26360601	3.47564840
-0.51289296	-0.26474905	3.47565079
-0.51531947	-0.26630747	3.47565222
-0.51615179	-0.26752555	3.47565436
-0.51757264	-0.26804644	3.47565413
-0.51816815	-0.26888144	3.47565556
-0.51870286	-0.26968217	3.47565699
-0.52247107	-0.27163374	3.47565794
-0.52432686	-0.27398270	3.47566199
-0.52488947	-0.27516019	3.47566438
-0.53110194	-0.27698594	3.47566247
-0.53167719	-0.27897638	3.47566676
-0.53142732	-0.28133547	3.47567296
-0.53143239	-0.28233892	3.47567534
-0.53466833	-0.28401893	3.47567630
-0.53628993	-0.28651375	3.47568083
-0.53756559	-0.28759217	3.47568202
-0.53847700	-0.28893781	3.47568464
-0.54006815	-0.29052669	3.47568679
-0.54347229	-0.29274607	3.47568893
-0.54511172	-0.29355657	3.47568917
-0.54630846	-0.29450715	3.47569036
-0.54968178	-0.29582018	3.47569013
-0.55153799	-0.29816926	3.47569394
-0.55241597	-0.29985744	3.47569728
-0.55663991	-0.30248195	3.47569942
-0.55864394	-0.30302519	3.47569871
-0.55876064	-0.30559111	3.47570491
-0.56037235	-0.30602491	3.47570443
-0.56209075	-0.30696309	3.47570491
-0.56268382	-0.30904669	3.47570944
-0.56424457	-0.30972958	3.47570968
-0.56566536	-0.31025040	3.47570944
-0.56719303	-0.31127596	3.47571039
-0.56736350	-0.31234396	3.47571278
-0.56893682	-0.31383967	3.47571492
-0.57500935	-0.31550336	3.47571278
-0.57751739	-0.31594110	3.47571111
-0.57809776	-0.31721175	3.47571373
-0.57943958	-0.31760490	3.47571325
-0.58011419	-0.31856757	3.47571516
-0.58203894	-0.31898284	3.47571397
-0.58393103	-0.31974107	3.47571397
-0.58549166	-0.32042390	3.47571397
-0.58848846	-0.32119185	3.47571278
-0.58898973	-0.32233500	3.47571516
-0.58952451	-0.32313561	3.47571659
-0.59034425	-0.32354081	3.47571683
-0.59245229	-0.32583719	3.47572041
-0.59506941	-0.32730848	3.47572136
-0.59639084	-0.32885695	3.47572374
-0.59798497	-0.32919735	3.47572303
-0.60086673	-0.33142859	3.47572541
-0.60242748	-0.33211142	3.47572565
-0.60567391	-0.33407545	3.47572708
-0.60687017	-0.33502591	3.47572827
-0.60819161	-0.33657444	3.47573066
-0.60926372	-0.33692700	3.47573042
-0.61192942	-0.33761996	3.47572947
-0.61443460	-0.33930612	3.47573090
-0.61518824	-0.34039658	3.47573304
-0.61768103	-0.34126997	3.47573256
-0.62043816	-0.34290338	3.47573376
-0.62224817	-0.34478217	3.47573662
-0.62233996	-0.34572262	3.47573876
-0.62393403	-0.34606314	3.47573805
-0.62479937	-0.34693855	3.47573924
-0.62530106	-0.34808183	3.47574162
-0.62572336	-0.34909707	3.47574377
-0.62973130	-0.35018337	3.47574210
-0.63064259	-0.35152912	3.47574449
-0.63236105	-0.35246724	3.47574520
-0.63218004	-0.35461587	3.47575068
-0.63536787	-0.35529667	3.47574902
-0.63787293	-0.35698277	3.47575068
-0.64006007	-0.35940683	3.47575450
-0.64132273	-0.35967219	3.47575378
-0.64341819	-0.36115581	3.47575521
-0.64421755	-0.36271638	3.47575831
-0.64623404	-0.36407220	3.47575974
-0.64844143	-0.36534095	3.47576046
-0.65036356	-0.36700475	3.47576261
-0.65098959	-0.36874580	3.47576642
-0.65188831	-0.36927885	3.47576666
-0.65239012	-0.37042207	3.47576904
-0.65345913	-0.37202293	3.47577190
-0.65405214	-0.37410653	3.47577667
-0.65450519	-0.37602812	3.47578096
-0.65551603	-0.37634605	3.47578073
-0.65557426	-0.37762910	3.47578382
-0.65641212	-0.37812769	3.47578406
-0.65741777	-0.37916553	3.47578573
-0.65782481	-0.38061672	3.47578883
-0.65958929	-0.38202512	3.47579050
-0.65985119	-0.38403380	3.47579527
-0.65989184	-0.38522351	3.47579813
-0.66128439	-0.38536716	3.47579718
-0.66279685	-0.38682854	3.47579932
-0.66299510	-0.38827366	3.47580266
-0.66386592	-0.38842970	3.47580218
-0.66816640	-0.38887519	3.47579861
-0.81631279	-0.47657561	3.47586298
-0.81752467	-0.47709030	3.47586298
-0.81958973	-0.47766787	3.47586226
-0.82174098	-0.47812784	3.47586107
-0.82348782	-0.47772026	3.47585845
-0.82528824	-0.47753781	3.47585607
-0.82913804	-0.47831416	3.47585392
-0.83067083	-0.47861993	3.47585297
-0.83229506	-0.47808850	3.47585011
-0.83354038	-0.47826099	3.47584915
-0.83445442	-0.47835821	3.47584844
-0.83533537	-0.47879785	3.47584867
-0.83641243	-0.47843105	3.47584653
-0.83748448	-0.47878373	3.47584629
-0.83966124	-0.47914618	3.47584510
-0.84155291	-0.47990412	3.47584486
-0.84243941	-0.47962439	3.47584319
-0.84614372	-0.48101252	3.47584295
-0.84735548	-0.48130870	3.47584224
-0.85003918	-0.48231357	3.47584200
-0.85231531	-0.48320752	3.47584200
-0.85307920	-0.48280424	3.47584009
-0.85568410	-0.48346287	3.47583890
-0.85757077	-0.48321736	3.47583652
-0.86045295	-0.48367113	3.47583461
-0.86280334	-0.48385358	3.47583246
-0.86435139	-0.48372370	3.47583055
-0.86865938	-0.48575640	3.47583127
-0.86946142	-0.48429072	3.47582674
-0.87097657	-0.48450351	3.47582555
-0.87321699	-0.48542970	3.47582555
-0.87383080	-0.48458052	3.47582293
-0.87552702	-0.48464084	3.47582126
-0.87850600	-0.48531574	3.47581983
-0.87948072	-0.48522848	3.47581863
-0.88134193	-0.48508054	3.47581625
-0.88239628	-0.48533994	3.47581577
-0.88378936	-0.48570240	3.47581530
-0.88439262	-0.48456919	3.47581172
-0.88496339	-0.48377883	3.47580910
-0.88747120	-0.48399788	3.47580719
-0.88993901	-0.48168683	3.47579885
-0.89228904	-0.48186898	3.47579670
-0.89320302	-0.48196626	3.47579598
-0.89508498	-0.48066288	3.47579074
-0.89743805	-0.47959656	3.47578573
-0.89884067	-0.48002422	3.47578526
-0.90242594	-0.47831726	3.47577715
-0.90402257	-0.47740930	3.47577333
-0.90538001	-0.47736663	3.47577167
-0.90687698	-0.47748601	3.47577047
-0.90863425	-0.47558492	3.47576404
-0.90958416	-0.47409093	3.47575927
-0.91232646	-0.47438282	3.47575712
-0.91354877	-0.47168070	3.47574902
-0.91594476	-0.47233325	3.47574806
-0.91790545	-0.47115755	3.47574306
-0.92031676	-0.47137415	3.47574115
-0.92260838	-0.47027349	3.47573614
-0.92363477	-0.47015595	3.47573471
-0.92593908	-0.46986806	3.47573161
-0.92694956	-0.47007668	3.47573090
-0.92805243	-0.46966720	3.47572875
-0.92906606	-0.46873701	3.47572541
-0.93111312	-0.46922106	3.47572446
-0.93206549	-0.46825624	3.47572112
-0.93463445	-0.46872830	3.47571969
-0.93531704	-0.46772319	3.47571635
-0.93771279	-0.46837538	3.47571540
-0.94053411	-0.46879494	3.47571349
-0.94297326	-0.46938854	3.47571254
-0.94363320	-0.46728671	3.47570658
-0.94623518	-0.46741611	3.47570419
-0.94688487	-0.46675360	3.47570181
-0.94915593	-0.46680802	3.47569966
-0.95528978	-0.46672857	3.47569299
-0.95665222	-0.46596640	3.47568965
-0.95773959	-0.46588326	3.47568822
-0.95903820	-0.46455759	3.47568369
-0.96047425	-0.46464258	3.47568226
-0.96376902	-0.46405059	3.47567749
-0.96451521	-0.46360862	3.47567558
-0.96529478	-0.46104670	3.47566819
-0.96887207	-0.46130794	3.47566533
-0.96939665	-0.46004719	3.47566152
-0.96974838	-0.45896691	3.47565842
-0.97141862	-0.45712847	3.47565222
-0.97180593	-0.45623451	3.47564936
-0.97330332	-0.45457643	3.47564363
-0.97421730	-0.45467365	3.47564292
-0.97488225	-0.45357525	3.47563958
-0.97625446	-0.45309669	3.47563696
-0.97670817	-0.45151776	3.47563243
-0.97724295	-0.45054078	3.47562957
-0.97959590	-0.44947463	3.47562432
-0.98075163	-0.44923526	3.47562265
-0.98153877	-0.44820571	3.47561932
-0.98312998	-0.44801700	3.47561717
-0.98485148	-0.44770682	3.47561455
-0.98824310	-0.44555825	3.47560549
-0.99092197	-0.44534099	3.47560215
-0.99211109	-0.44470471	3.47559929
-0.99408489	-0.44261897	3.47559214
-0.99910069	-0.44338500	3.47558880
-0.99971449	-0.44264483	3.47558618
-1.00051177	-0.44017619	3.47557926
-1.00322878	-0.43884242	3.47557306
-1.00468016	-0.43849164	3.47557068
-1.00613141	-0.43814075	3.47556829
-1.00742495	-0.43753463	3.47556543
-1.00818634	-0.43665695	3.47556257
-1.01017022	-0.43657809	3.47556019
-1.01126516	-0.43452662	3.47555399
-1.01204431	-0.43374211	3.47555113
-1.01444292	-0.43314606	3.47554708
-1.01509225	-0.43248320	3.47554469
-1.01773560	-0.43202525	3.47554088
-1.01836228	-0.43026572	3.47553587
-1.01921785	-0.42907995	3.47553205
-1.02181768	-0.42868060	3.47552824
-1.02231443	-0.42704290	3.47552371
-1.02465940	-0.42616707	3.47551894
-1.02522969	-0.42537653	3.47551632
-1.02644467	-0.42464304	3.47551322
-1.02709389	-0.42398006	3.47551107
-1.02791631	-0.42313683	3.47550797
-1.02908766	-0.42246163	3.47550511
-1.02989256	-0.42152530	3.47550201
-1.03147900	-0.42033356	3.47549725
-1.03211057	-0.41957748	3.47549462
-1.03245437	-0.41868764	3.47549224
-1.03365374	-0.41838962	3.47549009
-1.03439975	-0.41794777	3.47548819
-1.03607261	-0.41663808	3.47548318
-1.03706872	-0.41561455	3.47547960
-1.03795731	-0.41408616	3.47547483
-1.03953874	-0.41361398	3.47547197
-1.04017031	-0.41285801	3.47546959
-1.04126263	-0.41205525	3.47546625
-1.04189444	-0.41129917	3.47546387
-1.04467475	-0.41052872	3.47545886
-1.04524291	-0.40920931	3.47545505
-1.04781687	-0.40896183	3.47545171
-1.05089545	-0.40860879	3.47544765
-1.05533123	-0.40821338	3.47544193
-1.05700135	-0.40815246	3.47544003
-1.05971575	-0.40806723	3.47543716
-1.06139350	-0.40781581	3.47543478
-1.06308198	-0.40784824	3.47543311
-1.06472433	-0.40741014	3.47543025
-1.07161689	-0.40770161	3.47542381
-1.07248521	-0.40732867	3.47542191
-1.07392383	-0.40616512	3.47541738
-1.07659268	-0.40560967	3.47541332
-1.07853258	-0.40558916	3.47541118
-1.08177423	-0.40299451	3.47540140
-1.08272147	-0.40274924	3.47539973
-1.08440948	-0.40278161	3.47539806
-1.08622515	-0.40216333	3.47539449
-1.08866954	-0.40203750	3.47539163
-1.09104514	-0.40206784	3.47538924
-1.09317923	-0.40071183	3.47538376
-1.09421587	-0.39915502	3.47537875
-1.09610510	-0.39938396	3.47537732
-1.09675431	-0.39872110	3.47537494
-1.09887564	-0.39655238	3.47536731
-1.10138643	-0.39574134	3.47536278
-1.10203576	-0.39507848	3.47536039
-1.10362720	-0.39489001	3.47535825
-1.10449564	-0.39451706	3.47535634
-1.10577357	-0.39434654	3.47535467
-1.10697806	-0.39332896	3.47535086
-1.10879350	-0.39271080	3.47534728
-1.10999298	-0.39241272	3.47534537
-1.11139846	-0.39159179	3.47534180
-1.11396754	-0.39206374	3.47534037
-1.11487162	-0.39182276	3.47533870
-1.11567879	-0.39141524	3.47533679
-1.11729825	-0.39165837	3.47533584
-1.11785841	-0.39052933	3.47533250
-1.11939895	-0.39064461	3.47533107
-1.12016273	-0.39024138	3.47532916
-1.12130880	-0.38966382	3.47532654
-1.13053370	-0.39187646	3.47532248
-1.13082409	-0.39076167	3.47531939
-1.13295507	-0.39065409	3.47531700
-1.13566434	-0.39128840	3.47531557
-1.13735235	-0.39132071	3.47531390
-1.13832021	-0.38991994	3.47530937
-1.14176536	-0.38805103	3.47530127
-1.14337468	-0.38795567	3.47529936
-1.14637673	-0.38622648	3.47529173
-1.15040994	-0.38716066	3.47528982
-1.15138531	-0.38729239	3.47528934
-1.15175438	-0.38630527	3.47528648
-1.15366924	-0.38465941	3.47528028
-1.15554082	-0.38479501	3.47527862
-1.15706396	-0.38303971	3.47527266
-1.15772843	-0.38194114	3.47526932
-1.16145623	-0.38092542	3.47526288
-1.16429782	-0.38018954	3.47525787
-1.16812992	-0.38092703	3.47525573
-1.17013657	-0.38022161	3.47525191
-1.17272592	-0.37953818	3.47524762
-1.17835593	-0.37956446	3.47524166
-1.18034959	-0.37804621	3.47523594
-1.18457913	-0.37639594	3.47522736
-1.18787897	-0.37686193	3.47522497
-1.19480205	-0.37805951	3.47522068
-1.19600129	-0.37776148	3.47521877
-1.19754946	-0.37763155	3.47521687
-1.20032513	-0.37758082	3.47521377
-1.20185542	-0.37735778	3.47521162
-1.20525932	-0.37779927	3.47520924
-1.20599306	-0.37654477	3.47520518
-1.20793307	-0.37652427	3.47520328
-1.20943034	-0.37664384	3.47520185
-1.21187484	-0.37651789	3.47519898
-1.21270251	-0.37495506	3.47519422
-1.21691370	-0.37498927	3.47518992
-1.21984708	-0.37519383	3.47518730
-1.22035646	-0.37436908	3.47518468
-1.22266090	-0.37408090	3.47518158
-1.22673225	-0.37395298	3.47517705
-1.22961986	-0.37368739	3.47517347
-1.23395598	-0.37431937	3.47517037
-1.23504829	-0.37351674	3.47516727
-1.24171948	-0.37476677	3.47516346
-1.24514151	-0.37530172	3.47516108
-1.24809253	-0.37559962	3.47515893
-1.25558329	-0.37725502	3.47515512
-1.27261448	-0.38157910	3.47514820
-1.33819461	-0.40530741	3.47513890
-1.34440970	-0.40766215	3.47513819
-1.37117112	-0.42162341	3.47514510
-1.39814925	-0.43712294	3.47515559
-1.41138613	-0.44492555	3.47516131
-1.42282259	-0.45291054	3.47516942
-1.43247974	-0.45992291	3.47517681
-1.43503094	-0.46207923	3.47517943
-1.49113286	-0.51245290	3.47524667
-1.49563396	-0.51842785	3.47525692
-1.49502730	-0.52258676	3.47526789
-1.51261353	-0.56816953	3.47536349
-1.51193094	-0.56917483	3.47536683
-1.51249611	-0.57088143	3.47537041
-1.51266634	-0.57194948	3.47537303
-1.51286733	-0.57392371	3.47537756
-1.51385498	-0.57664567	3.47538352
-1.51361549	-0.57751107	3.47538590
-1.52709150	-0.60614353	3.47544336
-1.52834105	-0.61087418	3.47545385
-1.52723336	-0.61211258	3.47545815
-1.52845776	-0.61521763	3.47546458
-1.52699113	-0.61600411	3.47546816
-1.52893329	-0.62001300	3.47547603
-1.52886164	-0.62319523	3.47548413
-1.52821219	-0.62385803	3.47548652
-1.52365923	-0.62696552	3.47549891
-1.52511501	-0.63117319	3.47550797
-1.52470732	-0.63505465	3.47551799
-1.52282524	-0.63630331	3.47552323
-1.52412617	-0.63900709	3.47552848
-1.52416635	-0.64197433	3.47553587
-1.61122572	-0.78989619	3.47581458
-1.62982929	-0.84460312	3.47593188
-1.68246925	-0.95117354	3.47614336
-1.68598008	-0.95389760	3.47614646
-1.69050348	-0.96274632	3.47616386
-1.69790053	-0.96120942	3.47615218
-1.73987925	-1.12900901	3.47652793
-1.74077523	-1.13079059	3.47653151
-1.74585032	-1.14758873	3.47656798
-1.75205922	-1.17941380	3.47664118
-1.75547814	-1.20289266	3.47669625
-1.75615370	-1.21849525	3.47673464
-1.75619578	-1.22726941	3.47675657
-1.75354934	-1.25417197	3.47682643
-1.75272119	-1.25751209	3.47683573
-1.74272406	-1.28292131	3.47690964
-1.74091578	-1.28684938	3.47692132
-1.73665237	-1.29589748	3.47694850
-1.73438537	-1.30040121	3.47696209
-1.72960007	-1.30946159	3.47698975
-1.72759068	-1.31141567	3.47699666
-1.72213340	-1.31826472	3.47701955
-1.71520138	-1.32786822	3.47705078
-1.71227241	-1.33222210	3.47706485
-1.71116745	-1.33221197	3.47706604
-1.70724297	-1.33758950	3.47708344
-1.70612025	-1.33748627	3.47708440
-1.70180094	-1.34400272	3.47710514
-1.70056844	-1.34464324	3.47710800
-1.69697773	-1.34884715	3.47712231
-1.69286239	-1.35431182	3.47714043
-1.69068015	-1.35644639	3.47714806
-1.68803656	-1.36040485	3.47716069
-1.68708909	-1.36065030	3.47716212
-1.68544400	-1.36233664	3.47716808
-1.68389595	-1.36246657	3.47716999
-1.68190455	-1.36451364	3.47717738
-1.68052971	-1.36446321	3.47717857
-1.67961287	-1.36561441	3.47718239
-1.67686248	-1.36906838	3.47719407
-1.67529893	-1.36963391	3.47719693
-1.67439747	-1.37034941	3.47719979
-1.67262769	-1.37143791	3.47720432
-1.66985953	-1.37479854	3.47721553
-1.66672742	-1.37842679	3.47722793
-1.66243875	-1.38407207	3.47724652
-1.65931451	-1.38395452	3.47724962
-1.65667367	-1.38666463	3.47725916
-1.65539539	-1.38683498	3.47726083
-1.65449667	-1.38630199	3.47726035
-1.65288484	-1.38764596	3.47726560
-1.64798820	-1.38986552	3.47727609
-1.64530158	-1.39210534	3.47728467
-1.64313996	-1.39130700	3.47728491
-1.64170384	-1.39122188	3.47728610
-1.63586700	-1.39877427	3.47731113
-1.53874171	-1.53179407	3.47774529
-1.50435448	-1.57305300	3.47788429
-1.50399268	-1.57384956	3.47788668
-1.50346529	-1.57635880	3.47789359
-1.50338376	-1.57747972	3.47789645
-1.50311112	-1.57868779	3.47789979
-1.50247705	-1.58069241	3.47790551
-1.50253522	-1.58197522	3.47790861
-1.50081098	-1.58531153	3.47791862
-1.50140691	-1.58614659	3.47792029
-1.50140405	-1.58739519	3.47792339
-1.50137341	-1.58826661	3.47792554
-1.49974060	-1.59254324	3.47793794
-1.49900723	-1.59379804	3.47794175
-1.49843681	-1.59458864	3.47794437
-1.49835527	-1.59570944	3.47794724
-1.49903750	-1.59648156	3.47794843
-1.49775386	-1.59914899	3.47795653
-1.49521971	-1.60414124	3.47797155
-1.49448621	-1.60539603	3.47797561
-1.49434352	-1.60648251	3.47797847
-1.49225259	-1.60955715	3.47798824
-1.49178910	-1.61085248	3.47799206
-1.49120331	-1.61207879	3.47799563
-1.48835349	-1.61656010	3.47800994
-1.48794079	-1.61760604	3.47801304
-1.48752820	-1.61865199	3.47801590
-1.48629308	-1.62054110	3.47802210
-1.48282707	-1.62534285	3.47803760
-1.47355199	-1.63807404	3.47807908
-1.47226834	-1.64074135	3.47808719
-1.47005534	-1.64374745	3.47809696
-1.46878707	-1.64597905	3.47810388
-1.46794915	-1.64725816	3.47810793
-1.46846592	-1.64796555	3.47810912
-1.46631408	-1.65100586	3.47811913
-1.46572804	-1.65223217	3.47812271
-1.46513724	-1.65417778	3.47812819
-1.46401405	-1.65585208	3.47813368
-1.46285772	-1.65786886	3.47813988
-1.46105480	-1.66107750	3.47814965
-1.46012986	-1.66419697	3.47815847
-1.45947802	-1.66610837	3.47816396
-1.45786333	-1.66870070	3.47817206
-1.45518661	-1.67300177	3.47818565
-1.45434856	-1.67428076	3.47818971
-1.45378089	-1.67560029	3.47819376
-1.45451641	-1.67659748	3.47819543
-1.44816756	-1.68622327	3.47822618
-1.44325995	-1.69343722	3.47824931
-1.43893051	-1.70150208	3.47827387
-1.43698740	-1.70443940	3.47828341
-1.43458045	-1.70878088	3.47829676
-1.43391585	-1.70987952	3.47830009
-1.43221974	-1.71359277	3.47831130
-1.43273640	-1.71430016	3.47831249
-1.43137383	-1.71683991	3.47832012
-1.42955279	-1.71995533	3.47832990
-1.41774380	-1.73767865	3.47838664
-1.41629946	-1.74133921	3.47839713
-1.41647005	-1.74240732	3.47839975
-1.41543865	-1.74502206	3.47840738
-1.41488576	-1.74590588	3.47841001
-1.41398168	-1.74786985	3.47841597
-1.41293478	-1.75092030	3.47842479
-1.41323996	-1.75464773	3.47843361
-1.41274559	-1.75681448	3.47843957
-1.41266119	-1.75918376	3.47844553
-1.40584862	-1.77188241	3.47848463
-1.40230083	-1.77780509	3.47850299
-1.40163612	-1.77890372	3.47850657
-1.39962411	-1.78210616	3.47851658
-1.38662553	-1.80218899	3.47858047
-1.38621294	-1.80323482	3.47858334
-1.38394630	-1.80773866	3.47859716
-1.38353372	-1.80878448	3.47860003
-1.37750018	-1.81892109	3.47863173
-1.37696052	-1.82061756	3.47863650
-1.37651467	-1.82200611	3.47864056
-1.37556195	-1.82474840	3.47864842
-1.37399304	-1.82781112	3.47865772
-1.37312198	-1.82943273	3.47866273
-1.37256932	-1.83031631	3.47866535
-1.36934018	-1.83550119	3.47868180
-1.36957169	-1.83660388	3.47868419
-1.36751127	-1.84058464	3.47869635
-1.36697125	-1.84228134	3.47870111
-1.36465871	-1.84631479	3.47871375
-1.36114419	-1.85189486	3.47873139
-1.36011279	-1.85450947	3.47873902
-1.35906839	-1.85631132	3.47874451
-1.35909379	-1.85793698	3.47874856
-1.35440779	-1.86596966	3.47877359
-1.35296607	-1.86838162	3.47878098
-1.35202348	-1.87318528	3.47879410
-1.34996307	-1.87716627	3.47880626
-1.34834850	-1.87975872	3.47881436
-1.34839153	-1.88147748	3.47881866
-1.34706211	-1.88367474	3.47882557
-1.34627998	-1.88748515	3.47883582
-1.34400058	-1.89117610	3.47884750
-1.34421682	-1.89271450	3.47885108
-1.34486330	-1.89330018	3.47885180
-1.32537627	-1.92112398	3.47894192
-1.27649045	-1.98731363	3.47915840
-1.25071287	-2.02071333	3.47926879
-1.24849761	-2.02319050	3.47927737
-1.17511010	-2.10221767	3.47955179
-1.14229846	-2.12941170	3.47965407
-1.08074343	-2.16833925	3.47981572
-1.06923103	-2.17534065	3.47984529
-1.06106484	-2.17977786	3.47986484
-1.02280521	-2.19941044	3.47995400
-0.98940432	-2.21438456	3.48002648
-0.98747671	-2.21521783	3.48003054
-0.98529696	-2.21610379	3.48003507
-0.98156929	-2.21711922	3.48004150
-0.89902359	-2.23177266	3.48016453
-0.88095772	-2.23481178	3.48019099
-0.87301862	-2.23579335	3.48020172
-0.85695660	-2.23770761	3.48022342
-0.85174716	-2.23816800	3.48022985
-0.78237724	-2.24056244	3.48030853
-0.66893059	-2.23448253	3.48041201
-0.64637649	-2.23241472	3.48043036
-0.56312644	-2.21994877	3.48048639
-0.45472604	-2.17931533	3.48049808
-0.42773229	-2.16780639	3.48049760
-0.34602657	-2.12712479	3.48048139
-0.34198615	-2.12288094	3.48047495
-0.34000280	-2.12118268	3.48047280
-0.23089838	-2.03200769	3.48036408
-0.13424057	-1.95414519	3.48027039
-0.13247612	-1.95273662	3.48026872
-0.06168827	-1.87379956	3.48014545
0.02333769	-1.77227616	3.47998071
0.04763839	-1.73105335	3.47990298
0.04889327	-1.72704232	3.47989440
0.05057061	-1.72201586	3.47988343
0.12644413	-1.57141209	3.47958636
0.12933329	-1.56587088	3.47957540
0.15187216	-1.52347684	3.47949314
0.15380743	-1.52277756	3.47949338
0.15473914	-1.52258730	3.47949386
0.15611675	-1.52195287	3.47949362
0.15751718	-1.52027667	3.47949100
0.16406161	-1.50729132	3.47946548
0.19229099	-1.44141841	3.47933030
0.19727221	-1.42964482	3.47930598
0.19769479	-1.42862940	3.47930384
0.22508159	-1.28453255	3.47897243
0.22559521	-1.28079939	3.47896361
0.22298452	-1.11423111	3.47854447
0.22237808	-1.11007214	3.47853327
