//X	Y	Z
-1.03987432	0.19573985	2.46815419
-1.04503226	0.19038020	2.46811986
-1.04725671	0.18447380	2.46809316
-1.07087302	0.11737052	2.46779704
-1.11172569	-0.03762400	2.46715879
-1.12985158	-0.20669720	2.46655059
-1.13043094	-0.21091995	2.46653485
-1.12848723	-0.21375674	2.46653223
-1.12575603	-0.21586302	2.46653438
-1.05813968	-0.34034002	2.46635604
-1.03899527	-0.37717852	2.46630025
-1.03835750	-0.37876764	2.46629715
-1.03848219	-0.37983590	2.46629333
-1.03815651	-0.38220611	2.46628666
-1.03802228	-0.38426319	2.46628046
-1.03684628	-0.38725826	2.46627474
-1.03676713	-0.38801399	2.46627259
-1.03633320	-0.38991559	2.46626782
-1.03583658	-0.39317176	2.46625900
-1.03486443	-0.39647892	2.46625137
-1.03450978	-0.39762470	2.46624899
-1.03552675	-0.39991900	2.46623802
-1.03171039	-0.40866792	2.46622229
-1.03094208	-0.41228724	2.46621323
-1.02669263	-0.41916040	2.46620512
-1.02034569	-0.42657733	2.46620226
-0.91334820	-0.55617511	2.46613812
-0.90946937	-0.55801737	2.46614504
-0.90775943	-0.55861348	2.46614861
-0.76816177	-0.65903699	2.46628761
-0.69077528	-0.67305982	2.46649957
-0.67753935	-0.67046523	2.46655202
-0.67527539	-0.66809022	2.46656728
-0.52309406	-0.58835626	2.46733189
-0.52146339	-0.58819669	2.46733785
-0.51874536	-0.58715117	2.46735024
-0.51690698	-0.58670640	2.46735787
-0.51565629	-0.58665264	2.46736217
-0.51400912	-0.58589423	2.46737003
-0.51333845	-0.58628547	2.46737099
-0.51071608	-0.58508319	2.46738362
-0.50752252	-0.58408868	2.46739745
-0.50619262	-0.58479106	2.46739960
-0.50340301	-0.58444774	2.46741009
-0.50234354	-0.58408046	2.46741486
-0.50110173	-0.58467960	2.46741700
-0.50082237	-0.58509624	2.46741652
-0.50034678	-0.58514708	2.46741796
-0.49832094	-0.58498895	2.46742535
-0.49725768	-0.58464855	2.46742988
-0.49602342	-0.58519393	2.46743226
-0.49242580	-0.58354819	2.46744943
-0.49077487	-0.58281642	2.46745729
-0.48894027	-0.58234465	2.46746492
-0.48293185	-0.57975531	2.46749353
-0.48244858	-0.57985961	2.46749473
-0.48196542	-0.57996428	2.46749592
-0.47945508	-0.57920438	2.46750689
-0.47711706	-0.57826477	2.46751761
-0.47605765	-0.57789779	2.46752238
-0.47499818	-0.57753050	2.46752691
-0.47453135	-0.57823384	2.46752620
-0.47269681	-0.57776219	2.46753383
-0.46929935	-0.57645547	2.46754956
-0.46754894	-0.57590723	2.46755695
-0.46669346	-0.57585239	2.46756005
-0.46338397	-0.57444251	2.46757555
-0.46310842	-0.57483232	2.46757531
-0.46039420	-0.57376021	2.46758771
-0.45895100	-0.57331389	2.46759415
-0.38783097	-0.54010129	2.46793842
-0.31209338	-0.50134408	2.46831584
-0.31032652	-0.50019681	2.46832538
-0.29728323	-0.48973316	2.46840286
-0.29324749	-0.48553193	2.46842980
-0.26441592	-0.45100158	2.46863770
-0.22784460	-0.40461665	2.46890974
-0.22504057	-0.40060329	2.46893191
-0.22183125	-0.39523214	2.46896005
-0.22229801	-0.39452872	2.46896076
-0.22079781	-0.39233899	2.46897292
-0.22040138	-0.39163402	2.46897650
-0.21920453	-0.38957283	2.46898723
-0.21829198	-0.38777447	2.46899605
-0.21748781	-0.38644522	2.46900296
-0.21738717	-0.38592261	2.46900511
-0.21666338	-0.38454369	2.46901202
-0.21647844	-0.38409731	2.46901393
-0.21637395	-0.38360137	2.46901584
-0.21535823	-0.38201356	2.46902442
-0.21534562	-0.38138777	2.46902657
-0.21376498	-0.37924758	2.46903872
-0.21314064	-0.37768516	2.46904588
-0.21341607	-0.37729514	2.46904612
-0.21331544	-0.37677249	2.46904826
-0.21290003	-0.37620172	2.46905136
-0.21260683	-0.37528631	2.46905541
-0.21187551	-0.37396121	2.46906209
-0.21188180	-0.37320128	2.46906447
-0.21106620	-0.37195241	2.46907139
-0.21104221	-0.37140709	2.46907330
-0.21093391	-0.37093806	2.46907496
-0.21082562	-0.37046900	2.46907687
-0.20983261	-0.36871997	2.46908593
-0.21010815	-0.36833012	2.46908617
-0.20970415	-0.36767894	2.46908975
-0.20941097	-0.36676353	2.46909356
-0.20897529	-0.36562058	2.46909881
-0.20859028	-0.36483517	2.46910262
-0.20815082	-0.36371905	2.46910763
-0.20715028	-0.36202386	2.46911645
-0.20714147	-0.36137125	2.46911860
-0.20674124	-0.36069313	2.46912217
-0.20563756	-0.35920841	2.46913075
-0.20482062	-0.35725313	2.46913981
-0.20441660	-0.35660195	2.46914315
-0.20353197	-0.35532200	2.46915030
-0.20292403	-0.35435864	2.46915555
-0.20319955	-0.35396859	2.46915579
-0.20170698	-0.35172531	2.46916795
-0.20010231	-0.34903982	2.46918201
-0.19966035	-0.34651095	2.46919179
-0.19963121	-0.34528613	2.46919584
-0.19971040	-0.34453031	2.46919799
-0.19939822	-0.34374917	2.46920156
-0.19848949	-0.34192389	2.46921039
-0.19886446	-0.34135053	2.46921110
-0.19844398	-0.34010026	2.46921659
-0.19833951	-0.33960429	2.46921849
-0.19823885	-0.33908170	2.46922064
-0.19763088	-0.33811808	2.46922565
-0.19684564	-0.33665457	2.46923304
-0.19700150	-0.33587611	2.46923494
-0.19620869	-0.33446646	2.46924233
-0.19589651	-0.33368522	2.46924591
-0.19586863	-0.33316654	2.46924758
-0.19489978	-0.33196309	2.46925473
-0.19438370	-0.33086973	2.46925998
-0.19396701	-0.32959253	2.46926546
-0.19395821	-0.32893997	2.46926761
-0.19353516	-0.32842270	2.46927071
-0.19335027	-0.32797652	2.46927285
-0.19362575	-0.32758653	2.46927309
-0.19313371	-0.32703844	2.46927667
-0.19223006	-0.32589269	2.46928334
-0.19250549	-0.32550266	2.46928358
-0.19152907	-0.32435301	2.46929049
-0.19120170	-0.32367903	2.46929383
-0.19072863	-0.32299682	2.46929765
-0.18971293	-0.32140890	2.46930623
-0.18909991	-0.31976584	2.46931362
-0.18906835	-0.31927431	2.46931529
-0.18808800	-0.31815106	2.46932220
-0.18777207	-0.31739676	2.46932554
-0.18699951	-0.31655914	2.46933103
-0.18673989	-0.31520978	2.46933627
-0.18596733	-0.31437215	2.46934152
-0.18507510	-0.31314602	2.46934843
-0.18456277	-0.31202576	2.46935368
-0.18483824	-0.31163570	2.46935415
-0.18385038	-0.31056646	2.46936083
-0.18382633	-0.31002095	2.46936274
-0.18313792	-0.30910689	2.46936798
-0.18274538	-0.30837530	2.46937156
-0.18250978	-0.30757135	2.46937490
-0.18203674	-0.30688912	2.46937871
-0.18163277	-0.30623791	2.46938229
-0.18073668	-0.30503842	2.46938920
-0.17904399	-0.30245602	2.46940303
-0.17902377	-0.30188388	2.46940494
-0.17813155	-0.30065769	2.46941209
-0.17782697	-0.29982290	2.46941566
-0.17733109	-0.29930148	2.46941900
-0.17643499	-0.29810223	2.46942592
-0.17583850	-0.29705817	2.46943116
-0.17494245	-0.29585892	2.46943808
-0.17463025	-0.29507753	2.46944165
-0.16773437	-0.28777936	2.46948838
-0.16732143	-0.28647530	2.46949387
-0.16612080	-0.28444099	2.46950459
-0.16375116	-0.28086424	2.46952391
-0.16147837	-0.27783692	2.46954131
-0.16173747	-0.27684802	2.46954370
-0.15976544	-0.27468240	2.46955729
-0.15669228	-0.27029866	2.46958160
-0.15629588	-0.26959395	2.46958542
-0.03289311	-0.14951345	2.47038507
-0.03037898	-0.14878030	2.47039580
-0.02414538	-0.13633868	2.47045684
-0.01567504	-0.11755705	2.47054577
-0.01383619	-0.11262819	2.47056794
-0.00903916	-0.09723085	2.47063375
-0.00447738	-0.08231562	2.47069740
-0.00099212	-0.07070488	2.47074652
0.00360560	-0.05513239	2.47081232
0.01024464	-0.02247214	2.47094035
0.01041847	-0.01349130	2.47096992
0.00506711	0.01594818	2.47104764
-0.00747210	0.06487375	2.47116446
-0.00979638	0.07352793	2.47118473
-0.05278513	0.15752581	2.47131395
-0.13624334	0.23464543	2.47128630
-0.14002535	0.23703712	2.47128153
-0.24645165	0.28915852	2.47109652
-0.31140405	0.31379956	2.47096014
-0.37182176	0.31380484	2.47075939
-0.37319338	0.31265631	2.47075105
-0.37677449	0.31160966	2.47073579
-0.45011628	0.30947971	2.47048473
-0.45589435	0.30916044	2.47046447
-0.46051341	0.30902490	2.47044873
-0.46206370	0.30881596	2.47044301
-0.47321314	0.30809578	2.47040343
-0.47610599	0.30796295	2.47039342
-0.48044580	0.30741066	2.47037721
-0.65204287	0.30461687	2.46979737
-0.71863985	0.29680294	2.46955037
-0.72335964	0.29614460	2.46953273
-0.75773627	0.28780907	2.46939135
-0.77865398	0.28224668	2.46930361
-0.93623954	0.23649001	2.46863103
