//X	Y	Z
-0.47954422	-1.30840826	6.57489967
-0.45220208	-1.28986132	6.57483339
-0.43576971	-1.27503896	6.57478952
-0.42125595	-1.24364030	6.57473040
-0.40209967	-1.19946587	6.57464981
-0.39828810	-1.16209900	6.57460213
-0.39614320	-1.13915849	6.57457304
-0.39621478	-1.13096678	6.57456398
-0.39647937	-1.11973214	6.57455206
-0.39646244	-1.11166012	6.57454300
-0.39709526	-1.10499847	6.57453680
-0.39667320	-1.09493899	6.57452488
-0.39763573	-1.07752657	6.57450724
-0.39810133	-1.07632470	6.57450676
-0.39930978	-1.06921160	6.57450104
-0.40041521	-1.06419945	6.57449722
-0.40102750	-1.06051064	6.57449436
-0.40182054	-1.05641317	6.57449102
-0.40219104	-1.05313122	6.57448816
-0.40301162	-1.05210304	6.57448816
-0.40332764	-1.05036736	6.57448673
-0.40322918	-1.04845715	6.57448483
-0.40393314	-1.04447889	6.57448149
-0.40441322	-1.04129553	6.57447863
-0.40479439	-1.04004395	6.57447815
-0.40476328	-1.03779578	6.57447529
-0.40505600	-1.03666377	6.57447481
-0.40493637	-1.03453517	6.57447195
-0.40588623	-1.02998066	6.57446861
-0.40726745	-1.02279770	6.57446289
-0.40776438	-1.02065337	6.57446146
-0.40837300	-1.01778555	6.57445955
-0.40892106	-1.01426494	6.57445621
-0.40937045	-1.01267576	6.57445526
-0.41012573	-1.01116359	6.57445478
-0.40980580	-1.00603557	6.57444859
-0.41062933	-1.00418556	6.57444811
-0.41086358	-1.00157881	6.57444572
-0.41070396	-0.99901497	6.57444239
-0.41180646	-0.99801511	6.57444334
-0.41193879	-0.99431896	6.57443953
-0.41204464	-0.99139625	6.57443619
-0.41334075	-0.99119616	6.57443810
-0.41345334	-0.98728240	6.57443428
-0.41354871	-0.98617184	6.57443285
-0.41316360	-0.97352678	6.57441854
-0.41460639	-0.97083962	6.57441807
-0.41466382	-0.96847200	6.57441521
-0.41572541	-0.96703637	6.57441568
-0.41630381	-0.96576333	6.57441521
-0.41636199	-0.96339595	6.57441235
-0.41748756	-0.96179247	6.57441282
-0.41733822	-0.95806789	6.57440853
-0.41816169	-0.95621818	6.57440758
-0.41820902	-0.95501125	6.57440662
-0.41834211	-0.95131540	6.57440233
-0.41831097	-0.94906735	6.57439995
-0.41912749	-0.94820857	6.57440042
-0.41929096	-0.94676042	6.57439899
-0.41947469	-0.94168788	6.57439375
-0.42018235	-0.94073099	6.57439375
-0.42011806	-0.93705648	6.57438993
-0.42075405	-0.93341577	6.57438660
-0.42129529	-0.93088591	6.57438469
-0.42169288	-0.92683077	6.57438087
-0.42230159	-0.92396319	6.57437897
-0.42259431	-0.92283118	6.57437801
-0.42287326	-0.91664797	6.57437181
-0.42370713	-0.91298616	6.57436895
-0.42457139	-0.91157210	6.57436895
-0.42545608	-0.91037589	6.57436895
-0.42584690	-0.90731192	6.57436657
-0.42523131	-0.90029490	6.57435751
-0.42598671	-0.89878261	6.57435703
-0.42572421	-0.89128691	6.57434845
-0.42709887	-0.88893735	6.57434797
-0.42671090	-0.88414675	6.57434225
-0.42764324	-0.88239527	6.57434177
-0.42787448	-0.87676734	6.57433605
-0.42916074	-0.87453729	6.57433558
-0.42982760	-0.87314469	6.57433510
-0.42970812	-0.87101620	6.57433271
-0.43164468	-0.87019688	6.57433510
-0.43138215	-0.86270112	6.57432652
-0.43168157	-0.85673583	6.57432032
-0.43261388	-0.85498416	6.57431984
-0.43358395	-0.85064757	6.57431650
-0.43362090	-0.84806198	6.57431412
-0.43354979	-0.84537858	6.57431078
-0.43414870	-0.84432340	6.57431078
-0.43598253	-0.84241450	6.57431173
-0.43592486	-0.84093994	6.57430983
-0.43555734	-0.83636719	6.57430410
-0.43677542	-0.83447468	6.57430410
-0.43737429	-0.83341932	6.57430410
-0.43762219	-0.82498813	6.57429504
-0.44040257	-0.82253695	6.57429695
-0.43971816	-0.81585711	6.57428837
-0.44118136	-0.81338775	6.57428837
-0.44174606	-0.80706364	6.57428217
-0.44352534	-0.80670094	6.57428455
-0.44329765	-0.80447471	6.57428169
-0.44414157	-0.80284274	6.57428169
-0.44393048	-0.79781294	6.57427549
-0.44574752	-0.79486525	6.57427549
-0.44601980	-0.79351544	6.57427454
-0.44602954	-0.79170293	6.57427216
-0.44709805	-0.78927648	6.57427168
-0.44780576	-0.78831953	6.57427168
-0.44777548	-0.78607184	6.57426929
-0.44846967	-0.78390604	6.57426786
-0.44942236	-0.78237224	6.57426786
-0.44925520	-0.78079903	6.57426548
-0.45072520	-0.77733874	6.57426453
-0.45171878	-0.77624065	6.57426500
-0.45151150	-0.77423227	6.57426214
-0.45215794	-0.77262181	6.57426167
-0.45295036	-0.76852381	6.57425833
-0.45365813	-0.76756680	6.57425833
-0.45499203	-0.76478153	6.57425737
-0.45663214	-0.76207304	6.57425737
-0.45689440	-0.75869328	6.57425404
-0.45769066	-0.75761652	6.57425404
-0.45969453	-0.75645947	6.57425642
-0.45903042	-0.74999756	6.57424784
-0.46234179	-0.74682856	6.57425022
-0.46215776	-0.73718327	6.57423925
-0.46534559	-0.72886455	6.57423496
-0.51753384	-0.56400400	6.57414007
-0.52655447	-0.53471518	6.57412291
-0.52740812	-0.53127086	6.57412052
-0.52902472	-0.52532363	6.57411671
-0.52828592	-0.52403247	6.57411385
-0.52909940	-0.52015281	6.57411098
-0.53013694	-0.51547819	6.57410765
-0.53057545	-0.51185870	6.57410431
-0.53019118	-0.51008964	6.57410192
-0.53065014	-0.50668806	6.57409859
-0.53135484	-0.50271016	6.57409573
-0.53128290	-0.50002635	6.57409239
-0.53147721	-0.49698409	6.57408953
-0.53209269	-0.49312541	6.57408619
-0.53144312	-0.49171504	6.57408333
-0.53156865	-0.48900980	6.57408094
-0.53181058	-0.48541230	6.57407713
-0.53144598	-0.48386052	6.57407475
-0.53170455	-0.47745949	6.57406807
-0.53200769	-0.47451547	6.57406521
-0.53304511	-0.46984085	6.57406187
-0.53378987	-0.46629822	6.57405949
-0.53419828	-0.46427354	6.57405758
-0.53409982	-0.46236321	6.57405567
-0.53380334	-0.46047392	6.57405281
-0.53498739	-0.45331240	6.57404709
-0.53604603	-0.44885603	6.57404375
-0.53604221	-0.44583476	6.57404041
-0.53801930	-0.43457571	6.57403135
-0.53719211	-0.43340412	6.57402849
-0.54158133	-0.41512084	6.57401562
-0.54201984	-0.41150144	6.57401228
-0.54254758	-0.40776283	6.57400942
-0.54147530	-0.40716803	6.57400703
-0.54184282	-0.40086529	6.57400036
-0.54092777	-0.39981374	6.57399797
-0.54142070	-0.39080578	6.57398844
-0.54077101	-0.38939536	6.57398605
-0.53994381	-0.38822386	6.57398319
-0.53936225	-0.38647604	6.57398033
-0.54017127	-0.37957475	6.57397413
-0.53976667	-0.37758765	6.57397127
-0.53934097	-0.37538236	6.57396793
-0.53933781	-0.37236148	6.57396460
-0.53970838	-0.36907959	6.57396173
-0.53958964	-0.36695147	6.57395935
-0.53801376	-0.36630130	6.57395601
-0.53899068	-0.36097357	6.57395172
-0.53855813	-0.35975918	6.57394934
-0.53730965	-0.35940400	6.57394695
-0.53681582	-0.35753623	6.57394409
-0.53655714	-0.35306177	6.57393885
-0.53671050	-0.34958377	6.57393503
-0.53608072	-0.34839085	6.57393265
-0.53579098	-0.34551060	6.57392931
-0.53466809	-0.34245032	6.57392406
-0.53488266	-0.33962581	6.57392120
-0.53503549	-0.33614743	6.57391739
-0.53527057	-0.33354086	6.57391500
-0.53437519	-0.33270681	6.57391262
-0.53441978	-0.32913062	6.57390881
-0.53403485	-0.32736099	6.57390594
-0.53445375	-0.32352424	6.57390261
-0.53484464	-0.32046014	6.57389975
-0.53294575	-0.31869417	6.57389450
-0.53298283	-0.31610858	6.57389212
-0.53345907	-0.30990404	6.57388592
-0.53312260	-0.30757949	6.57388258
-0.53247905	-0.30517775	6.57387924
-0.53248966	-0.30336580	6.57387686
-0.53234959	-0.30101937	6.57387400
-0.53146195	-0.29919472	6.57387066
-0.53176427	-0.29625025	6.57386780
-0.52979428	-0.29180098	6.57385969
-0.52961361	-0.28901893	6.57385635
-0.52954257	-0.28633559	6.57385349
-0.52933443	-0.28432664	6.57385063
-0.52859575	-0.28303549	6.57384825
-0.52876961	-0.27977544	6.57384491
-0.52776533	-0.27884310	6.57384205
-0.52662194	-0.27556494	6.57383633
-0.52635348	-0.27290294	6.57383299
-0.52487659	-0.27032104	6.57382774
-0.52531219	-0.26368082	6.57382107
-0.52258599	-0.26074335	6.57381344
-0.52268815	-0.25479946	6.57380676
-0.52135038	-0.25456351	6.57380438
-0.52087778	-0.25291395	6.57380199
-0.52087390	-0.24989262	6.57379866
-0.52013582	-0.24860191	6.57379580
-0.51928818	-0.24721253	6.57379293
-0.51914907	-0.24486664	6.57379007
-0.51830137	-0.24347728	6.57378721
-0.51815838	-0.23811010	6.57378101
-0.51625949	-0.23634419	6.57377577
-0.51599103	-0.23368219	6.57377243
-0.51525229	-0.23239100	6.57376957
-0.51477879	-0.23074102	6.57376719
-0.51446265	-0.22863433	6.57376432
-0.51419348	-0.22597194	6.57376099
-0.51336700	-0.22480085	6.57375813
-0.51262826	-0.22350967	6.57375574
-0.51238012	-0.22106558	6.57375240
-0.51157326	-0.22011182	6.57375002
-0.51073986	-0.21289861	6.57374048
-0.51070577	-0.20762965	6.57373476
-0.50809920	-0.20682070	6.57372952
-0.50762582	-0.20517072	6.57372713
-0.50721741	-0.20016241	6.57372046
-0.50621319	-0.19923010	6.57371807
-0.50631517	-0.19328621	6.57371140
-0.50466138	-0.19094351	6.57370615
-0.50348103	-0.19025090	6.57370329
-0.50205487	-0.19013458	6.57370090
-0.50013250	-0.18513000	6.57369232
-0.49879485	-0.18489408	6.57368994
-0.49805307	-0.18058211	6.57368374
-0.49488151	-0.17522195	6.57367229
-0.49463278	-0.17277732	6.57366943
-0.49086624	-0.17149368	6.57366180
-0.49088287	-0.16869023	6.57365847
-0.49021286	-0.16706204	6.57365561
-0.48735756	-0.16380858	6.57364750
-0.48628217	-0.16019288	6.57364130
-0.48485601	-0.16007656	6.57363892
-0.48420262	-0.15564498	6.57363319
-0.48328757	-0.15459344	6.57363033
-0.48101443	-0.15308824	6.57362461
-0.47895229	-0.14573726	6.57361317
-0.47898614	-0.14013079	6.57360697
-0.47807050	-0.13907897	6.57360458
-0.47706628	-0.13814667	6.57360172
-0.47658986	-0.13347581	6.57359552
-0.47431672	-0.13197061	6.57359028
-0.47432047	-0.12795869	6.57358599
-0.47269690	-0.12402150	6.57357883
-0.46989983	-0.12224296	6.57357216
-0.46990651	-0.11740962	6.57356691
-0.46856886	-0.11717373	6.57356453
-0.46787852	-0.11532772	6.57356119
-0.46697998	-0.11147279	6.57355547
-0.46669042	-0.10859260	6.57355165
-0.46537393	-0.10857484	6.57354927
-0.46426088	-0.10754445	6.57354641
-0.46400595	-0.10609126	6.57354450
-0.46335560	-0.10468051	6.57354164
-0.46284205	-0.10259509	6.57353878
-0.46213067	-0.10053089	6.57353497
-0.46060610	-0.09850433	6.57353020
-0.45870352	-0.09371713	6.57352209
-0.45863247	-0.09103379	6.57351875
-0.45815587	-0.08636290	6.57351303
-0.45672971	-0.08624655	6.57351017
-0.45576024	-0.07970825	6.57350159
-0.45477331	-0.07597297	6.57349586
-0.45396340	-0.07199845	6.57349014
-0.45290476	-0.06557930	6.57348108
-0.45283282	-0.06289551	6.57347775
-0.45126748	-0.06043327	6.57347250
-0.45080829	-0.05295935	6.57346344
-0.45073646	-0.05027556	6.57346058
-0.45008308	-0.04584390	6.57345438
-0.44893962	-0.04256567	6.57344913
-0.44811314	-0.04139459	6.57344627
-0.44712555	-0.03765893	6.57344055
-0.44592774	-0.02889383	6.57342863
-0.44501239	-0.01696694	6.57341433
-0.44346058	-0.00868040	6.57340240
-0.44250709	0.00066173	6.57339048
-0.44183701	0.00228998	6.57338762
-0.44111174	0.00940540	6.57337856
-0.43954635	0.01186767	6.57337332
-0.43896109	0.01663670	6.57336664
-0.43764460	0.01665443	6.57336473
-0.43683457	0.02062896	6.57335901
-0.43633693	0.02551809	6.57335281
-0.43551046	0.02668917	6.57334995
-0.43503714	0.02833924	6.57334757
-0.43487746	0.03090301	6.57334423
-0.43406749	0.03487751	6.57333851
-0.43365920	0.03988582	6.57333231
-0.43200541	0.04222849	6.57332706
-0.43017465	0.04433188	6.57332134
-0.42922097	0.05367404	6.57330942
-0.42906129	0.05623779	6.57330656
-0.42832261	0.05752894	6.57330370
-0.42723060	0.05834118	6.57330132
-0.42643726	0.06511915	6.57329226
-0.42444688	0.06978631	6.57328367
-0.42187357	0.07620212	6.57327223
-0.41974032	0.08623642	6.57325792
-0.41915804	0.08798468	6.57325506
-0.41663986	0.08891320	6.57324982
-0.41526508	0.09743893	6.57323790
-0.41327405	0.10210651	6.57322931
-0.41149455	0.11261940	6.57321501
-0.40821707	0.12593237	6.57319450
-0.40641326	0.15055975	6.57316446
-0.40534085	0.15115458	6.57316208
-0.40418088	0.15162933	6.57315969
-0.40310574	0.15524507	6.57315350
-0.40151918	0.15792549	6.57314825
-0.39935184	0.16235346	6.57313967
-0.39818811	0.16584945	6.57313395
-0.39785081	0.16817445	6.57313061
-0.39642543	0.16829032	6.57312822
-0.39399582	0.16933846	6.57312298
-0.39180738	0.17398465	6.57311392
-0.39066398	0.17726284	6.57310867
-0.38823044	0.18133220	6.57310009
-0.38680524	0.18144816	6.57309723
-0.38343638	0.18678686	6.57308578
-0.38160574	0.18889025	6.57308054
-0.38030195	0.19473264	6.57307196
-0.37818539	0.19669500	6.57306623
-0.37724924	0.19796470	6.57306337
-0.37635088	0.20181963	6.57305765
-0.37501383	0.20205516	6.57305479
-0.37447619	0.20737955	6.57304811
-0.37306744	0.21029890	6.57304239
-0.36867088	0.21277550	6.57303238
-0.36782324	0.21416485	6.57302952
-0.36755401	0.21682721	6.57302618
-0.36592066	0.21895197	6.57302094
-0.36509031	0.22314441	6.57301521
-0.36477417	0.22525108	6.57301235
-0.36343652	0.22548702	6.57300949
-0.36137420	0.23283798	6.57299805
-0.36022705	0.23913747	6.57298899
-0.35991096	0.24124414	6.57298660
-0.35930830	0.24321026	6.57298326
-0.35723257	0.24473685	6.57297802
-0.35615724	0.24835253	6.57297230
-0.35416681	0.25301966	6.57296371
-0.35002512	0.26491857	6.57294369
-0.34896636	0.27133775	6.57293463
-0.34745264	0.27133393	6.57293224
-0.34556729	0.27892411	6.57292080
-0.34442014	0.28522363	6.57291174
-0.34249705	0.29022866	6.57290316
-0.33876455	0.29711881	6.57288933
-0.33809370	0.29874745	6.57288647
-0.33609962	0.30643579	6.57287455
-0.33467418	0.30655172	6.57287216
-0.33393532	0.30784285	6.57286930
-0.33308762	0.30923221	6.57286644
-0.33234960	0.31052297	6.57286358
-0.33136278	0.31425834	6.57285786
-0.33051199	0.31866851	6.57285166
-0.32981086	0.32254481	6.57284594
-0.32859570	0.32850683	6.57283735
-0.32723850	0.32896006	6.57283497
-0.32596880	0.32953358	6.57283211
-0.32293981	0.35127753	6.57280302
-0.32128233	0.35664129	6.57279396
-0.32040054	0.36329958	6.57278538
-0.31973058	0.36492777	6.57278252
-0.31900895	0.36902204	6.57277679
-0.31652498	0.37555701	6.57276535
-0.31507826	0.38676661	6.57275057
-0.31425166	0.38793766	6.57274771
-0.30880618	0.40567905	6.57271910
-0.30840153	0.40766609	6.57271624
-0.30937064	0.42287871	6.57270098
-0.30984718	0.42908326	6.57269478
-0.31120414	0.43950531	6.57268572
-0.31784981	0.46435550	6.57266951
-0.32304883	0.47866422	6.57266235
-0.33166742	0.49604416	6.57265759
-0.33364111	0.49944910	6.57265711
-0.34069139	0.51143658	6.57265568
-0.34668386	0.51896751	6.57265711
-0.38563448	0.55553323	6.57268190
-0.41508543	0.58137715	6.57270241
-0.43935454	0.59571528	6.57272720
-0.45449299	0.60261405	6.57274485
-0.46469796	0.60643810	6.57275772
-0.49594617	0.61369658	6.57280207
-0.52749330	0.61604512	6.57285213
-0.53241080	0.61631608	6.57286024
-0.54011172	0.61601746	6.57287312
-0.54407555	0.61475515	6.57288122
-0.55248404	0.61541355	6.57289457
-0.55331063	0.61424243	6.57289743
-0.56171930	0.61490071	6.57291079
-0.56790537	0.61459881	6.57292128
-0.57943094	0.61538398	6.57293987
-0.58052301	0.61457169	6.57294226
-0.59198034	0.61501932	6.57296133
-0.59798962	0.61447799	6.57297182
-0.60103858	0.61426717	6.57297707
-0.60660630	0.61312747	6.57298756
-0.61118948	0.61270249	6.57299566
-0.61432672	0.61261129	6.57300138
-0.61755264	0.61263990	6.57300663
-0.62238157	0.61279130	6.57301426
-0.63084090	0.61098403	6.57303047
-0.64398921	0.61167455	6.57305193
-0.65017623	0.61137223	6.57306242
-0.65509278	0.61164361	6.57307053
-0.66314757	0.61182356	6.57308388
-0.67320985	0.61013913	6.57310247
-0.67385948	0.60872889	6.57310486
-0.68767852	0.60779083	6.57312918
-0.68977469	0.60604638	6.57313442
-0.69444704	0.60574067	6.57314253
-0.70258945	0.60604054	6.57315588
-0.70468563	0.60429609	6.57316160
-0.70960301	0.60456699	6.57316923
-0.71016413	0.60303700	6.57317209
-0.71423763	0.60167623	6.57318020
-0.71737498	0.60158497	6.57318544
-0.72447699	0.60023111	6.57319880
-0.72988737	0.59863472	6.57320976
-0.73447126	0.59820950	6.57321787
-0.74106210	0.59592038	6.57323170
-0.74368906	0.59489369	6.57323694
-0.74647260	0.59432405	6.57324219
-0.74948442	0.59152764	6.57325029
-0.75433373	0.59146118	6.57325888
-0.76192886	0.58823979	6.57327509
-0.76769298	0.58712196	6.57328558
-0.76896268	0.58654869	6.57328844
-0.77368575	0.58377731	6.57329941
-0.77525121	0.58131516	6.57330465
-0.77796656	0.58040798	6.57331038
-0.78565001	0.57730627	6.57332659
-0.78736204	0.57733107	6.57332945
-0.79798853	0.57109588	6.57335424
-0.79890430	0.57004404	6.57335663
-0.79904360	0.56769812	6.57335949
-0.80167049	0.56667131	6.57336521
-0.80240929	0.56538010	6.57336807
-0.80346411	0.56198227	6.57337332
-0.80762619	0.56074113	6.57338190
-0.81094033	0.56088912	6.57338715
-0.81534672	0.56022495	6.57339525
-0.81702089	0.55766463	6.57340097
-0.82174468	0.55489290	6.57341194
-0.82327908	0.55467868	6.57341480
-0.82446009	0.55398577	6.57341719
-0.82921362	0.54896688	6.57343102
-0.83245975	0.54877746	6.57343626
-0.83753747	0.54648423	6.57344770
-0.83860892	0.54588997	6.57345009
-0.84285933	0.54476821	6.57345819
-0.84835833	0.54329139	6.57346916
-0.85018915	0.54118812	6.57347441
-0.85900217	0.53985941	6.57349062
-0.86703974	0.53723621	6.57350683
-0.87072152	0.53281158	6.57351828
-0.87500298	0.52944183	6.57352877
-0.88002843	0.52961504	6.57353735
-0.88379890	0.52531016	6.57354832
-0.88444918	0.52389926	6.57355070
-0.88467681	0.52167296	6.57355356
-0.88541567	0.52038193	6.57355642
-0.88684106	0.52026594	6.57355881
-0.88811070	0.51969254	6.57356167
-0.89578426	0.51862073	6.57357550
-0.90050739	0.51584959	6.57358646
-0.90133393	0.51467854	6.57358932
-0.90463161	0.51202309	6.57359791
-0.90877312	0.51099956	6.57360601
-0.91042691	0.50865698	6.57361126
-0.91283923	0.50480580	6.57361937
-0.91404080	0.50389498	6.57362270
-0.91482657	0.50315952	6.57362461
-0.91565382	0.50198805	6.57362747
-0.92107391	0.50220406	6.57363605
-0.92399740	0.49928802	6.57364416
-0.92743123	0.49730769	6.57365227
-0.92803323	0.49534199	6.57365513
-0.92832959	0.49345276	6.57365799
-0.92975497	0.49333686	6.57366037
-0.93013996	0.49156722	6.57366323
-0.93185115	0.49159229	6.57366610
-0.93500882	0.49128333	6.57367134
-0.93603343	0.49013320	6.57367468
-0.93747932	0.48979947	6.57367706
-0.93919122	0.48982430	6.57367992
-0.94028389	0.48901156	6.57368279
-0.94142723	0.48573336	6.57368851
-0.94564313	0.48603883	6.57369518
-0.94650429	0.48344070	6.57369947
-0.94733077	0.48226950	6.57370186
-0.95113891	0.48054975	6.57371044
-0.95385432	0.47964266	6.57371569
-0.95468146	0.47847116	6.57371855
-0.95670974	0.47638917	6.57372427
-0.95709383	0.47461990	6.57372665
-0.95756721	0.47296992	6.57372952
-0.95945537	0.47323433	6.57373238
-0.96049690	0.47104529	6.57373667
-0.96193647	0.46972013	6.57374048
-0.96645164	0.46895787	6.57374859
-0.96872467	0.46745262	6.57375431
-0.97117549	0.46618614	6.57375956
-0.97273713	0.46290284	6.57376575
-0.97558546	0.46250078	6.57377100
-0.97709936	0.46250448	6.57377386
-0.97830784	0.45874223	6.57378006
-0.98058385	0.45805842	6.57378435
-0.98486155	0.45771000	6.57379198
-0.98648810	0.45459419	6.57379818
-0.98694116	0.45316204	6.57380056
-0.98869312	0.45275149	6.57380390
-0.98960519	0.45087850	6.57380724
-0.99019039	0.44995180	6.57380962
-0.99150771	0.44993368	6.57381153
-0.99217772	0.44830552	6.57381439
-0.99458688	0.44747514	6.57381964
-0.99541414	0.44630358	6.57382202
-0.99847651	0.44488406	6.57382870
-1.00114131	0.44260013	6.57383585
-1.00218272	0.44041103	6.57384014
-1.00322032	0.43805259	6.57384443
-1.00463951	0.43694532	6.57384777
-1.00619817	0.43668282	6.57385111
-1.00748754	0.43589196	6.57385397
-1.00823975	0.43339208	6.57385778
-1.01056337	0.43326363	6.57386208
-1.01280248	0.43318504	6.57386589
-1.01345289	0.43177426	6.57386827
-1.01436794	0.43072277	6.57387114
-1.01529419	0.42764056	6.57387590
-1.01640666	0.42661047	6.57387924
-1.01732230	0.42555860	6.57388163
-1.01800597	0.42272159	6.57388592
-1.01997960	0.42228416	6.57388973
-1.02336574	0.41974843	6.57389832
-1.02521980	0.41824871	6.57390308
-1.02756190	0.41323817	6.57391262
-1.02989888	0.41190088	6.57391787
-1.03142357	0.40987420	6.57392263
-1.03669786	0.40760300	6.57393408
-1.03805256	0.40248576	6.57394218
-1.03991699	0.40279815	6.57394457
-1.04113913	0.40166941	6.57394791
-1.04187703	0.40037873	6.57395077
-1.04430091	0.39768749	6.57395792
-1.04777479	0.39527184	6.57396603
-1.04897642	0.39436096	6.57396936
-1.04960549	0.39316845	6.57397175
-1.05151486	0.39321461	6.57397461
-1.05332506	0.39132908	6.57397985
-1.05436945	0.38996142	6.57398319
-1.05506730	0.38910607	6.57398510
-1.05671048	0.38879380	6.57398844
-1.05806851	0.38833994	6.57399130
-1.05949783	0.38520274	6.57399702
-1.06081510	0.38518468	6.57399893
-1.06168246	0.38357791	6.57400227
-1.06264579	0.38308135	6.57400465
-1.06538475	0.37893549	6.57401371
-1.06866193	0.37649795	6.57402182
-1.06985605	0.37459657	6.57402611
-1.07125485	0.37370715	6.57402945
-1.07445729	0.37313187	6.57403517
-1.07554233	0.37132871	6.57403898
-1.07664204	0.37150702	6.57404089
-1.07791090	0.37093404	6.57404327
-1.07935739	0.37059993	6.57404613
-1.08123899	0.36603099	6.57405424
-1.23187780	0.28124675	6.57439995
-1.23488593	0.28147155	6.57440472
-1.23920369	0.28068781	6.57441282
-1.24344420	0.28159606	6.57441902
-1.24819446	0.27959788	6.57442904
-1.25699031	0.27546614	6.57444859
-1.26028419	0.27583212	6.57445335
-1.28901517	0.26226798	6.57451677
-1.29054952	0.26205376	6.57451916
-1.29420793	0.26086789	6.57452679
-1.29618442	0.26125187	6.57452965
-1.29902601	0.26304960	6.57453251
-1.30047274	0.26271546	6.57453537
-1.30198646	0.26271921	6.57453775
-1.30394340	0.26332068	6.57454062
-1.30690384	0.26299024	6.57454586
-1.30795503	0.26261362	6.57454777
-1.30877149	0.26347244	6.57454824
-1.30985379	0.26469016	6.57454872
-1.31270528	0.26445788	6.57455397
-1.31513476	0.26340973	6.57455921
-1.31621683	0.26462737	6.57455969
-1.31688368	0.26602009	6.57455921
-1.31841874	0.26580560	6.57456207
-1.32037497	0.26640743	6.57456446
-1.32215500	0.26676965	6.57456684
-1.32560527	0.26759261	6.57457209
-1.32959723	0.26710302	6.57457924
-1.33090389	0.26911527	6.57457924
-1.33419085	0.26849020	6.57458544
-1.33603835	0.26919028	6.57458735
-1.33772993	0.26943287	6.57459021
-1.33878088	0.26905620	6.57459211
-1.33948863	0.27001327	6.57459259
-1.34273481	0.26982388	6.57459784
-1.34486890	0.27066460	6.57460070
-1.34905744	0.27019691	6.57460833
-1.35050380	0.26986274	6.57461119
-1.35132039	0.27072150	6.57461119
-1.35583639	0.26995870	6.57461977
-1.35772431	0.27022314	6.57462263
-1.35923898	0.27022648	6.57462502
-1.36360455	0.26999792	6.57463264
-1.37392211	0.26751173	6.57465267
-1.37517059	0.26715657	6.57465506
-1.37832832	0.26684764	6.57466078
-1.37993145	0.26697052	6.57466364
-1.38634217	0.26746309	6.57467365
-1.38985395	0.26763260	6.57467937
-1.39185786	0.26878977	6.57468128
-1.39526057	0.26905748	6.57468653
-1.39857554	0.26920509	6.57469225
-1.40031397	0.27000341	6.57469416
-1.40262473	0.27108330	6.57469702
-1.40681338	0.27061558	6.57470417
-1.40780687	0.27171367	6.57470465
-1.40917182	0.27225086	6.57470655
-1.41184938	0.27260092	6.57471037
-1.41321421	0.27313808	6.57471228
-1.41532016	0.27320611	6.57471561
-1.41690290	0.27354684	6.57471800
-1.41752899	0.27537516	6.57471704
-1.41828442	0.27688745	6.57471657
-1.42237449	0.27833000	6.57472181
-1.42395711	0.27867076	6.57472420
-1.42570913	0.27826020	6.57472754
-1.42611063	0.27929401	6.57472706
-1.42971754	0.28057420	6.57473183
-1.43178344	0.28107738	6.57473469
-1.43389630	0.28213635	6.57473707
-1.43600273	0.28220388	6.57474041
-1.43965745	0.28403923	6.57474422
-1.44194031	0.28434649	6.57474804
-1.44376791	0.28526396	6.57474995
-1.44596243	0.28545162	6.57475328
-1.44662941	0.28684422	6.57475281
-1.44801462	0.28716356	6.57475471
-1.45061040	0.28838494	6.57475805
-1.45247889	0.28886682	6.57476044
-1.45616472	0.28845406	6.57476711
-1.45694053	0.28974849	6.57476711
-1.45727682	0.29126635	6.57476568
-1.46076512	0.29083216	6.57477236
-1.46237111	0.29177654	6.57477379
-1.46464038	0.29329261	6.57477617
-1.46668577	0.29401374	6.57477856
-1.47063625	0.29396021	6.57478523
-1.47132349	0.29513499	6.57478523
-1.47172511	0.29616886	6.57478476
-1.47348070	0.29657936	6.57478714
-1.47554290	0.29626158	6.57479095
-1.47608042	0.29797021	6.57479000
-1.47750676	0.29785407	6.57479239
-1.47816968	0.29907712	6.57479239
-1.47988844	0.30009285	6.57479382
-1.48252225	0.30005705	6.57479858
-1.48349547	0.30137300	6.57479858
-1.48468339	0.30167091	6.57480001
-1.48493135	0.30306914	6.57479906
-1.48553002	0.30412441	6.57479906
-1.48722160	0.30436689	6.57480145
-1.48890245	0.30663976	6.57480192
-1.49094725	0.30736125	6.57480431
-1.49266601	0.30837691	6.57480621
-1.49460196	0.30919662	6.57480860
-1.49530959	0.31015360	6.57480860
-1.49730730	0.31031945	6.57481194
-1.49893010	0.31022492	6.57481432
-1.50024366	0.31322810	6.57481337
-1.50348973	0.31303877	6.57481909
-1.50413632	0.31464922	6.57481813
-1.50624979	0.31570768	6.57482052
-1.50776362	0.31571141	6.57482338
-1.50954366	0.31607363	6.57482576
-1.51067340	0.31784654	6.57482576
-1.51438236	0.31803757	6.57483196
-1.51565874	0.31845504	6.57483339
-1.51724088	0.31879634	6.57483578
-1.51882350	0.31913710	6.57483816
-1.52000749	0.31926554	6.57483959
-1.52017093	0.32071355	6.57483864
-1.52105546	0.32190984	6.57483864
-1.52274632	0.32215279	6.57484102
-1.52488017	0.32299346	6.57484388
-1.52554715	0.32438612	6.57484341
-1.52752376	0.32477021	6.57484627
-1.53121233	0.32517889	6.57485199
-1.53227115	0.32579294	6.57485294
-1.53370011	0.32649809	6.57485485
-1.53510511	0.32660007	6.57485676
-1.53596938	0.32801408	6.57485676
-1.53961718	0.32885861	6.57486200
-1.54181910	0.33003673	6.57486439
-1.54456174	0.32990271	6.57486916
-1.54548728	0.33066323	6.57486963
-1.54696107	0.33110225	6.57487154
-1.54927123	0.33218271	6.57487440
-1.55074489	0.33262154	6.57487631
-1.55469203	0.33239824	6.57488346
-1.55712855	0.33234110	6.57488728
-1.55842817	0.33336234	6.57488823
-1.56007826	0.33404100	6.57489061
-1.56153166	0.33469778	6.57489204
-1.56357634	0.33541927	6.57489491
-1.56509089	0.33542252	6.57489729
-1.56671357	0.33532798	6.57490015
-1.57130456	0.33589381	6.57490730
-1.57306409	0.33647373	6.57490969
-1.57477522	0.33649889	6.57491255
-1.57644653	0.33695927	6.57491446
-1.57943010	0.33723253	6.57491922
-1.58016229	0.33814117	6.57491970
-1.58367383	0.33831069	6.57492542
-1.58844090	0.33911595	6.57493210
-1.58925748	0.33997479	6.57493258
-1.59340191	0.33977291	6.57493973
-1.59560108	0.34012946	6.57494307
-1.59667599	0.34035614	6.57494450
-1.59904754	0.34078309	6.57494831
-1.60080695	0.34136307	6.57495070
-1.60254276	0.34133989	6.57495356
-1.60420978	0.34163082	6.57495594
-1.60937142	0.34247890	6.57496357
-1.61097455	0.34260184	6.57496595
-1.61479914	0.34368548	6.57497120
-1.61962736	0.34383738	6.57497931
-1.62311935	0.34422424	6.57498455
-1.63529766	0.34376881	6.57500553
-1.63688040	0.34410957	6.57500792
-1.64030349	0.34415948	6.57501364
-1.64236939	0.34466264	6.57501650
-1.64417601	0.34579843	6.57501793
-1.64608514	0.34584454	6.57502127
-1.65032113	0.34658372	6.57502747
-1.65142381	0.34693202	6.57502890
-1.65413618	0.34904557	6.57503128
-1.65873659	0.35142374	6.57503605
-1.66338801	0.35133633	6.57504416
-1.66584432	0.35171285	6.57504797
-1.66773319	0.35197690	6.57505083
-1.67059565	0.35290515	6.57505417
-1.67331743	0.35364068	6.57505798
-1.67442024	0.35398886	6.57505941
-1.67723060	0.35484394	6.57506323
-1.67825150	0.35671508	6.57506275
-1.68154550	0.35708097	6.57506800
-1.68539751	0.35893780	6.57507229
-1.68656790	0.36027503	6.57507277
-1.68934751	0.36272666	6.57507467
-1.69226718	0.36283201	6.57507944
-1.69334912	0.36404964	6.57507992
-1.69596612	0.36505279	6.57508326
-1.69702435	0.36566719	6.57508469
-1.69856203	0.36627415	6.57508659
-1.70010400	0.36705065	6.57508802
-1.70129132	0.36734903	6.57508993
-1.70136297	0.36850756	6.57508850
-1.70296526	0.36863095	6.57509136
-1.70411253	0.36936456	6.57509232
-1.70504475	0.37111604	6.57509184
-1.70520425	0.37239456	6.57509089
-1.70818210	0.37486720	6.57509279
-1.70886934	0.37604210	6.57509279
-1.70982194	0.37757573	6.57509279
-1.71433413	0.37983420	6.57509756
-1.71510971	0.38112873	6.57509756
-1.71731186	0.38230681	6.57509995
-1.71895194	0.38501543	6.57509995
-1.72231400	0.38571876	6.57510471
-1.72357273	0.38717571	6.57510519
-1.72450519	0.38892731	6.57510471
-1.72519255	0.39010209	6.57510471
-1.72816944	0.39257511	6.57510662
-1.73186505	0.39397487	6.57511139
-1.73290610	0.39562809	6.57511139
-1.73692513	0.39975405	6.57511330
-1.73800719	0.40097171	6.57511377
-1.73956883	0.40153080	6.57511616
-1.74106288	0.40175194	6.57511806
-1.74129725	0.40435886	6.57511568
-1.74610579	0.40472820	6.57512331
-1.74600661	0.40663886	6.57512093
-1.74895430	0.40751690	6.57512522
-1.74931788	0.40980786	6.57512331
-1.75219667	0.41034871	6.57512712
-1.75299287	0.41142529	6.57512760
-1.75326884	0.41359630	6.57512569
-1.75612724	0.41435504	6.57512951
-1.75622535	0.41628706	6.57512760
-1.75876093	0.41816166	6.57512951
-1.76024425	0.42041308	6.57512951
-1.76106095	0.42127183	6.57512999
-1.76253402	0.42171133	6.57513189
-1.76276910	0.42431790	6.57512951
-1.76368105	0.42628717	6.57512903
-1.76477981	0.42646596	6.57513046
-1.76491964	0.42796203	6.57512903
-1.76617491	0.42859784	6.57513046
-1.76738310	0.43252027	6.57512808
-1.76871014	0.43431464	6.57512856
-1.76979887	0.43652329	6.57512760
-1.77092862	0.43829623	6.57512760
-1.77152765	0.43935135	6.57512760
-1.77293921	0.44428670	6.57512426
-1.77489614	0.44488806	6.57512712
-1.77827477	0.44839495	6.57512903
-1.77848935	0.45121941	6.57512617
-1.77843797	0.45368531	6.57512331
-1.78215384	0.45486724	6.57512808
-1.78228009	0.45757207	6.57512522
-1.78731239	0.45873627	6.57513237
-1.78710508	0.46074480	6.57512999
-1.78784990	0.46428734	6.57512712
-1.79068756	0.46910629	6.57512665
-1.79206240	0.47145596	6.57512665
-1.79352558	0.47392526	6.57512617
-1.79732990	0.47522664	6.57513094
-1.80090654	0.47875455	6.57513332
-1.80157340	0.48014727	6.57513285
-1.80337000	0.48331288	6.57513237
-1.80465627	0.48554292	6.57513189
-1.80525506	0.48659810	6.57513189
-1.80827284	0.48863545	6.57513475
-1.80875289	0.49181867	6.57513189
-1.81022596	0.49225807	6.57513380
-1.81128776	0.49369356	6.57513380
-1.81232882	0.49534690	6.57513380
-1.81363547	0.49735931	6.57513380
-1.81576550	0.50122118	6.57513332
-1.81723940	0.50166011	6.57513523
-1.81847799	0.50333488	6.57513523
-1.81916523	0.50450975	6.57513523
-1.81996834	0.50657731	6.57513428
-1.82285690	0.50893062	6.57513666
-1.82411587	0.51038766	6.57513714
-1.82390487	0.51157504	6.57513523
-1.82617772	0.51391202	6.57513666
-1.82612729	0.51637769	6.57513380
-1.82701194	0.51757389	6.57513380
-1.82816863	0.52012002	6.57513285
-1.82806969	0.52203077	6.57513094
-1.82871604	0.52364111	6.57512999
-1.82879102	0.52496970	6.57512856
-1.82990408	0.52778155	6.57512760
-1.83101332	0.52977228	6.57512712
-1.83178902	0.53106666	6.57512712
-1.83164644	0.53259164	6.57512522
-1.83478343	0.53634286	6.57512617
-1.83604920	0.53879064	6.57512569
-1.83610678	0.54115844	6.57512283
-1.83853316	0.54313117	6.57512474
-1.83894467	0.54597741	6.57512236
-1.84271491	0.54870552	6.57512569
-1.84303141	0.55044073	6.57512426
-1.84264660	0.55221045	6.57512188
-1.84440625	0.55279040	6.57512379
-1.84513044	0.55655086	6.57512093
-1.84722364	0.55782717	6.57512331
-1.84814537	0.56160921	6.57512045
-1.85032678	0.56300515	6.57512283
-1.85121155	0.56420118	6.57512283
-1.85198736	0.56549585	6.57512283
-1.85340977	0.56840086	6.57512188
-1.85411727	0.56935775	6.57512188
-1.85494101	0.57120752	6.57512140
-1.85506642	0.57391268	6.57511854
-1.85610759	0.57556599	6.57511854
-1.85695159	0.57719797	6.57511806
-1.85776806	0.57805669	6.57511854
-1.85749960	0.58071864	6.57511520
-1.85850012	0.58280778	6.57511425
-1.85929608	0.58388436	6.57511473
-1.85855424	0.58819628	6.57510853
-1.85816932	0.58996600	6.57510614
-1.86321235	0.59294230	6.57511091
-1.86548233	0.59445786	6.57511330
-1.86453617	0.59775752	6.57510805
-1.86871111	0.60234100	6.57510996
-1.87048721	0.60572433	6.57510900
-1.87126303	0.60701877	6.57510900
-1.87212729	0.60843289	6.57510900
-1.87253940	0.61127883	6.57510662
-1.87410080	0.61183780	6.57510853
-1.87604392	0.61749035	6.57510519
-1.87557065	0.61914051	6.57510281
-1.87616944	0.62019557	6.57510281
-1.87852800	0.62183094	6.57510471
-1.88103223	0.62595338	6.57510424
-1.88378179	0.63065290	6.57510376
-1.88446915	0.63182765	6.57510376
-1.88753462	0.63442034	6.57510567
-1.88757229	0.63700551	6.57510328
-1.88954592	0.64041042	6.57510281
-1.89095080	0.64051241	6.57510471
-1.89162445	0.64673835	6.57509899
-1.89349294	0.64722002	6.57510185
-1.89435720	0.64863425	6.57510138
-1.89513302	0.64992869	6.57510138
-1.89657581	0.65261579	6.57510090
-1.89752853	0.65414953	6.57510090
-1.89856982	0.65580279	6.57510090
-1.90114224	0.66026300	6.57509995
-1.90209484	0.66179663	6.57509995
-1.90471828	0.66379124	6.57510233
-1.90694046	0.66475159	6.57510471
-1.90758693	0.66636193	6.57510424
-1.90853977	0.66789573	6.57510376
-1.90844071	0.66980642	6.57510185
-1.91046560	0.67074531	6.57510424
-1.91120064	0.67247528	6.57510328
-1.91296995	0.67486781	6.57510376
-1.91589630	0.67980629	6.57510328
-1.91809750	0.68098485	6.57510567
-1.91896164	0.68239909	6.57510519
-1.91942143	0.68580025	6.57510233
-1.92190540	0.69014072	6.57510185
-1.92474318	0.69495964	6.57510138
-1.92669940	0.69556153	6.57510376
-1.92807412	0.69791108	6.57510328
-1.93049002	0.70191413	6.57510328
-1.93524694	0.70474935	6.57510805
-1.93891215	0.70839673	6.57510996
-1.94215453	0.71122855	6.57511234
-1.94404340	0.71149260	6.57511520
-1.95052898	0.71715605	6.57511950
-1.95290422	0.72159475	6.57511902
-1.95986617	0.72258735	6.57512951
-1.96206808	0.72376531	6.57513189
-1.96339512	0.72555977	6.57513189
-1.96552527	0.72942168	6.57513142
-1.97208202	0.73240167	6.57513905
-1.97389889	0.73534954	6.57513857
-1.97736979	0.73595476	6.57514381
-1.98607087	0.73774499	6.57515621
-1.99199867	0.74191755	6.57516146
-1.99615669	0.74369758	6.57516670
-1.99728632	0.74547052	6.57516670
-1.99955654	0.74698597	6.57516861
-2.00239730	0.74878424	6.57517147
-2.00738263	0.74939263	6.57517910
-2.00809026	0.75034970	6.57517910
-2.02361751	0.75245756	6.57520294
-2.02691174	0.75282365	6.57520819
-2.02913308	0.75378436	6.57521057
-2.03109002	0.75438571	6.57521343
-2.03778672	0.75501925	6.57522392
-2.04483724	0.75613141	6.57523441
-2.07707214	0.75965482	6.57528448
-2.08621883	0.75902247	6.57530022
-2.09281039	0.75673288	6.57531404
-2.14238667	0.73570639	6.57541990
-2.16599894	0.72487104	6.57547140
-2.18056011	0.70874554	6.57551384
-2.19513512	0.68756884	6.57556152
-2.21342635	0.65669823	6.57562637
-2.21644139	0.65088093	6.57563782
-2.22840619	0.62265897	6.57568884
-2.23755360	0.60027522	6.57572889
-2.24183488	0.57515490	6.57576370
-2.24253988	0.56825745	6.57577276
-2.24079108	0.54389620	6.57579660
-2.23467779	0.48713699	6.57584906
-2.23184013	0.47144252	6.57586193
-2.22537184	0.45770669	6.57586622
-2.21941376	0.44490695	6.57587051
-2.21347356	0.42722505	6.57588005
-2.21109867	0.42278636	6.57588100
-2.20166969	0.39850587	6.57589197
-2.19830084	0.39296919	6.57589245
-2.19621825	0.38966262	6.57589245
-2.19374800	0.38411325	6.57589483
-2.19279242	0.38175803	6.57589579
-2.19019580	0.37350395	6.57590055
-2.18829393	0.36741543	6.57590389
-2.18460584	0.35228878	6.57591438
-2.18232918	0.34593984	6.57591772
-2.13623261	0.17966616	6.57602453
-2.13798833	0.17623433	6.57603121
-2.13645363	0.16557342	6.57604027
-2.13939738	0.16243964	6.57604885
-2.13415766	0.14472404	6.57605982
-2.12639952	0.11771342	6.57607651
-2.12552190	0.11366567	6.57607937
-2.12557340	0.11119962	6.57608223
-2.12284064	0.09842843	6.57609177
-2.12088466	0.09782651	6.57608938
-2.11411643	0.07812569	6.57609987
-2.11004686	0.06558996	6.57610703
-2.10865164	0.06345809	6.57610703
-2.10639620	0.05689090	6.57611036
-2.10360289	0.04861504	6.57611465
-2.10128570	0.04270181	6.57611752
-2.09915543	0.03883982	6.57611799
-2.09806681	0.03663120	6.57611895
-2.09598422	0.03332448	6.57611895
-2.09436464	0.03039816	6.57611942
-2.09283352	0.02759144	6.57611990
-2.09006357	0.02310988	6.57612038
-2.08718491	0.01872659	6.57612038
-2.08660650	0.01745358	6.57612085
-2.08520150	0.01735166	6.57611847
-2.08332634	0.01203647	6.57612133
-2.08135271	0.00863159	6.57612181
-2.07917190	0.00723520	6.57611990
-2.07837558	0.00615865	6.57611942
-2.07757950	0.00508195	6.57611942
-2.07666755	0.00311258	6.57611990
-2.07301998	-0.00860727	6.57612705
-2.06757188	-0.00959605	6.57611895
-2.06644201	-0.01136902	6.57611895
-2.06492734	-0.01137239	6.57611656
-2.06337571	-0.01396123	6.57611656
-2.06020141	-0.01645571	6.57611418
-2.05951428	-0.01763049	6.57611418
-2.05562449	-0.02207255	6.57611275
-2.05197001	-0.02775031	6.57611275
-2.05074191	-0.02761295	6.57611084
-2.04930925	-0.03233004	6.57611370
-2.04666543	-0.03410655	6.57611084
-2.04455209	-0.03516522	6.57610846
-2.04219413	-0.03680089	6.57610655
-2.03880548	-0.04211962	6.57610655
-2.03704548	-0.04269978	6.57610464
-2.03409910	-0.04742047	6.57610464
-1.99900723	-0.21565673	6.57623196
-1.98879933	-0.24908617	6.57625198
-1.97834659	-0.28309235	6.57627201
-1.97521293	-0.28602245	6.57627010
-1.97187853	-0.29682815	6.57627630
-1.96694481	-0.31077811	6.57628345
-1.95726776	-0.34348983	6.57630348
-1.95423579	-0.35135105	6.57630730
-1.95363688	-0.35240629	6.57630730
-1.94965267	-0.36180162	6.57631111
-1.94620240	-0.36262465	6.57630634
-1.94533801	-0.36403871	6.57630634
-1.94401431	-0.36885399	6.57630968
-1.94157469	-0.37665135	6.57631397
-1.93888378	-0.38282573	6.57631636
-1.93060195	-0.41340560	6.57633638
-1.92720222	-0.41669419	6.57633448
-1.92570210	-0.42174906	6.57633734
-1.92448401	-0.42364168	6.57633734
-1.92316651	-0.42362356	6.57633543
-1.92099571	-0.42704988	6.57633543
-1.91801512	-0.43737710	6.57634163
-1.91702819	-0.44067484	6.57634401
-1.91496634	-0.44804174	6.57634830
-1.91352057	-0.44770801	6.57634592
-1.90999544	-0.45370173	6.57634640
-1.90906298	-0.45545334	6.57634687
-1.90773892	-0.45642614	6.57634544
-1.90666366	-0.45665288	6.57634401
-1.90583348	-0.45949358	6.57634592
-1.90478253	-0.46295941	6.57634783
-1.90345836	-0.46393228	6.57634687
-1.90211082	-0.46550876	6.57634640
-1.90108037	-0.46919245	6.57634878
-1.90032494	-0.47070473	6.57634926
-1.89882386	-0.47191685	6.57634783
-1.89764357	-0.47506657	6.57634926
-1.89459109	-0.48271000	6.57635260
-1.89256001	-0.48464033	6.57635164
-1.89020181	-0.49011794	6.57635355
-1.88925242	-0.49083048	6.57635260
-1.88625467	-0.49692762	6.57635450
-1.88423038	-0.49786696	6.57635212
-1.88148093	-0.50256622	6.57635260
-1.88019478	-0.50479633	6.57635307
-1.87908554	-0.50678712	6.57635355
-1.87513840	-0.51359683	6.57635450
-1.87418568	-0.51513058	6.57635450
-1.87095618	-0.52301317	6.57635784
-1.86929941	-0.52852511	6.57636118
-1.86653638	-0.52817333	6.57635593
-1.86459315	-0.53382599	6.57635927
-1.86348391	-0.53581667	6.57635927
-1.86288512	-0.53687191	6.57635975
-1.85960495	-0.54228902	6.57636023
-1.85616827	-0.54816318	6.57636070
-1.85479355	-0.55051291	6.57636118
-1.85278964	-0.55167001	6.57635927
-1.85181940	-0.55600679	6.57636213
-1.84975433	-0.55651039	6.57635927
-1.84899902	-0.55802268	6.57635975
-1.84766138	-0.55778670	6.57635736
-1.84517086	-0.56696051	6.57636309
-1.84185672	-0.57798409	6.57636976
-1.83685160	-0.57837516	6.57636213
-1.83341479	-0.58424938	6.57636261
-1.83156395	-0.59280360	6.57636929
-1.82842648	-0.59271240	6.57636356
-1.82473111	-0.59411210	6.57635927
-1.82398558	-0.59765428	6.57636166
-1.82146454	-0.60458034	6.57636499
-1.81857538	-0.60693336	6.57636309
-1.81505013	-0.61292720	6.57636356
-1.81076956	-0.62043315	6.57636499
-1.80893600	-0.62618434	6.57636833
-1.80750990	-0.62606806	6.57636547
-1.80567265	-0.63967347	6.57637739
-1.80232430	-0.64542806	6.57637835
-1.80116081	-0.65280759	6.57638454
-1.80038500	-0.65410191	6.57638454
-1.79918718	-0.65621233	6.57638502
-1.79579127	-0.66252220	6.57638645
-1.79335499	-0.66630733	6.57638645
-1.78984725	-0.66949815	6.57638407
-1.78880596	-0.67115140	6.57638407
-1.78692091	-0.67443675	6.57638454
-1.78645134	-0.67580795	6.57638550
-1.78508663	-0.68018746	6.57638788
-1.78448749	-0.68124270	6.57638836
-1.78310299	-0.68156254	6.57638597
-1.78261304	-0.68271589	6.57638645
-1.78181672	-0.68379259	6.57638645
-1.78123844	-0.68506563	6.57638693
-1.78080606	-0.68769360	6.57638931
-1.77992511	-0.69191110	6.57639217
-1.77914929	-0.69320560	6.57639265
-1.77844155	-0.69416255	6.57639217
-1.77782607	-0.69802117	6.57639551
-1.77680516	-0.69989240	6.57639599
-1.77594090	-0.70130658	6.57639599
-1.77446043	-0.70657879	6.57639933
-1.77345347	-0.71350116	6.57640553
-1.77185106	-0.71362448	6.57640266
-1.77119780	-0.72006834	6.57640886
-1.76837683	-0.73295927	6.57641840
-1.76663184	-0.74946630	6.57643366
-1.76414776	-0.75380683	6.57643414
-1.76356649	-0.76293445	6.57644367
-1.76065445	-0.93303561	6.57662678
-1.76280236	-0.95899701	6.57665920
-1.76568985	-1.02975154	6.57674217
-1.76588416	-1.03758454	6.57675123
-1.76480913	-1.04484439	6.57675743
-1.76639485	-1.04752445	6.57676268
-1.76343441	-1.05806947	6.57676935
-1.76397920	-1.06240296	6.57677507
-1.76353979	-1.06602192	6.57677841
-1.76398981	-1.07146633	6.57678509
-1.76664710	-1.07474077	6.57679319
-1.76483393	-1.09158540	6.57680893
-1.76185644	-1.10493326	6.57681894
-1.76391244	-1.10624266	6.57682371
-1.76231623	-1.11240768	6.57682800
-1.76146269	-1.11585212	6.57683039
-1.76071024	-1.12038517	6.57683372
-1.76172161	-1.13120198	6.57684755
-1.75620568	-1.15427911	6.57686377
-1.75752664	-1.15731859	6.57686949
-1.75197375	-1.18298113	6.57688856
-1.74229980	-1.20783842	6.57690001
-1.73556638	-1.22193301	6.57690430
-1.72380972	-1.23922133	6.57690382
-1.69263124	-1.27876925	6.57689524
-1.68468237	-1.28690195	6.57689095
-1.67144513	-1.29858708	6.57688189
-1.65327454	-1.31334722	6.57686758
-1.63989878	-1.32268691	6.57685566
-1.63122773	-1.32672501	6.57684565
-1.61820209	-1.33256483	6.57683039
-1.61615741	-1.33328652	6.57682753
-1.59627771	-1.34021664	6.57680178
-1.58038020	-1.34560657	6.57678127
-1.57842398	-1.34620845	6.57677889
-1.47102380	-1.36175537	6.57661629
-1.46753263	-1.36214244	6.57661104
-1.39095592	-1.36822629	6.57648945
-1.37958694	-1.36855412	6.57647085
-1.36696935	-1.36852705	6.57644987
-1.32110918	-1.36806941	6.57637262
-1.31698871	-1.36726427	6.57636499
-1.31545377	-1.36704993	6.57636213
-1.31484437	-1.36607468	6.57636023
-1.31155729	-1.36544955	6.57635403
-1.31022024	-1.36521411	6.57635117
-1.30849838	-1.36320889	6.57634640
-1.30692267	-1.36255872	6.57634306
-1.30475831	-1.36115181	6.57633781
-1.30197501	-1.36058211	6.57633257
-1.30132532	-1.35917175	6.57632971
-1.29986811	-1.35680723	6.57632494
-1.29853117	-1.35657179	6.57632208
-1.29693508	-1.35570383	6.57631874
-1.29559803	-1.35546815	6.57631636
-1.29481149	-1.35473239	6.57631397
-1.29327726	-1.35451818	6.57631111
-1.29227304	-1.35358608	6.57630873
-1.29100418	-1.35301304	6.57630587
-1.28841805	-1.35242200	6.57630062
-1.28592038	-1.35171115	6.57629585
-1.27692652	-1.35144305	6.57628059
-1.27332938	-1.35091054	6.57627392
-1.26339340	-1.35036373	6.57625675
-1.25404930	-1.34975278	6.57624054
-1.24677038	-1.34863818	6.57622671
-1.24337125	-1.34808493	6.57622051
-1.23179150	-1.34722543	6.57620049
-1.21814942	-1.34604812	6.57617617
-1.21732283	-1.34487689	6.57617378
-1.21113586	-1.34457457	6.57616282
-1.20968997	-1.34424090	6.57615995
-1.20844078	-1.34388518	6.57615757
-1.20412314	-1.34310162	6.57614946
-1.20285344	-1.34252822	6.57614660
-1.19968581	-1.34018910	6.57613897
-1.19643950	-1.33999991	6.57613325
-1.19159031	-1.33993340	6.57612514
-1.18933749	-1.33864617	6.57611990
-1.18861914	-1.33757269	6.57611752
-1.18561792	-1.33680665	6.57611179
-1.17271471	-1.33692050	6.57609034
-1.17215288	-1.33538997	6.57608747
-1.15984845	-1.33444881	6.57606602
-1.15766382	-1.33282387	6.57606030
-1.15694618	-1.33175099	6.57605791
-1.15407348	-1.33130050	6.57605267
-1.14920437	-1.33101666	6.57604456
-1.14806414	-1.33075929	6.57604218
-1.14219093	-1.32954323	6.57603121
-1.13940740	-1.32897341	6.57602549
-1.13357508	-1.32819307	6.57601500
-1.13032901	-1.32800353	6.57600927
-1.11481905	-1.32730854	6.57598257
-1.11052096	-1.32674217	6.57597494
-1.10484517	-1.32550478	6.57596397
-1.09716463	-1.32542396	6.57595110
-1.08577526	-1.32553399	6.57593203
-1.08512568	-1.32412362	6.57592964
-1.07733321	-1.32411444	6.57591677
-1.07441342	-1.32421982	6.57591200
-1.06787252	-1.32439578	6.57590103
-1.06653571	-1.32416034	6.57589865
-1.06230569	-1.32325637	6.57589054
-1.06092775	-1.32258546	6.57588720
-1.05805588	-1.32213521	6.57588196
-1.05398250	-1.32077444	6.57587385
-1.05246854	-1.32077813	6.57587147
-1.05192709	-1.31946552	6.57586908
-1.04694855	-1.31908309	6.57586002
-1.04623091	-1.31801009	6.57585764
-1.04542398	-1.31705642	6.57585526
-1.04215729	-1.31664932	6.57584953
-1.04128313	-1.31603348	6.57584715
-1.03988433	-1.31514394	6.57584381
-1.03854728	-1.31490850	6.57584143
-1.03602922	-1.31397998	6.57583618
-1.03478003	-1.31362450	6.57583380
-1.03333426	-1.31329072	6.57583094
-1.03206468	-1.31271732	6.57582808
-1.03072691	-1.31248128	6.57582569
-1.03000939	-1.31140840	6.57582331
-1.02893698	-1.31081378	6.57582092
-1.02511919	-1.31090641	6.57581472
-1.02442193	-1.31005120	6.57581234
-1.02288687	-1.30983686	6.57580948
-1.01795006	-1.30989039	6.57580137
-1.01725197	-1.30903482	6.57579947
-1.01402617	-1.30906332	6.57579422
-1.01102483	-1.30829716	6.57578802
-1.00801671	-1.30852211	6.57578325
-1.00538993	-1.30749547	6.57577801
-1.00454211	-1.30610609	6.57577515
-0.99659324	-1.30336320	6.57575846
-0.99543321	-1.30288851	6.57575607
-0.99458551	-1.30149913	6.57575321
-0.99197894	-1.30069029	6.57574797
-0.99060047	-1.30001867	6.57574511
-0.98917514	-1.29990268	6.57574224
-0.98645973	-1.29899549	6.57573700
-0.98115814	-1.29749727	6.57572651
-0.98026967	-1.29567242	6.57572269
-0.97876596	-1.29451537	6.57571888
-0.97518909	-1.29420066	6.57571268
-0.97238517	-1.29341316	6.57570696
-0.97111237	-1.29300976	6.57570457
-0.96826482	-1.29260802	6.57569933
-0.96095860	-1.29226661	6.57568693
-0.95363206	-1.29170716	6.57567406
-0.78516191	-1.28607035	6.57538605
-0.78456295	-1.28712571	6.57538605
-0.78236175	-1.28830421	6.57538366
-0.77960867	-1.28998220	6.57538080
-0.77688634	-1.29006624	6.57537651
-0.77600169	-1.29126227	6.57537651
-0.77322888	-1.29272294	6.57537317
-0.77284765	-1.29397464	6.57537413
-0.77124459	-1.29409754	6.57537174
-0.77018297	-1.29553306	6.57537127
-0.76767480	-1.29663444	6.57536840
-0.76371759	-1.29757202	6.57536268
-0.76325119	-1.29877329	6.57536316
-0.76193476	-1.29875576	6.57536125
-0.76166248	-1.30010545	6.57536221
-0.76001173	-1.30078375	6.57536030
-0.75790578	-1.30085158	6.57535696
-0.75738859	-1.30277824	6.57535791
-0.75650394	-1.30397439	6.57535791
-0.75421357	-1.30527210	6.57535553
-0.75199181	-1.30623293	6.57535267
-0.74990565	-1.30651832	6.57534981
-0.74722409	-1.30703795	6.57534552
-0.74650675	-1.30980730	6.57534742
-0.74197423	-1.31184793	6.57534218
-0.74148422	-1.31300139	6.57534266
-0.74053156	-1.31453502	6.57534266
-0.73715907	-1.31705046	6.57533979
-0.73142862	-1.31735933	6.57533073
-0.73141825	-1.31917143	6.57533264
-0.72713071	-1.32063532	6.57532692
-0.72139764	-1.32176542	6.57531881
-0.72083950	-1.32325637	6.57531929
-0.72013164	-1.32421350	6.57531929
-0.71646351	-1.32484007	6.57531404
-0.71579665	-1.32623267	6.57531452
-0.71375126	-1.32695365	6.57531166
-0.71003544	-1.32813549	6.57530689
-0.70596564	-1.32979596	6.57530165
-0.69909209	-1.33066869	6.57529116
-0.69912606	-1.33209538	6.57529306
-0.69798291	-1.33265960	6.57529163
-0.69528097	-1.33296120	6.57528734
-0.69474328	-1.33466983	6.57528830
-0.69002032	-1.33574104	6.57528162
-0.68913573	-1.33693731	6.57528162
-0.68767554	-1.33858502	6.57528114
-0.67724258	-1.34018278	6.57526541
-0.67194116	-1.34252691	6.57525921
-0.67014074	-1.34267139	6.57525635
-0.66691500	-1.34269965	6.57525063
-0.66642505	-1.34385300	6.57525110
-0.66482258	-1.34397662	6.57524872
-0.65801716	-1.34451175	6.57523775
-0.65331751	-1.34497929	6.57523060
-0.65138447	-1.34497762	6.57522726
-0.65071756	-1.34637022	6.57522774
-0.64920300	-1.34637344	6.57522535
-0.64277166	-1.34664834	6.57521486
-0.64169663	-1.34687507	6.57521343
-0.64047849	-1.34876752	6.57521343
-0.63434362	-1.35093164	6.57520533
-0.59963441	-1.34610748	6.57514191
-0.54088080	-1.33691812	6.57503366
-0.53632092	-1.33588970	6.57502508
-0.53259832	-1.33487189	6.57501745
-0.52110666	-1.33005035	6.57499313
