//X	Y	Z
-0.48066437	-1.23801613	7.65257359
-0.45658189	-1.18859303	7.65247011
-0.45037436	-1.15847039	7.65241528
-0.44598997	-1.13627076	7.65237474
-0.44567573	-1.13416278	7.65237141
-0.44070348	-1.09481370	7.65230274
-0.43771106	-1.03861082	7.65220881
-0.43802181	-1.01897025	7.65217733
-0.43834263	-1.01397502	7.65216923
-0.43864065	-1.00801063	7.65216017
-0.43887725	-1.00237882	7.65215111
-0.44029081	-0.97569108	7.65210915
-0.44160554	-0.96785861	7.65209818
-0.44348851	-0.96457493	7.65209436
-0.44412971	-0.96093112	7.65208912
-0.44451702	-0.95484656	7.65207958
-0.44499740	-0.95370024	7.65207815
-0.44589859	-0.94592458	7.65206671
-0.44736239	-0.94345486	7.65206432
-0.44742781	-0.94183415	7.65206146
-0.44758373	-0.94062436	7.65205956
-0.44821143	-0.93396658	7.65204954
-0.44892672	-0.93300420	7.65204859
-0.44985411	-0.93125618	7.65204668
-0.45051324	-0.92986917	7.65204525
-0.45134607	-0.92899847	7.65204477
-0.45153415	-0.92671281	7.65204096
-0.45210919	-0.92468935	7.65203857
-0.45270708	-0.92363477	7.65203714
-0.45349362	-0.92029518	7.65203238
-0.45458117	-0.91604948	7.65202665
-0.45565006	-0.91589379	7.65202761
-0.45624790	-0.91483933	7.65202665
-0.45683688	-0.90948308	7.65201855
-0.45744932	-0.90562660	7.65201283
-0.45837319	-0.89882010	7.65200281
-0.45995978	-0.89568532	7.65199900
-0.46003112	-0.89330828	7.65199518
-0.46091178	-0.88909084	7.65198946
-0.46224883	-0.88857430	7.65198994
-0.46285251	-0.88041604	7.65197706
-0.46421763	-0.88011158	7.65197802
-0.46455652	-0.87737304	7.65197372
-0.46568680	-0.87688500	7.65197420
-0.46581346	-0.87493175	7.65197134
-0.46621445	-0.87186110	7.65196657
-0.46670935	-0.86791301	7.65196085
-0.46689343	-0.86691540	7.65195942
-0.46772271	-0.86098599	7.65195036
-0.46842447	-0.85700929	7.65194464
-0.46902758	-0.85519814	7.65194225
-0.46981940	-0.85110158	7.65193653
-0.47081751	-0.84697616	7.65193081
-0.47097826	-0.84447861	7.65192699
-0.47267884	-0.83637685	7.65191555
-0.47433606	-0.83086455	7.65190840
-0.47630832	-0.82746065	7.65190458
-0.47717440	-0.82604522	7.65190315
-0.47750050	-0.82029307	7.65189409
-0.47883815	-0.82030749	7.65189552
-0.47989181	-0.81607538	7.65188980
-0.48026469	-0.81279254	7.65188456
-0.48170045	-0.81011057	7.65188169
-0.48231816	-0.80549729	7.65187502
-0.48446411	-0.80260962	7.65187216
-0.48479885	-0.80115938	7.65187025
-0.48612723	-0.79634082	7.65186405
-0.48640478	-0.79393476	7.65186024
-0.48703063	-0.79309249	7.65185928
-0.48853311	-0.78932124	7.65185499
-0.48998812	-0.78254950	7.65184546
-0.49160814	-0.77887005	7.65184069
-0.49250221	-0.77766675	7.65183973
-0.49331212	-0.77582705	7.65183783
-0.49529797	-0.77543718	7.65183878
-0.49597168	-0.77124834	7.65183306
-0.49622113	-0.76863021	7.65182877
-0.49708724	-0.76721478	7.65182734
-0.49786392	-0.76591969	7.65182590
-0.49893674	-0.76447576	7.65182495
-0.49898010	-0.76188654	7.65182066
-0.50052345	-0.76134098	7.65182114
-0.50053871	-0.75853950	7.65181684
-0.50126851	-0.75477493	7.65181112
-0.50186634	-0.75372052	7.65181017
-0.50353706	-0.75122225	7.65180779
-0.50352430	-0.74820864	7.65180302
-0.50439036	-0.74679321	7.65180159
-0.50489879	-0.74585915	7.65180063
-0.50588226	-0.74453551	7.65179920
-0.50725675	-0.74218601	7.65179682
-0.50813740	-0.73796880	7.65179110
-0.50993085	-0.73480541	7.65178728
-0.51043928	-0.73387128	7.65178633
-0.51142281	-0.73254776	7.65178537
-0.51215857	-0.72802687	7.65177870
-0.51290196	-0.72727644	7.65177822
-0.51315653	-0.72390145	7.65177298
-0.51465380	-0.72088695	7.65176964
-0.51611775	-0.71841711	7.65176725
-0.51730812	-0.71706510	7.65176582
-0.51817942	-0.71489286	7.65176344
-0.51925230	-0.71344894	7.65176201
-0.52014649	-0.71224582	7.65176105
-0.52139938	-0.71109265	7.65176010
-0.52150816	-0.70688260	7.65175343
-0.52365446	-0.70452577	7.65175200
-0.52532011	-0.70278430	7.65175056
-0.52612478	-0.70170140	7.65174961
-0.52672255	-0.70064700	7.65174866
-0.52688384	-0.69868046	7.65174580
-0.52805150	-0.69635952	7.65174294
-0.52935404	-0.69585609	7.65174341
-0.52936405	-0.69381148	7.65174007
-0.52925760	-0.68585902	7.65172720
-0.58971965	-0.52886569	7.65153217
-0.59264910	-0.51811051	7.65151739
-0.59264559	-0.51305169	7.65150928
-0.59380972	-0.50567210	7.65149879
-0.59379339	-0.49759966	7.65148544
-0.59495664	-0.49021959	7.65147448
-0.59617811	-0.48379552	7.65146542
-0.59663981	-0.48039198	7.65146065
-0.59644288	-0.47837585	7.65145683
-0.59660816	-0.47512120	7.65145206
-0.59584677	-0.47361475	7.65144873
-0.59541070	-0.46635580	7.65143633
-0.59438115	-0.46521032	7.65143347
-0.59479654	-0.45933783	7.65142441
-0.59425658	-0.45500109	7.65141678
-0.59427118	-0.45219919	7.65141249
-0.59432888	-0.44680798	7.65140390
-0.59494132	-0.44295165	7.65139818
-0.59549296	-0.43942824	7.65139294
-0.59628415	-0.43533123	7.65138721
-0.59588051	-0.43334356	7.65138340
-0.59652078	-0.42969939	7.65137815
-0.59701645	-0.42575160	7.65137243
-0.59729522	-0.42387706	7.65136957
-0.59727114	-0.42237666	7.65136719
-0.59736532	-0.42096850	7.65136480
-0.59740388	-0.41966698	7.65136290
-0.59746921	-0.41804630	7.65136051
-0.59733951	-0.41547176	7.65135622
-0.59625721	-0.41208276	7.65134954
-0.59650850	-0.40364900	7.65133619
-0.59777641	-0.39334705	7.65132046
-0.60083878	-0.37988222	7.65130186
-0.60010457	-0.37858760	7.65129900
-0.60195601	-0.37003306	7.65128708
-0.60289860	-0.36548370	7.65128040
-0.60343617	-0.35894585	7.65127039
-0.60322571	-0.35391560	7.65126228
-0.60335851	-0.35120595	7.65125799
-0.60301536	-0.34888533	7.65125370
-0.60329878	-0.34572285	7.65124893
-0.60319060	-0.34358600	7.65124512
-0.60359681	-0.33975860	7.65123940
-0.60399711	-0.33668748	7.65123510
-0.60373926	-0.33553484	7.65123272
-0.60238540	-0.33432609	7.65122938
-0.60247880	-0.33291748	7.65122747
-0.60228717	-0.33014452	7.65122271
-0.60230166	-0.32734260	7.65121794
-0.60198736	-0.32523459	7.65121460
-0.60143214	-0.32369930	7.65121126
-0.60164946	-0.32215720	7.65120935
-0.60100484	-0.32074216	7.65120602
-0.60051167	-0.31887484	7.65120268
-0.60037017	-0.31728265	7.65119982
-0.59991026	-0.31487060	7.65119553
-0.59951109	-0.31212562	7.65119076
-0.59877771	-0.31083140	7.65118790
-0.59840131	-0.30905545	7.65118456
-0.59802556	-0.30727994	7.65118170
-0.59777194	-0.30483902	7.65117741
-0.59443688	-0.30273229	7.65117073
-0.59583282	-0.29100853	7.65115309
-0.59510881	-0.28766918	7.65114689
-0.59526891	-0.28517130	7.65114307
-0.59482354	-0.27995735	7.65113401
-0.59474933	-0.27727628	7.65112972
-0.59461308	-0.27492723	7.65112591
-0.59423739	-0.27315170	7.65112257
-0.59460962	-0.26986846	7.65111780
-0.59375876	-0.26848242	7.65111446
-0.59353316	-0.26625365	7.65111065
-0.59390604	-0.26297086	7.65110588
-0.59329468	-0.26101124	7.65110207
-0.59388906	-0.25489801	7.65109253
-0.59387541	-0.25188407	7.65108776
-0.59341562	-0.24947199	7.65108347
-0.59318471	-0.24800006	7.65108061
-0.59176946	-0.24712372	7.65107775
-0.59239572	-0.23993453	7.65106678
-0.59063208	-0.23749444	7.65106106
-0.59082615	-0.23445231	7.65105677
-0.59062850	-0.23243582	7.65105295
-0.58874738	-0.22990379	7.65104723
-0.58876199	-0.22710198	7.65104246
-0.58705950	-0.22432947	7.65103626
-0.58713084	-0.22195226	7.65103245
-0.58705604	-0.21927065	7.65102816
-0.58665228	-0.21728304	7.65102482
-0.58639860	-0.21484208	7.65102053
-0.58569336	-0.21375999	7.65101814
-0.58312488	-0.21240285	7.65101337
-0.58458626	-0.19905835	7.65099335
-0.58403170	-0.19752344	7.65099001
-0.58271503	-0.19448173	7.65098381
-0.58223653	-0.18981251	7.65097570
-0.58198273	-0.18737161	7.65097141
-0.58208728	-0.18444979	7.65096712
-0.58171093	-0.18267387	7.65096378
-0.58017290	-0.18246251	7.65096188
-0.58031023	-0.17899570	7.65095663
-0.57987309	-0.17755267	7.65095377
-0.57913911	-0.17625800	7.65095091
-0.57657069	-0.17490083	7.65094614
-0.57691121	-0.16634673	7.65093279
-0.57610303	-0.16237092	7.65092564
-0.57535613	-0.15806270	7.65091753
-0.57263350	-0.15209958	7.65090561
-0.57264876	-0.14929810	7.65090084
-0.57073426	-0.14731085	7.65089560
-0.56847674	-0.14300293	7.65088654
-0.56856787	-0.13706714	7.65087700
-0.56783366	-0.13577253	7.65087414
-0.56787705	-0.13318318	7.65087032
-0.56795287	-0.13004875	7.65086508
-0.56714463	-0.12607300	7.65085793
-0.56454301	-0.12526047	7.65085411
-0.56434715	-0.11742836	7.65084124
-0.56400645	-0.10929269	7.65082741
-0.56312156	-0.10845083	7.65082550
-0.56105638	-0.10691637	7.65082073
-0.56081790	-0.10167396	7.65081215
-0.56008458	-0.10037977	7.65080929
-0.55974150	-0.09805912	7.65080547
-0.55867857	-0.09745836	7.65080309
-0.55821794	-0.09504592	7.65079880
-0.55757403	-0.09363145	7.65079594
-0.55728704	-0.09173512	7.65079260
-0.55574822	-0.09152341	7.65079069
-0.55437195	-0.08299857	7.65077543
-0.55354917	-0.08182472	7.65077305
-0.55333889	-0.07679445	7.65076447
-0.55236626	-0.07025748	7.65075302
-0.55154359	-0.06908351	7.65075016
-0.55173504	-0.05516672	7.65072775
-0.55016470	-0.04968411	7.65071774
-0.54934013	-0.03763604	7.65069723
-0.54785931	-0.03203303	7.65068674
-0.54696161	-0.02817762	7.65067959
-0.54634494	-0.01028496	7.65065002
-0.54571545	0.01062125	7.65061569
-0.54456240	0.01110214	7.65061378
-0.54372609	0.01529008	7.65060616
-0.54178357	0.01748961	7.65060043
-0.54165328	0.02059501	7.65059566
-0.54154515	0.02273190	7.65059185
-0.53980017	0.02291477	7.65058994
-0.53930110	0.02402574	7.65058756
-0.53738654	0.02601302	7.65058231
-0.53680849	0.02851731	7.65057802
-0.53637153	0.02996033	7.65057516
-0.53549188	0.03155893	7.65057182
-0.53455168	0.03282470	7.65056849
-0.53366685	0.03366655	7.65056658
-0.53061461	0.03893608	7.65055513
-0.52906305	0.04216146	7.65054798
-0.52651739	0.04254973	7.65054512
-0.52493256	0.04523045	7.65053940
-0.52442586	0.05011183	7.65053082
-0.52218175	0.05140561	7.65052652
-0.52041805	0.05384576	7.65052080
-0.51798159	0.05791295	7.65051174
-0.51639676	0.06059361	7.65050602
-0.51516962	0.06375569	7.65049982
-0.51144814	0.06559366	7.65049314
-0.51028228	0.06908828	7.65048647
-0.50877219	0.06908739	7.65048456
-0.50521326	0.07923841	7.65046501
-0.50353897	0.08179885	7.65045929
-0.50228298	0.08517337	7.65045214
-0.50126439	0.09417939	7.65043688
-0.50071156	0.10152978	7.65042448
-0.49972445	0.10526496	7.65041733
-0.49710572	0.11415029	7.65040016
-0.49613324	0.12068731	7.65038872
-0.49381495	0.14135200	7.65035295
-0.49248305	0.14159226	7.65035152
-0.49223009	0.14403278	7.65034723
-0.49116638	0.14463395	7.65034533
-0.49082324	0.14695454	7.65034103
-0.48965746	0.15044898	7.65033436
-0.48740056	0.15475655	7.65032530
-0.48623461	0.15825099	7.65031815
-0.48603711	0.16026759	7.65031481
-0.48545453	0.16201466	7.65031147
-0.48493248	0.16409457	7.65030766
-0.48407751	0.17053980	7.65029621
-0.48386714	0.17557001	7.65028811
-0.48494178	0.18282938	7.65027714
-0.50546622	0.29611659	7.65011406
-0.52790314	0.34518468	7.65005636
-0.53047329	0.34964305	7.65005159
-0.53656900	0.36009550	7.65004063
-0.54206687	0.36949342	7.65003109
-0.54672676	0.37726396	7.65002298
-0.55158359	0.38301820	7.65001822
-0.56126457	0.39398175	7.65001011
-0.58012158	0.40991604	7.65000296
-0.62139350	0.44250739	7.64999056
-0.62617445	0.44512713	7.64999056
-0.63953364	0.45166343	7.64999342
-0.65380567	0.45714560	7.64999819
-0.66801625	0.46229535	7.65000391
-0.67732793	0.46491733	7.65000868
-0.68874347	0.46783710	7.65001535
-0.70104247	0.46991566	7.65002394
-0.71801919	0.47169158	7.65003777
-0.72088921	0.47124007	7.65004110
-0.73604357	0.47006541	7.65005779
-0.75351334	0.46997398	7.65007496
-0.75961095	0.46955213	7.65008163
-0.76949131	0.46762493	7.65009451
-0.77209294	0.46681243	7.65009832
-0.78645259	0.46659946	7.65011311
-0.78787321	0.46647993	7.65011454
-0.79568845	0.46608695	7.65012264
-0.79837942	0.46539491	7.65012646
-0.80287760	0.46485180	7.65013170
-0.80592638	0.46464106	7.65013504
-0.80689996	0.46391994	7.65013742
-0.81124729	0.46292415	7.65014315
-0.81204194	0.46196243	7.65014553
-0.82607216	0.46105587	7.65016079
-0.84122729	0.45988077	7.65017748
-0.84741414	0.45957941	7.65018368
-0.85019457	0.45900747	7.65018749
-0.85978806	0.45897642	7.65019703
-0.86016452	0.45720044	7.65020037
-0.86824715	0.45716900	7.65020800
-0.86904258	0.45620689	7.65021038
-0.87238765	0.45614475	7.65021372
-0.87797666	0.45478889	7.65022135
-0.87948728	0.45478931	7.65022326
-0.88398480	0.45424685	7.65022850
-0.88445061	0.45259124	7.65023136
-0.88729250	0.45235184	7.65023470
-0.88874114	0.45202017	7.65023661
-0.88980484	0.45141897	7.65023851
-0.89435828	0.45045212	7.65024471
-0.89586902	0.45045257	7.65024614
-0.89894593	0.45002952	7.65024996
-0.90045655	0.45003000	7.65025139
-0.90287948	0.44897676	7.65025520
-0.90432811	0.44864517	7.65025711
-0.90541983	0.44783178	7.65025949
-0.90988922	0.44750145	7.65026474
-0.91124904	0.44704914	7.65026665
-0.91459417	0.44698688	7.65026999
-0.91553962	0.44647801	7.65027189
-0.91713452	0.44584200	7.65027428
-0.92169392	0.44563147	7.65027905
-0.92459202	0.44496781	7.65028286
-0.93067944	0.44250137	7.65029287
-0.93147492	0.44153923	7.65029526
-0.93744981	0.44045240	7.65030289
-0.93928480	0.44038951	7.65030479
-0.94052660	0.44002947	7.65030670
-0.94066811	0.43843704	7.65030956
-0.94413054	0.43828321	7.65031290
-0.94700056	0.43783176	7.65031672
-0.94998801	0.43728834	7.65032053
-0.95433450	0.43629298	7.65032625
-0.95539820	0.43569177	7.65032816
-0.95755291	0.43427762	7.65033245
-0.95941597	0.43400255	7.65033484
-0.96000373	0.43301234	7.65033722
-0.96553153	0.43132401	7.65034533
-0.96680218	0.43075126	7.65034723
-0.96831214	0.43075204	7.65034866
-0.97094190	0.42972741	7.65035295
-0.97647029	0.42803857	7.65036106
-0.97749996	0.42689320	7.65036392
-0.97871435	0.42674482	7.65036535
-0.98119330	0.42526734	7.65037060
-0.98648620	0.42376274	7.65037823
-0.99020696	0.42192513	7.65038443
-0.99087977	0.42029792	7.65038776
-0.99273813	0.41873506	7.65039206
-0.99744296	0.41822061	7.65039778
-0.99871290	0.41764832	7.65039968
-1.00488532	0.41454491	7.65041113
-1.00786269	0.41195685	7.65041780
-1.00949085	0.41186553	7.65041971
-1.01120842	0.41189441	7.65042162
-1.01457155	0.40957543	7.65042830
-1.01672089	0.40740454	7.65043402
-1.01887560	0.40599045	7.65043831
-1.02029693	0.40587056	7.65044022
-1.02100217	0.40478843	7.65044260
-1.02253580	0.40381995	7.65044546
-1.02383876	0.40379229	7.65044689
-1.02493048	0.40297896	7.65044928
-1.02554631	0.40177649	7.65045166
-1.02574515	0.39922854	7.65045595
-1.02710402	0.39930758	7.65045738
-1.02964830	0.39945078	7.65045977
-1.03041577	0.39870077	7.65046167
-1.03275442	0.39828411	7.65046453
-1.03431523	0.39710385	7.65046787
-1.03555775	0.39674333	7.65046978
-1.03656459	0.39656690	7.65047121
-1.03984308	0.39541548	7.65047598
-1.04202163	0.39250097	7.65048313
-1.04471290	0.39180875	7.65048695
-1.04677761	0.39080542	7.65049028
-1.04873586	0.39087635	7.65049219
-1.04922855	0.38953996	7.65049505
-1.04966569	0.38809693	7.65049744
-1.05241299	0.38698050	7.65050220
-1.05495322	0.38583553	7.65050650
-1.05535817	0.38331637	7.65051079
-1.05958688	0.38294381	7.65051556
-1.06354976	0.38114753	7.65052223
-1.06380224	0.37923801	7.65052557
-1.06453538	0.37794381	7.65052843
-1.06596267	0.37804979	7.65052986
-1.07012582	0.37605652	7.65053701
-1.07085919	0.37476227	7.65053988
-1.07194567	0.37319213	7.65054369
-1.07467008	0.37304455	7.65054655
-1.07585049	0.37235203	7.65054893
-1.07691407	0.37175077	7.65055084
-1.07992959	0.37099528	7.65055466
-1.08186281	0.36675078	7.65056372
-1.08295333	0.36646885	7.65056515
-1.08443010	0.36592495	7.65056753
-1.08504176	0.36343437	7.65057230
-1.08529961	0.36228168	7.65057421
-1.08681083	0.36175114	7.65057659
-1.08831513	0.36152619	7.65057850
-1.09040833	0.35977948	7.65058327
-1.09165072	0.35941902	7.65058517
-1.09395111	0.35770088	7.65058994
-1.09616184	0.35586232	7.65059519
-1.09681225	0.35467324	7.65059805
-1.09727800	0.35301757	7.65060091
-1.09916794	0.35306180	7.65060282
-1.09990132	0.35176760	7.65060568
-1.10039520	0.34989977	7.65060902
-1.10181570	0.34978026	7.65061045
-1.10476637	0.34687299	7.65061808
-1.10540450	0.34523264	7.65062141
-1.10632396	0.34440407	7.65062380
-1.10718000	0.34377486	7.65062571
-1.11259365	0.34399754	7.65063047
-1.11834896	0.33901793	7.65064430
-1.12084591	0.33528373	7.65065289
-1.12053382	0.33286434	7.65065622
-1.12271726	0.33123767	7.65066099
-1.12601900	0.32858631	7.65066862
-1.12683606	0.32718652	7.65067196
-1.12772262	0.32528225	7.65067577
-1.12872374	0.32488000	7.65067720
-1.12960792	0.32403865	7.65067959
-1.13151705	0.32129455	7.65068579
-1.13373303	0.32021290	7.65068960
-1.13354909	0.31921542	7.65069103
-1.13398552	0.31830341	7.65069294
-1.13679647	0.31645650	7.65069866
-1.14100957	0.31381357	7.65070724
-1.14194083	0.30997181	7.65071440
-1.14318347	0.30961108	7.65071630
-1.14299941	0.30861378	7.65071774
-1.14320147	0.30735433	7.65071964
-1.14387417	0.30572727	7.65072298
-1.14680016	0.30485135	7.65072727
-1.14637661	0.30274972	7.65073061
-1.14737749	0.30234751	7.65073204
-1.15021014	0.30006313	7.65073872
-1.15210128	0.29957581	7.65074110
-1.15298140	0.29744613	7.65074539
-1.15501857	0.29612389	7.65074968
-1.15727377	0.29287890	7.65075684
-1.16090572	0.29092050	7.65076399
-1.16284823	0.28872108	7.65076923
-1.16268754	0.28622365	7.65077305
-1.16676664	0.28486687	7.65077925
-1.17148960	0.28209555	7.65078831
-1.17343223	0.27989614	7.65079403
-1.17371917	0.27799991	7.65079737
-1.17504525	0.27700329	7.65080023
-1.17678082	0.27477539	7.65080547
-1.34232998	0.22895232	7.65104151
-1.34969807	0.22795776	7.65105057
-1.35234249	0.22973505	7.65105009
-1.35690188	0.22952452	7.65105486
-1.35853004	0.22943306	7.65105677
-1.36223793	0.23060913	7.65105867
-1.36383748	0.23073032	7.65105963
-1.36455274	0.23169293	7.65105915
-1.37296557	0.23235442	7.65106630
-1.37839031	0.23355986	7.65106964
-1.38321817	0.23371033	7.65107393
-1.38499713	0.23407176	7.65107536
-1.39254332	0.23331843	7.65108395
-1.44002473	0.22491270	7.65114403
-1.44422638	0.22422101	7.65114927
-1.44600463	0.22458279	7.65115023
-1.45301151	0.22816570	7.65115118
-1.45928800	0.22798459	7.65115786
-1.46467018	0.22660019	7.65116501
-1.46736133	0.22590803	7.65116882
-1.46837938	0.22724482	7.65116787
-1.46894264	0.22828601	7.65116644
-1.47063220	0.22852701	7.65116787
-1.47267866	0.22924979	7.65116882
-1.47416186	0.22893147	7.65117073
-1.47546577	0.22890335	7.65117216
-1.47816610	0.23025626	7.65117264
-1.47876406	0.23131073	7.65117121
-1.48279214	0.23113513	7.65117550
-1.48478746	0.23357010	7.65117359
-1.48819375	0.23384050	7.65117645
-1.48905981	0.23525587	7.65117502
-1.49424565	0.23535678	7.65117979
-1.49620211	0.23649022	7.65118027
-1.49934042	0.23639959	7.65118313
-1.49991024	0.23766625	7.65118170
-1.50411701	0.23773131	7.65118599
-1.50527442	0.23853868	7.65118551
-1.50663304	0.23861781	7.65118694
-1.50752711	0.23982102	7.65118551
-1.50921595	0.24006251	7.65118694
-1.51276922	0.23949751	7.65119123
-1.51436853	0.23961860	7.65119267
-1.51506042	0.24208114	7.65118933
-1.51627433	0.24193326	7.65119076
-1.51796377	0.24217433	7.65119219
-1.51992095	0.24277675	7.65119314
-1.52150214	0.24515471	7.65119076
-1.52588820	0.24546051	7.65119457
-1.52640116	0.24768242	7.65119171
-1.52708852	0.24885720	7.65119028
-1.53099322	0.24801707	7.65119553
-1.53297913	0.24840689	7.65119696
-1.53438163	0.25054425	7.65119457
-1.53559542	0.25039634	7.65119600
-1.53642809	0.25126714	7.65119553
-1.53912449	0.25133175	7.65119791
-1.54054582	0.25121185	7.65119982
-1.54255891	0.25139001	7.65120125
-1.54327428	0.25235254	7.65120029
-1.54449809	0.25424919	7.65119839
-1.54725051	0.25388959	7.65120173
-1.54977286	0.25500149	7.65120268
-1.55388522	0.25418925	7.65120792
-1.55468988	0.25527218	7.65120697
-1.55626130	0.25560558	7.65120792
-1.55797875	0.25563449	7.65120935
-1.56064188	0.25515443	7.65121269
-1.56458473	0.25614685	7.65121508
-1.56615615	0.25648013	7.65121603
-1.56817007	0.25665784	7.65121794
-1.56959057	0.25653839	7.65121937
-1.57163775	0.25726068	7.65122032
-1.57329845	0.25771436	7.65122128
-1.57463050	0.25747415	7.65122271
-1.57664430	0.25765195	7.65122461
-1.57884157	0.25882754	7.65122461
-1.58177280	0.25870842	7.65122795
-1.58334494	0.25904146	7.65122890
-1.58429503	0.25982034	7.65122843
-1.58998823	0.26138663	7.65123177
-1.59067535	0.26256144	7.65123034
-1.59568191	0.26295260	7.65123463
-1.59932852	0.26379603	7.65123653
-1.60324335	0.26500061	7.65123844
-1.60804307	0.26536331	7.65124273
-1.60866904	0.26620558	7.65124178
-1.61436200	0.26777193	7.65124512
-1.61984897	0.26930937	7.65124798
-1.62421083	0.27111539	7.65124941
-1.62930596	0.27162743	7.65125322
-1.63150394	0.27280253	7.65125370
-1.63221920	0.27376512	7.65125275
-1.63364065	0.27364534	7.65125418
-1.63719773	0.27436846	7.65125656
-1.64147019	0.27605423	7.65125799
-1.64529562	0.27713844	7.65126038
-1.64716315	0.27762058	7.65126133
-1.65285718	0.27918655	7.65126419
-1.65741658	0.27897602	7.65126896
-1.65871978	0.27894852	7.65127039
-1.66015029	0.28087360	7.65126848
-1.66574454	0.28027460	7.65127516
-1.66672802	0.28159812	7.65127373
-1.66771150	0.28292167	7.65127277
-1.67224300	0.28292343	7.65127707
-1.67291164	0.28635538	7.65127230
-1.67756033	0.28626522	7.65127707
-1.68170547	0.28599831	7.65128136
-1.68198359	0.28840387	7.65127802
-1.68563032	0.28924742	7.65127993
-1.68685400	0.29114413	7.65127802
-1.68887305	0.29207873	7.65127850
-1.69035506	0.29229164	7.65127993
-1.69240212	0.29301399	7.65128040
-1.69578993	0.29554173	7.65127993
-1.69745135	0.29599491	7.65128088
-1.69825602	0.29707783	7.65127993
-1.70081091	0.29873481	7.65127945
-1.70247233	0.29918793	7.65128040
-1.70419455	0.29997414	7.65128088
-1.70529544	0.30120587	7.65127993
-1.70838749	0.30358437	7.65127897
-1.70984149	0.30400947	7.65127993
-1.71164846	0.30415866	7.65128136
-1.71284413	0.30626753	7.65127897
-1.71506941	0.30723095	7.65127993
-1.71803415	0.30765662	7.65128183
-1.72000122	0.31030378	7.65127945
-1.72074437	0.31105411	7.65127897
-1.72202969	0.31328338	7.65127659
-1.72393119	0.31430978	7.65127707
-1.72597837	0.31503209	7.65127754
-1.72675502	0.31632712	7.65127659
-1.72826493	0.31632799	7.65127802
-1.72966766	0.31846535	7.65127563
-1.73186541	0.31964049	7.65127611
-1.73476887	0.31973371	7.65127897
-1.73625076	0.31994674	7.65127993
-1.73779464	0.32049173	7.65128040
-1.73957765	0.32214147	7.65127945
-1.73986578	0.32606116	7.65127373
-1.74028945	0.32816276	7.65127039
-1.74489141	0.33054200	7.65127134
-1.74777603	0.33289239	7.65127039
-1.75045431	0.33521381	7.65126896
-1.75372446	0.33783334	7.65126801
-1.75571024	0.33822319	7.65126944
-1.75630820	0.33927771	7.65126801
-1.75704324	0.34379888	7.65126181
-1.75855386	0.34379926	7.65126324
-1.76065648	0.34409782	7.65126467
-1.76584709	0.34548652	7.65126753
-1.76659036	0.34623674	7.65126705
-1.76716018	0.34750348	7.65126562
-1.77196920	0.34991115	7.65126610
-1.77485430	0.35226113	7.65126514
-1.77634633	0.35451886	7.65126324
-1.77863300	0.35581475	7.65126324
-1.78142858	0.35804442	7.65126228
-1.78498590	0.35876763	7.65126467
-1.78674591	0.36138624	7.65126228
-1.78973866	0.36159971	7.65126467
-1.79007769	0.36433834	7.65126085
-1.79676008	0.36798450	7.65126133
-1.79825211	0.37024227	7.65125895
-1.80007362	0.37319338	7.65125608
-1.80578196	0.37756109	7.65125465
-1.80893528	0.38027200	7.65125322
-1.81344795	0.38253099	7.65125418
-1.82273149	0.38536519	7.65125847
-1.82340086	0.38879681	7.65125370
-1.82481778	0.39373598	7.65124702
-1.83157456	0.39470115	7.65125227
-1.83326054	0.40000093	7.65124512
-1.83919370	0.40214035	7.65124750
-1.84430480	0.40545341	7.65124702
-1.84665298	0.40708181	7.65124702
-1.84887910	0.40804484	7.65124750
-1.84998512	0.41003335	7.65124512
-1.85014522	0.41253132	7.65124130
-1.85210299	0.41313332	7.65124226
-1.85273409	0.41473243	7.65124035
-1.85466325	0.41554704	7.65124083
-1.85537839	0.41650960	7.65123987
-1.85897899	0.41982216	7.65123844
-1.86142635	0.42361552	7.65123463
-1.86214685	0.42533496	7.65123224
-1.86534643	0.42557687	7.65123510
-1.86630189	0.42711258	7.65123367
-1.86767638	0.42946219	7.65123129
-1.86979425	0.43256208	7.65122843
-1.87303627	0.43539372	7.65122700
-1.87381303	0.43668872	7.65122557
-1.87467909	0.43810409	7.65122414
-1.87811875	0.43891922	7.65122604
-1.87869847	0.44223049	7.65122128
-1.88110793	0.44419152	7.65122032
-1.88194072	0.44506210	7.65121984
-1.88393152	0.44620886	7.65121984
-1.88461900	0.44738358	7.65121889
-1.88575327	0.44915992	7.65121698
-1.88972950	0.45069695	7.65121841
-1.88953185	0.45271355	7.65121508
-1.89001215	0.45385990	7.65121365
-1.89126408	0.45554432	7.65121222
-1.89228070	0.45741266	7.65120983
-1.89685500	0.46000406	7.65121031
-1.89748073	0.46084633	7.65120935
-1.90214491	0.46355772	7.65120983
-1.90395105	0.46370727	7.65121126
-1.90777647	0.46479154	7.65121317
-1.91362107	0.46681023	7.65121555
-1.91864228	0.47000328	7.65121555
-1.92242074	0.47355697	7.65121317
-1.92428911	0.47403863	7.65121460
-1.92599320	0.47708163	7.65121126
-1.92957842	0.47759262	7.65121365
-1.93044436	0.47900793	7.65121222
-1.94452250	0.48144805	7.65122223
-1.94787276	0.48214287	7.65122414
-1.94903505	0.48370704	7.65122318
-1.95283258	0.48500341	7.65122461
-1.95939231	0.48798478	7.65122604
-1.97222865	0.49078494	7.65123415
-1.97409618	0.49126706	7.65123510
-1.97928154	0.49189889	7.65123940
-1.98962343	0.49337509	7.65124702
-2.00562954	0.49081379	7.65126705
-2.03837442	0.48439708	7.65130949
-2.05687809	0.47810116	7.65133762
-2.06296062	0.47487783	7.65134859
-2.07281113	0.46734717	7.65137053
-2.08038974	0.46132258	7.65138769
-2.09309483	0.45053887	7.65141773
-2.10638356	0.43800771	7.65145111
-2.10955405	0.43264583	7.65146255
-2.12986016	0.37514186	7.65157557
-2.13156581	0.36731052	7.65158987
-2.15140200	0.23706791	7.65182018
-2.15344739	0.21528505	7.65185738
-2.15293097	0.13866822	7.65198135
-2.15118003	0.13809469	7.65198040
-2.14956903	0.13011336	7.65199184
-2.14517903	0.12851939	7.65198994
-2.14329958	0.12017709	7.65200186
-2.14037347	0.10436318	7.65202427
-2.13789821	0.10078191	7.65202761
-2.12882471	0.05319096	7.65209579
-2.12726951	0.04478524	7.65210819
-2.12532878	0.03611043	7.65212011
-2.12080693	0.03180644	7.65212297
-2.11930966	0.02879192	7.65212631
-2.11836195	0.02348578	7.65213394
-2.11652756	0.02354826	7.65213203
-2.11585832	0.02011675	7.65213680
-2.11519909	0.01872980	7.65213823
-2.11429572	0.01548138	7.65214300
-2.11292124	0.01313193	7.65214539
-2.11169243	0.01047844	7.65214825
-2.10955930	0.00457704	7.65215588
-2.10818458	0.00222749	7.65215826
-2.10721469	-0.00211018	7.65216446
-2.10533190	-0.00539371	7.65216780
-2.10489750	-0.00900893	7.65217304
-2.10432792	-0.01027562	7.65217495
-2.10298657	-0.01208049	7.65217638
-2.10261440	-0.01536360	7.65218115
-2.10047793	-0.01620635	7.65218067
-2.09884858	-0.02193090	7.65218830
-2.09710765	-0.03714959	7.65221119
-2.09013319	-0.06269366	7.65224552
-2.08708358	-0.06248230	7.65224218
-2.08651400	-0.06374881	7.65224409
-2.08414149	-0.07022391	7.65225220
-2.05722356	-0.23965478	7.65250015
-2.05834794	-0.23992305	7.65250158
-2.05785823	-0.24311440	7.65250635
-2.05901885	-0.24736571	7.65251446
-2.06043029	-0.24953026	7.65251923
-2.05981183	-0.25414306	7.65252590
-2.05965185	-0.25664091	7.65252972
-2.06029034	-0.25881228	7.65253401
-2.06054425	-0.26125318	7.65253830
-2.06184292	-0.26203799	7.65254068
-2.06195545	-0.26341775	7.65254307
-2.06214261	-0.26694793	7.65254927
-2.06200981	-0.26965761	7.65255308
-2.06157160	-0.27456114	7.65256071
-2.06366968	-0.27501988	7.65256357
-2.06299877	-0.28426701	7.65257788
-2.06322455	-0.28649572	7.65258169
-2.06467676	-0.29188609	7.65259171
-2.06553173	-0.29833129	7.65260315
-2.06493735	-0.30444446	7.65261269
-2.06606483	-0.30924049	7.65262127
-2.06521082	-0.32001647	7.65263796
-2.06644273	-0.32189068	7.65264225
-2.06648898	-0.32435960	7.65264606
-2.06830478	-0.34520206	7.65268183
-2.06135988	-0.34845296	7.65268040
-2.05843043	-0.35920814	7.65269470
-2.05726814	-0.36077231	7.65269613
-2.05623603	-0.36544204	7.65270281
-2.05155802	-0.38764545	7.65273428
-2.04652357	-0.38782445	7.65272951
-2.04316568	-0.40143856	7.65274811
-2.03880382	-0.40324464	7.65274668
-2.03823400	-0.40451124	7.65274858
-2.03665614	-0.41194794	7.65275908
-2.03427958	-0.41336381	7.65275908
-2.03330946	-0.41770142	7.65276480
-2.02954555	-0.43514287	7.65278959
-2.02517104	-0.45062518	7.65281010
-2.02049398	-0.45032287	7.65280533
-2.01967478	-0.45420772	7.65281057
-2.01599836	-0.46065459	7.65281773
-2.01460505	-0.46074685	7.65281630
-2.01121926	-0.47414875	7.65283489
-2.00749946	-0.48318499	7.65284586
-2.00505042	-0.49279392	7.65285873
-2.00191212	-0.49270332	7.65285540
-2.00104618	-0.49411875	7.65285730
-2.00025487	-0.49821579	7.65286303
-1.99870169	-0.50080585	7.65286541
-1.99782038	-0.50502276	7.65287161
-1.99635649	-0.50749266	7.65287399
-1.99341071	-0.51017547	7.65287542
-1.99268019	-0.51393950	7.65288115
-1.99024630	-0.52074695	7.65288973
-1.98858821	-0.52625895	7.65289688
-1.98675227	-0.53201199	7.65290451
-1.98500133	-0.53258550	7.65290356
-1.98377764	-0.53448224	7.65290546
-1.98247814	-0.53951323	7.65291262
-1.98196959	-0.54044741	7.65291357
-1.98010492	-0.54598784	7.65292072
-1.97862291	-0.54620087	7.65291929
-1.97725189	-0.55360913	7.65293026
-1.97545838	-0.55677235	7.65293360
-1.97490668	-0.56029582	7.65293884
-1.97197545	-0.56017673	7.65293550
-1.97052324	-0.57147616	7.65295267
-1.96834934	-0.57415175	7.65295458
-1.96786892	-0.57529807	7.65295601
-1.96588326	-0.57568794	7.65295458
-1.96420705	-0.57894307	7.65295839
-1.96380687	-0.58201408	7.65296316
-1.96265805	-0.58659226	7.65296936
-1.96068573	-0.58999622	7.65297270
-1.95747447	-0.59809840	7.65298271
-1.95690465	-0.59936506	7.65298414
-1.95500898	-0.59963506	7.65298271
-1.95450068	-0.60056913	7.65298367
-1.95310569	-0.60647696	7.65299225
-1.95026731	-0.61129624	7.65299702
-1.94975901	-0.61223036	7.65299797
-1.94895780	-0.61837196	7.65300751
-1.94556320	-0.62747198	7.65301847
-1.94198310	-0.62722629	7.65301466
-1.94034958	-0.62789166	7.65301418
-1.93927860	-0.64020979	7.65303326
-1.93741620	-0.65662491	7.65305805
-1.93593705	-0.66189623	7.65306520
-1.93045247	-0.73072457	7.65317106
-1.92591178	-0.74946111	7.65319681
-1.92293787	-0.75193185	7.65319824
-1.92222261	-0.75289440	7.65319872
-1.92171597	-0.76470280	7.65321732
-1.92111802	-0.76575714	7.65321875
-1.92056525	-0.77509660	7.65323305
-1.92006230	-0.79196358	7.65326023
-1.91574478	-0.80205429	7.65327215
-1.90545344	-0.97396111	7.65354061
-1.90531921	-0.98248619	7.65355396
-1.90686488	-0.99281538	7.65357256
-1.90707529	-0.99784565	7.65358067
-1.90655422	-1.01245594	7.65360403
-1.90677905	-1.01468420	7.65360785
-1.90959013	-1.02634287	7.65362930
-1.91200566	-1.07369494	7.65370846
-1.90870678	-1.09279168	7.65373611
-1.91105390	-1.09697914	7.65374517
-1.90962148	-1.10471988	7.65375614
-1.91271698	-1.10740018	7.65376377
-1.91131282	-1.11535299	7.65377522
-1.91449714	-1.11791265	7.65378237
-1.91518688	-1.12761235	7.65379858
-1.90873885	-1.17116904	7.65386295
-1.87957120	-1.26695633	7.65398932
-1.87653947	-1.27481830	7.65399933
-1.84868050	-1.33014989	7.65406179
-1.84007609	-1.34472847	7.65407658
-1.83055937	-1.35825312	7.65408945
-1.79702783	-1.38855577	7.65410566
-1.77367234	-1.40394688	7.65410757
-1.75073695	-1.41852498	7.65410900
-1.74097776	-1.42174816	7.65410471
-1.61598754	-1.46165681	7.65404701
-1.60462868	-1.46500111	7.65404129
-1.59890699	-1.46635485	7.65403748
-1.58992410	-1.46828318	7.65403223
-1.47067773	-1.45773697	7.65389824
-1.46417570	-1.45532703	7.65388823
-1.45429611	-1.45340025	7.65387535
-1.45157623	-1.45249534	7.65387106
-1.44142842	-1.45092952	7.65385866
-1.44081187	-1.44972670	7.65385628
-1.43226862	-1.44728279	7.65384388
-1.42407250	-1.44587135	7.65383339
-1.42141473	-1.44463444	7.65382862
-1.41274810	-1.44285512	7.65381765
-1.41159570	-1.44237471	7.65381575
-1.40801966	-1.44084072	7.65380955
-1.40358377	-1.43996549	7.65380383
-1.39894009	-1.43911862	7.65379810
-1.39811730	-1.43794477	7.65379524
-1.39400494	-1.43713260	7.65379000
-1.38380015	-1.43514204	7.65377665
-1.38093019	-1.43469048	7.65377331
-1.37194395	-1.43155980	7.65375948
-1.37064612	-1.43077540	7.65375662
-1.36851954	-1.42957342	7.65375280
-1.36277962	-1.42867041	7.65374565
-1.36153722	-1.42830992	7.65374374
-1.36018324	-1.42710114	7.65374041
-1.35763752	-1.42671299	7.65373755
-1.34586596	-1.42429829	7.65372181
-1.34474182	-1.42403007	7.65372038
-1.33933151	-1.42243350	7.65371275
-1.33750641	-1.42032599	7.65370750
-1.33159220	-1.41890633	7.65369940
-1.32934821	-1.41761255	7.65369511
-1.32355225	-1.41628504	7.65368700
-1.32068217	-1.41583359	7.65368366
-1.31856084	-1.41387486	7.65367842
-1.31584167	-1.41297030	7.65367413
-1.31477809	-1.41236925	7.65367222
-1.31356955	-1.41146445	7.65366936
-1.30951846	-1.41031981	7.65366364
-1.30700636	-1.40938711	7.65365982
-1.30343628	-1.40709662	7.65365267
-1.30228317	-1.40661573	7.65365076
-1.29941332	-1.40616429	7.65364695
-1.29660463	-1.40538013	7.65364313
-1.29528272	-1.40309548	7.65363836
-1.29054964	-1.40236878	7.65363216
-1.28629243	-1.40125299	7.65362644
-1.28543568	-1.40062344	7.65362453
-1.27537656	-1.39893675	7.65361214
-1.27369702	-1.39713335	7.65360737
-1.27293551	-1.39562678	7.65360403
-1.26699400	-1.39399529	7.65359592
-1.26223171	-1.39252520	7.65358877
-1.25329757	-1.39110732	7.65357780
-1.25007999	-1.38909221	7.65357113
-1.24644792	-1.38713396	7.65356445
-1.24529541	-1.38665342	7.65356255
-1.24124455	-1.38550889	7.65355682
-1.23892558	-1.38153362	7.65354824
-1.23635709	-1.38017631	7.65354347
-1.23354852	-1.37939239	7.65353918
-1.23044372	-1.37875724	7.65353537
-1.22819436	-1.37822020	7.65353203
-1.19748509	-1.37259436	7.65349293
-1.16870213	-1.36797357	7.65345716
-1.16847229	-1.36015499	7.65344429
-1.16300642	-1.35866523	7.65343666
-1.15814137	-1.35377049	7.65342426
-1.15749753	-1.35235596	7.65342093
-1.15004003	-1.35148191	7.65341234
-1.14999092	-1.34448516	7.65340090
-1.14739323	-1.34238434	7.65339518
-1.14017665	-1.34093761	7.65338564
-1.13686490	-1.34033084	7.65338135
-1.13158655	-1.33602417	7.65336943
-1.13011563	-1.33525467	7.65336657
-1.12074363	-1.33239317	7.65335274
-1.11959147	-1.33191276	7.65335083
-1.07606506	-1.32499731	7.65329695
-0.91161871	-1.27212703	7.65305042
-0.90815091	-1.27272987	7.65304804
-0.90507406	-1.27230680	7.65304470
-0.89395726	-1.26926255	7.65302849
-0.88700819	-1.26745427	7.65301895
-0.88407683	-1.26733518	7.65301609
-0.87939990	-1.26703286	7.65301085
-0.87383890	-1.26588917	7.65300369
-0.87203264	-1.26603889	7.65300179
-0.86877215	-1.26714432	7.65300083
-0.86664033	-1.26669908	7.65299797
-0.86615998	-1.26784551	7.65299940
-0.86379445	-1.26774812	7.65299654
-0.86190325	-1.26726079	7.65299416
-0.86136150	-1.26873958	7.65299606
-0.85908014	-1.26927876	7.65299463
-0.85845423	-1.27012110	7.65299511
-0.85607743	-1.27153683	7.65299511
-0.85491920	-1.27181268	7.65299463
-0.85330975	-1.27397847	7.65299654
-0.85114586	-1.27460945	7.65299559
-0.85004365	-1.27530980	7.65299559
-0.84784162	-1.27777314	7.65299749
-0.84691894	-1.27823341	7.65299702
-0.84575653	-1.27979755	7.65299845
-0.84358668	-1.28118491	7.65299892
-0.84176517	-1.28413594	7.65300179
-0.84019375	-1.28446937	7.65300083
-0.83775693	-1.28674912	7.65300179
-0.83686149	-1.28742075	7.65300226
-0.83608484	-1.28871596	7.65300369
-0.83379823	-1.29001188	7.65300322
-0.83273584	-1.28994203	7.65300226
-0.83168042	-1.29311180	7.65300655
-0.83019781	-1.29332447	7.65300512
-0.82791114	-1.29462028	7.65300512
-0.82740265	-1.29555440	7.65300608
-0.82612813	-1.29627013	7.65300608
-0.82448947	-1.29769218	7.65300655
-0.82229745	-1.29811096	7.65300512
-0.82211339	-1.29910851	7.65300655
-0.82101768	-1.29958344	7.65300655
-0.82039183	-1.30042565	7.65300703
-0.81804311	-1.30205369	7.65300751
-0.81578898	-1.30280459	7.65300655
-0.81491768	-1.30497670	7.65300894
-0.81162882	-1.30533898	7.65300655
-0.81076789	-1.30599761	7.65300655
-0.80977917	-1.30807793	7.65300894
-0.80577487	-1.30940270	7.65300751
-0.80348831	-1.31069875	7.65300703
-0.80177069	-1.31072760	7.65300560
-0.79951203	-1.31223571	7.65300560
-0.79912472	-1.31832027	7.65301514
-0.78755546	-1.31663442	7.65300131
-0.78586590	-1.31687570	7.65299988
-0.77687049	-1.31579018	7.65298939
-0.77488458	-1.31617999	7.65298796
-0.77319574	-1.31642151	7.65298700
-0.77265418	-1.31790030	7.65298891
-0.76821208	-1.31778169	7.65298414
-0.76758611	-1.31862390	7.65298510
-0.76592016	-1.31983447	7.65298510
-0.76257432	-1.31977201	7.65298176
-0.76061207	-1.32113123	7.65298223
-0.75998616	-1.32197356	7.65298271
-0.75705481	-1.32185435	7.65297985
-0.75453264	-1.32296622	7.65297937
-0.75343627	-1.32291007	7.65297794
-0.75174683	-1.32315123	7.65297699
-0.75067389	-1.32459509	7.65297794
-0.74895704	-1.32462442	7.65297651
-0.74526006	-1.32481778	7.65297318
-0.74498081	-1.32616138	7.65297508
-0.74139565	-1.32667243	7.65297222
-0.73958337	-1.32757854	7.65297222
-0.73632777	-1.32739615	7.65296841
-0.73401690	-1.32719159	7.65296602
-0.73146665	-1.32809138	7.65296507
-0.72883165	-1.32782352	7.65296173
-0.72612596	-1.32993329	7.65296268
-0.72061098	-1.33125854	7.65295935
-0.71473920	-1.33306527	7.65295649
-0.70650500	-1.33348644	7.65294933
-0.70436847	-1.33432913	7.65294838
-0.69809204	-1.33414793	7.65294218
-0.68365335	-1.33254170	7.65292549
-0.67681730	-1.33158243	7.65291691
-0.67445099	-1.33148456	7.65291452
-0.67169333	-1.33188176	7.65291262
-0.67039073	-1.33238506	7.65291214
-0.66861248	-1.33274698	7.65291071
-0.66449356	-1.33216035	7.65290594
-0.66114855	-1.33209813	7.65290260
-0.65869933	-1.33189535	7.65289974
-0.65718931	-1.33189607	7.65289831
-0.65614849	-1.33226395	7.65289783
-0.65075701	-1.33292460	7.65289354
-0.64912879	-1.33283329	7.65289211
-0.64190704	-1.33214307	7.65288401
-0.64027882	-1.33205175	7.65288210
-0.61479050	-1.32977664	7.65285349
-0.54659534	-1.31323707	7.65276003
