//X	Y	Z
-0.36471623	-1.15914357	5.71492815
-0.35861379	-1.12609363	5.71489286
-0.35496420	-1.10518610	5.71487045
-0.35466444	-1.10027611	5.71486616
-0.35452721	-1.09793103	5.71486378
-0.35429066	-1.09268093	5.71485901
-0.35441071	-1.08695376	5.71485424
-0.35569614	-1.08472311	5.71485376
-0.35673994	-1.08307135	5.71485376
-0.35669255	-1.08060730	5.71485138
-0.35731530	-1.06889629	5.71484232
-0.35776603	-1.06247127	5.71483707
-0.35922968	-1.06000233	5.71483660
-0.36103418	-1.05985999	5.71483898
-0.36083490	-1.05404925	5.71483374
-0.36185661	-1.05015373	5.71483135
-0.36178327	-1.04746914	5.71482897
-0.36324695	-1.04500008	5.71482849
-0.36411250	-1.04358661	5.71482849
-0.36387604	-1.03833652	5.71482372
-0.36498299	-1.03634477	5.71482325
-0.36605290	-1.03491330	5.71482325
-0.36681467	-1.03261745	5.71482229
-0.36694479	-1.02991474	5.71481991
-0.36769986	-1.02637720	5.71481800
-0.36810869	-1.02253544	5.71481514
-0.36853307	-1.01969576	5.71481323
-0.36939877	-1.01828218	5.71481276
-0.36961812	-1.01546001	5.71481085
-0.37002778	-1.01161861	5.71480799
-0.37068909	-1.01022303	5.71480751
-0.37087125	-1.00796151	5.71480560
-0.37088698	-1.00515783	5.71480322
-0.37212044	-1.00248599	5.71480274
-0.37209827	-1.00024235	5.71480083
-0.37371045	-0.99933738	5.71480179
-0.37375540	-0.99473053	5.71479797
-0.37394959	-0.99168831	5.71479559
-0.37543464	-0.99146259	5.71479702
-0.37589625	-0.98806238	5.71479464
-0.37620467	-0.98512077	5.71479273
-0.37657714	-0.98183995	5.71479034
-0.37792575	-0.97926956	5.71478939
-0.37885448	-0.97751629	5.71478891
-0.37956771	-0.97656196	5.71478891
-0.37996539	-0.97350121	5.71478701
-0.38015968	-0.97045887	5.71478462
-0.38168186	-0.96967262	5.71478558
-0.38183874	-0.96719086	5.71478367
-0.38255203	-0.96623659	5.71478367
-0.38313535	-0.96417940	5.71478271
-0.38302863	-0.96003222	5.71477890
-0.38423997	-0.95511681	5.71477604
-0.38504240	-0.95404327	5.71477604
-0.38538882	-0.95054185	5.71477365
-0.38611728	-0.94678324	5.71477127
-0.38706177	-0.94222629	5.71476841
-0.38743356	-0.93894494	5.71476603
-0.38782102	-0.93285978	5.71476126
-0.38874972	-0.93110651	5.71476078
-0.38941485	-0.92768788	5.71475887
-0.38958305	-0.92442501	5.71475601
-0.39107275	-0.92217642	5.71475601
-0.39161885	-0.92067975	5.71475554
-0.39157075	-0.91821545	5.71475315
-0.39243641	-0.91680199	5.71475315
-0.39265651	-0.91398025	5.71475077
-0.39268732	-0.90837240	5.71474600
-0.39432937	-0.90566468	5.71474552
-0.39527321	-0.90110725	5.71474266
-0.39549336	-0.89828557	5.71474075
-0.39533007	-0.89571977	5.71473837
-0.39602691	-0.88669372	5.71473122
-0.39646170	-0.88307261	5.71472883
-0.39769906	-0.87837774	5.71472645
-0.39836037	-0.87698233	5.71472597
-0.39830214	-0.87149358	5.71472120
-0.39777672	-0.86435813	5.71471453
-0.39789054	-0.85358328	5.71470547
-0.39912778	-0.84888864	5.71470261
-0.39933699	-0.84304196	5.71469784
-0.39944619	-0.83428991	5.71469069
-0.40001824	-0.83301371	5.71469021
-0.40012318	-0.83009076	5.71468782
-0.40019026	-0.82772768	5.71468592
-0.40047356	-0.82456625	5.71468353
-0.40096048	-0.82138604	5.71468115
-0.40165889	-0.81943035	5.71468019
-0.40161145	-0.81696624	5.71467829
-0.40183094	-0.81414419	5.71467590
-0.40264452	-0.81228942	5.71467543
-0.40339956	-0.80875206	5.71467352
-0.40401277	-0.80489218	5.71467066
-0.40423286	-0.80207050	5.71466875
-0.40483099	-0.80101496	5.71466827
-0.40575972	-0.79926169	5.71466780
-0.40644076	-0.79303914	5.71466351
-0.40672332	-0.78987730	5.71466112
-0.40893739	-0.78589356	5.71466017
-0.40897930	-0.78331029	5.71465826
-0.40959233	-0.77945065	5.71465540
-0.41156504	-0.77604526	5.71465492
-0.41234142	-0.77475095	5.71465445
-0.41342252	-0.77253854	5.71465397
-0.41388348	-0.76913792	5.71465158
-0.41363573	-0.76466888	5.71464729
-0.41471049	-0.75740886	5.71464252
-0.41548693	-0.75611484	5.71464252
-0.41618991	-0.75213617	5.71463966
-0.41812080	-0.75131404	5.71464109
-0.41802540	-0.74638587	5.71463680
-0.42007694	-0.73983681	5.71463394
-0.42020717	-0.73713386	5.71463156
-0.42175999	-0.73454559	5.71463108
-0.42257372	-0.73269099	5.71463060
-0.42392224	-0.73012060	5.71463013
-0.42401600	-0.72797865	5.71462822
-0.42611027	-0.72591639	5.71462870
-0.42635643	-0.72331512	5.71462679
-0.42618197	-0.72153062	5.71462536
-0.42728907	-0.71953869	5.71462488
-0.42724168	-0.71707475	5.71462250
-0.42932484	-0.71579349	5.71462393
-0.43052834	-0.71492434	5.71462440
-0.43020630	-0.71157622	5.71462154
-0.43033648	-0.70887339	5.71461916
-0.43193036	-0.70370150	5.71461678
-0.43259162	-0.70230603	5.71461630
-0.43330497	-0.70135176	5.71461630
-0.43358821	-0.69819009	5.71461391
-0.43342507	-0.69562453	5.71461153
-0.43499371	-0.69023240	5.71460867
-0.43627903	-0.68800193	5.71460819
-0.43605262	-0.68577611	5.71460629
-0.43753839	-0.68555093	5.71460772
-0.43784696	-0.68260956	5.71460533
-0.43841279	-0.67628580	5.71460056
-0.43910009	-0.67511100	5.71460056
-0.44057962	-0.66983819	5.71459770
-0.44117767	-0.66878259	5.71459770
-0.44181299	-0.66716653	5.71459675
-0.44184774	-0.65953541	5.71459055
-0.44285935	-0.65261543	5.71458578
-0.44452348	-0.65215147	5.71458721
-0.44424975	-0.64746183	5.71458292
-0.44520447	-0.64592910	5.71458292
-0.44708332	-0.64466566	5.71458387
-0.44659409	-0.64077514	5.71458006
-0.44816205	-0.63538265	5.71457720
-0.44926909	-0.63339084	5.71457672
-0.45041785	-0.62881583	5.71457434
-0.45195991	-0.62320262	5.71457100
-0.45128205	-0.61652625	5.71456480
-0.45365876	-0.61510766	5.71456623
-0.45346400	-0.60727447	5.71455908
-0.45580834	-0.60058773	5.71455622
-0.45642230	-0.59672844	5.71455383
-0.45739213	-0.59239149	5.71455097
-0.45758614	-0.58934909	5.71454859
-0.45841956	-0.58266759	5.71454382
-0.46026123	-0.58196467	5.71454573
-0.46051851	-0.57858258	5.71454287
-0.45993945	-0.57481080	5.71453905
-0.46102053	-0.57259834	5.71453857
-0.46032694	-0.56872571	5.71453428
-0.46254107	-0.56474185	5.71453333
-0.46258283	-0.56215876	5.71453142
-0.46398997	-0.56127131	5.71453238
-0.46408373	-0.55912924	5.71453047
-0.46479699	-0.55817503	5.71453047
-0.46561053	-0.55632037	5.71452999
-0.46491706	-0.55244780	5.71452570
-0.46563023	-0.55149341	5.71452570
-0.46531475	-0.54938698	5.71452332
-0.46654424	-0.54873848	5.71452427
-0.46637440	-0.54493117	5.71452093
-0.46778610	-0.54202098	5.71451998
-0.46800554	-0.53919888	5.71451807
-0.46943933	-0.53853238	5.71451902
-0.46898264	-0.53610408	5.71451664
-0.46848226	-0.53299445	5.71451330
-0.47005710	-0.53264987	5.71451473
-0.47012427	-0.53028691	5.71451283
-0.47067037	-0.52879006	5.71451235
-0.47047067	-0.52678531	5.71450996
-0.47156295	-0.52379179	5.71450901
-0.47233939	-0.52249765	5.71450853
-0.47216886	-0.51869005	5.71450520
-0.47278273	-0.51483065	5.71450281
-0.47364834	-0.51341718	5.71450233
-0.47481239	-0.50603789	5.71449757
-0.47638655	-0.50569296	5.71449900
-0.47777683	-0.50053936	5.71449614
-0.47752902	-0.49607038	5.71449232
-0.47832060	-0.49197200	5.71448946
-0.47899771	-0.48777273	5.71448660
-0.48028305	-0.48554236	5.71448612
-0.47983107	-0.48109132	5.71448183
-0.48060739	-0.47979721	5.71448183
-0.48066431	-0.47440982	5.71447706
-0.48114723	-0.47325280	5.71447706
-0.48220620	-0.46879673	5.71447420
-0.48268914	-0.46763983	5.71447372
-0.48259369	-0.46271151	5.71446943
-0.48236102	-0.45543832	5.71446323
-0.46835849	-0.28676897	5.71430254
-0.46759155	-0.28021190	5.71429586
-0.46731317	-0.27754492	5.71429300
-0.46542349	-0.27578354	5.71428967
-0.46437815	-0.26655951	5.71428061
-0.46317178	-0.26564628	5.71427822
-0.46176422	-0.26272750	5.71427393
-0.46095550	-0.25875357	5.71426964
-0.46022096	-0.25746459	5.71426773
-0.45933822	-0.25080580	5.71426105
-0.45885625	-0.24815720	5.71425819
-0.45847750	-0.24639061	5.71425629
-0.45788407	-0.24542356	5.71425486
-0.45718589	-0.24357352	5.71425247
-0.45638844	-0.23881862	5.71424723
-0.45550066	-0.23798835	5.71424580
-0.45450252	-0.23503408	5.71424198
-0.45362046	-0.22837564	5.71423531
-0.45227683	-0.22511744	5.71423101
-0.45060253	-0.22255689	5.71422672
-0.44937405	-0.21940005	5.71422243
-0.44894344	-0.21719226	5.71422005
-0.44703266	-0.20938158	5.71421146
-0.44584122	-0.20566428	5.71420670
-0.44448647	-0.20318708	5.71420288
-0.44233409	-0.19595495	5.71419430
-0.44091639	-0.19001183	5.71418762
-0.44011793	-0.18906227	5.71418571
-0.43944654	-0.18743330	5.71418381
-0.43796557	-0.18183011	5.71417713
-0.43623310	-0.17378098	5.71416807
-0.43582913	-0.17179427	5.71416616
-0.43433315	-0.16899511	5.71416187
-0.43378732	-0.16668609	5.71415949
-0.43316782	-0.16549838	5.71415758
-0.43095791	-0.16365314	5.71415329
-0.42880553	-0.15642104	5.71414471
-0.42798179	-0.15525129	5.71414280
-0.42715731	-0.15408117	5.71414089
-0.42608115	-0.15046504	5.71413660
-0.42491585	-0.14696825	5.71413183
-0.42344582	-0.14438984	5.71412802
-0.42016929	-0.13107726	5.71411276
-0.41900408	-0.12758052	5.71410847
-0.41792780	-0.12396446	5.71410418
-0.41710407	-0.12279466	5.71410227
-0.41661012	-0.12092674	5.71409988
-0.41462034	-0.11625984	5.71409369
-0.40961337	-0.10577461	5.71407890
-0.40876287	-0.10438380	5.71407700
-0.40651649	-0.10309958	5.71407318
-0.40466386	-0.10077763	5.71406889
-0.40294260	-0.09194741	5.71405935
-0.40183216	-0.08835071	5.71405506
-0.40057015	-0.08753702	5.71405268
-0.40006578	-0.08645061	5.71405125
-0.39926732	-0.08550102	5.71404934
-0.39766717	-0.08562547	5.71404791
-0.39653897	-0.08156818	5.71404314
-0.39580357	-0.08027875	5.71404123
-0.39464921	-0.07980675	5.71403933
-0.39382470	-0.07863656	5.71403742
-0.39212048	-0.07787865	5.71403456
-0.39038700	-0.07363492	5.71402884
-0.38848251	-0.07087177	5.71402454
-0.38710165	-0.06817409	5.71402073
-0.38604689	-0.06680131	5.71401834
-0.38524908	-0.06585214	5.71401644
-0.38372719	-0.06283250	5.71401215
-0.38175941	-0.06040925	5.71400785
-0.38034070	-0.05827156	5.71400404
-0.37894964	-0.05254939	5.71399784
-0.37660325	-0.04835963	5.71399117
-0.37559021	-0.04440367	5.71398687
-0.37460327	-0.04066834	5.71398258
-0.37408417	-0.03858027	5.71398020
-0.37280262	-0.03878757	5.71397877
-0.37150711	-0.03799376	5.71397638
-0.37077171	-0.03670424	5.71397448
-0.36811048	-0.03040841	5.71396589
-0.36728597	-0.02923828	5.71396399
-0.36589503	-0.02351609	5.71395779
-0.36353838	-0.01630196	5.71394873
-0.35942364	-0.01549953	5.71394300
-0.35744363	0.00082451	5.71392679
-0.35632396	0.00892761	5.71391869
-0.35470200	0.01485276	5.71391153
-0.35249281	0.01669759	5.71390772
-0.35128403	0.02468133	5.71389914
-0.34895200	0.04255098	5.71388149
-0.34642094	0.05154967	5.71387053
-0.34589589	0.06249109	5.71386051
-0.34640312	0.07049760	5.71385431
-0.34467483	0.08437571	5.71384048
-0.34450102	0.08615988	5.71383858
-0.34190172	0.10367164	5.71382093
-0.34034044	0.11700726	5.71380758
-0.31500334	0.28210449	5.71363688
-0.31355333	0.29331565	5.71362543
-0.31129676	0.29762441	5.71361923
-0.30728340	0.32310247	5.71359253
-0.30550987	0.32856795	5.71358585
-0.30451661	0.33735079	5.71357727
-0.30402279	0.33921874	5.71357489
-0.30331904	0.34611571	5.71356821
-0.29970443	0.37845987	5.71353626
-0.29882181	0.38511860	5.71352959
-0.29758304	0.39129990	5.71352291
-0.29740858	0.39308459	5.71352100
-0.29584575	0.39352053	5.71351910
-0.29497379	0.39715457	5.71351480
-0.29441673	0.39868253	5.71351290
-0.28840905	0.43768007	5.71347237
-0.28950644	0.46647185	5.71344900
-0.29556274	0.49811810	5.71342897
-0.29706740	0.50317073	5.71342659
-0.32822692	0.58341795	5.71339417
-0.34562659	0.62648785	5.71337748
-0.35154456	0.63670379	5.71337605
-0.35644448	0.64504725	5.71337461
-0.37692720	0.67176199	5.71337557
-0.38986522	0.68835717	5.71337652
-0.40842283	0.70920265	5.71338034
-0.41765702	0.71956569	5.71338224
-0.43679762	0.73866248	5.71338797
-0.45447439	0.75529027	5.71339417
-0.46624851	0.76450634	5.71340036
-0.46850991	0.76602626	5.71340179
-0.48371536	0.77528805	5.71341133
-0.49078345	0.77920312	5.71341610
-0.49758422	0.78276014	5.71342134
-0.50209659	0.78501856	5.71342468
-0.51094335	0.78929651	5.71343136
-0.52684230	0.79468572	5.71344519
-0.53822881	0.79781669	5.71345568
-0.56054103	0.80067778	5.71347904
-0.57402229	0.80206490	5.71349382
-0.58130014	0.80095094	5.71350336
-0.58935535	0.80113053	5.71351242
-0.59427255	0.80140162	5.71351814
-0.59732139	0.80119085	5.71352148
-0.60163969	0.80040669	5.71352720
-0.60586965	0.79950309	5.71353292
-0.61857378	0.79959631	5.71354771
-0.62102437	0.79833007	5.71355200
-0.62930530	0.79628438	5.71356297
-0.63702983	0.79576623	5.71357250
-0.64232510	0.79427123	5.71358013
-0.64776134	0.79245424	5.71358776
-0.64927304	0.79245889	5.71358967
-0.64947277	0.79045427	5.71359158
-0.65139312	0.79049492	5.71359396
-0.65355033	0.78909129	5.71359777
-0.65513533	0.78641152	5.71360159
-0.66339487	0.78660917	5.71361113
-0.66644371	0.78639841	5.71361494
-0.66735661	0.78534794	5.71361685
-0.66767222	0.78324151	5.71361923
-0.67094731	0.78080505	5.71362495
-0.67893857	0.78064519	5.71363449
-0.67992556	0.77690989	5.71363878
-0.68224609	0.77294052	5.71364498
-0.68689501	0.77285427	5.71365023
-0.68780869	0.77180338	5.71365213
-0.69257367	0.77161539	5.71365786
-0.69696605	0.76814640	5.71366596
-0.69770074	0.76685739	5.71366835
-0.69904423	0.76359922	5.71367264
-0.70033598	0.76078206	5.71367645
-0.70630789	0.75968051	5.71368408
-0.70662266	0.75757432	5.71368647
-0.70846057	0.75625420	5.71368980
-0.71209621	0.75631791	5.71369410
-0.71389687	0.75443709	5.71369743
-0.71859866	0.75390923	5.71370363
-0.72142798	0.75087631	5.71370935
-0.72230363	0.74926543	5.71371174
-0.72875792	0.74932098	5.71371937
-0.73205918	0.74666393	5.71372557
-0.73243707	0.74489778	5.71372747
-0.73385972	0.74478316	5.71372938
-0.73437881	0.74269521	5.71373177
-0.73760599	0.74272299	5.71373510
-0.74232978	0.73995137	5.71374321
-0.74638075	0.73880947	5.71374893
-0.74675477	0.73502004	5.71375275
-0.74843359	0.73448235	5.71375513
-0.74932057	0.73365235	5.71375656
-0.75455719	0.73384023	5.71376276
-0.75863481	0.73247731	5.71376848
-0.76275986	0.72865051	5.71377659
-0.76446664	0.72462773	5.71378231
-0.76608229	0.72375011	5.71378469
-0.76753020	0.72341543	5.71378660
-0.76897424	0.72105753	5.71379042
-0.77319288	0.71937263	5.71379662
-0.77344078	0.71490371	5.71380091
-0.77708364	0.71372545	5.71380615
-0.77862078	0.71350980	5.71380806
-0.77944064	0.71031702	5.71381187
-0.78250420	0.70910466	5.71381664
-0.78265268	0.70754063	5.71381807
-0.78415251	0.70676476	5.71382046
-0.78541148	0.70541000	5.71382284
-0.78579694	0.70240170	5.71382618
-0.78954768	0.70236427	5.71383047
-0.79088116	0.70213032	5.71383238
-0.79381371	0.69821548	5.71383905
-0.79448599	0.69658607	5.71384096
-0.79594111	0.69500935	5.71384430
-0.79741502	0.69445401	5.71384621
-0.79808718	0.69282466	5.71384859
-0.79947269	0.69214964	5.71385050
-0.80138844	0.69016761	5.71385479
-0.80201864	0.68595517	5.71385908
-0.80369693	0.68541777	5.71386147
-0.80384529	0.68385386	5.71386290
-0.80528200	0.68273795	5.71386576
-0.80592817	0.68132925	5.71386766
-0.80714583	0.68119711	5.71386909
-0.80769169	0.67888808	5.71387148
-0.80942911	0.67666745	5.71387577
-0.80991101	0.67401886	5.71387863
-0.81023777	0.67269337	5.71388006
-0.81299317	0.67234552	5.71388340
-0.81407392	0.67075205	5.71388626
-0.81463015	0.66922450	5.71388817
-0.81538695	0.66569173	5.71389198
-0.81688750	0.66491544	5.71389437
-0.81812358	0.66432238	5.71389627
-0.81930399	0.66362977	5.71389818
-0.82007277	0.66236007	5.71390009
-0.82101250	0.66108853	5.71390247
-0.82139039	0.65932250	5.71390438
-0.82255942	0.65636623	5.71390820
-0.82465053	0.65408176	5.71391249
-0.82504708	0.65185463	5.71391487
-0.82741988	0.65125012	5.71391821
-0.82777530	0.64792174	5.71392155
-0.82918215	0.64500344	5.71392584
-0.82959813	0.64379728	5.71392727
-0.83103478	0.64268148	5.71392965
-0.83135027	0.64057517	5.71393204
-0.83320683	0.64027643	5.71393442
-0.83368212	0.63886929	5.71393633
-0.83437282	0.63677907	5.71393871
-0.83546382	0.63216126	5.71394396
-0.83666265	0.63100767	5.71394634
-0.83881253	0.63084614	5.71394920
-0.84039772	0.62816644	5.71395302
-0.84076530	0.62561870	5.71395588
-0.84195679	0.62570727	5.71395731
-0.84481227	0.62245369	5.71396303
-0.84600347	0.61873639	5.71396780
-0.84807169	0.61721349	5.71397161
-0.84875381	0.61255980	5.71397638
-0.84966767	0.61150897	5.71397829
-0.85093719	0.61093563	5.71398020
-0.85154158	0.60694373	5.71398449
-0.85200942	0.60529637	5.71398640
-0.85254794	0.60422933	5.71398783
-0.85344219	0.60215747	5.71399069
-0.85441446	0.59942377	5.71399403
-0.85589647	0.59910846	5.71399593
-0.85610819	0.59788436	5.71399736
-0.85792738	0.59702516	5.71400023
-0.85967219	0.59356236	5.71400547
-0.86049944	0.59061003	5.71400881
-0.86168361	0.59045792	5.71401024
-0.86245519	0.58592355	5.71401501
-0.86361021	0.58545113	5.71401691
-0.86645478	0.58522248	5.71402025
-0.86720043	0.58090866	5.71402502
-0.86851794	0.57787108	5.71402884
-0.87045312	0.57691002	5.71403217
-0.87181914	0.57521397	5.71403503
-0.87213367	0.56930208	5.71404076
-0.87235940	0.56707662	5.71404266
-0.87646282	0.56549329	5.71404886
-0.87722975	0.55893612	5.71405554
-0.88108355	0.55272830	5.71406507
-0.88263756	0.54444063	5.71407413
-0.88292724	0.54255474	5.71407604
-0.88352060	0.54158759	5.71407747
-0.88373679	0.54006279	5.71407890
-0.88459688	0.53797150	5.71408176
-0.88631296	0.53799415	5.71408367
-0.88871163	0.53716898	5.71408749
-0.89014435	0.53403002	5.71409178
-0.89413285	0.53254783	5.71409750
-0.89516097	0.53139615	5.71409988
-0.90131289	0.52346289	5.71411371
-0.90269428	0.51844132	5.71411991
-0.90709698	0.51427132	5.71412849
-0.91047788	0.50388229	5.71414137
-0.91088259	0.50189507	5.71414328
-0.91267914	0.49566793	5.71415091
-0.91379547	0.49315342	5.71415424
-0.91793615	0.49213031	5.71415997
-0.91924274	0.48831168	5.71416473
-0.91979897	0.48678407	5.71416664
-0.92053425	0.48549458	5.71416855
-0.92156237	0.48434284	5.71417093
-0.92236084	0.48339328	5.71417284
-0.93174875	0.48333940	5.71418381
-1.00927973	0.34473956	5.71439266
-1.02548742	0.31841898	5.71443415
-1.02960193	0.31381068	5.71444273
-1.03111291	0.31381580	5.71444464
-1.03480792	0.31219637	5.71445036
-1.03616667	0.31174231	5.71445227
-1.04048574	0.31095785	5.71445799
-1.04128361	0.31000870	5.71445990
-1.04520881	0.30818665	5.71446562
-1.04660559	0.30829263	5.71446753
-1.05235660	0.30436963	5.71447754
-1.05437732	0.30531067	5.71447897
-1.06295788	0.29835474	5.71449518
-1.08049273	0.27684778	5.71453381
-1.08354151	0.27663708	5.71453762
-1.08684278	0.27397996	5.71454382
-1.09029555	0.27178246	5.71454954
-1.09268379	0.27017581	5.71455383
-1.09501934	0.26901078	5.71455765
-1.09789991	0.26553708	5.71456385
-1.09914446	0.26518402	5.71456575
-1.10050297	0.26472998	5.71456766
-1.10788095	0.26071036	5.71457958
-1.10867953	0.25976080	5.71458149
-1.11001301	0.25952691	5.71458292
-1.11198068	0.25710374	5.71458721
-1.11318719	0.25619048	5.71458960
-1.11500359	0.25711352	5.71459103
-1.12444484	0.24574253	5.71461153
-1.12770915	0.24633084	5.71461487
-1.13083196	0.24343514	5.71462107
-1.13203824	0.24252200	5.71462345
-1.13333452	0.24172765	5.71462536
-1.13564420	0.24078321	5.71462917
-1.14007759	0.23989786	5.71463490
-1.14125872	0.23920481	5.71463680
-1.14307523	0.24012786	5.71463823
-1.14561498	0.23898081	5.71464205
-1.14675820	0.23772773	5.71464443
-1.14984429	0.23807746	5.71464777
-1.15385866	0.23637466	5.71465397
-1.15576351	0.23741746	5.71465540
-1.15790963	0.23523276	5.71465969
-1.15930617	0.23533878	5.71466112
-1.16540384	0.23491728	5.71466875
-1.16821110	0.23412807	5.71467257
-1.17177975	0.23182884	5.71467876
-1.17423046	0.23056252	5.71468258
-1.17938828	0.23141247	5.71468782
-1.18098938	0.23153651	5.71468973
-1.18440557	0.22877808	5.71469593
-1.18624735	0.22948097	5.71469784
-1.18877697	0.23135827	5.71469879
-1.19107533	0.22963281	5.71470308
-1.19285381	0.22999574	5.71470499
-1.19639659	0.22791710	5.71471071
-1.19826412	0.22839941	5.71471262
-1.20128703	0.22840925	5.71471596
-1.20536458	0.22704634	5.71472216
-1.20690238	0.22683045	5.71472406
-1.21249104	0.22547266	5.71473169
-1.21424353	0.22605623	5.71473312
-1.21587050	0.22595966	5.71473503
-1.22101331	0.22400540	5.71474266
-1.22230959	0.22321111	5.71474504
-1.22476029	0.22194479	5.71474886
-1.22675431	0.22310680	5.71475029
-1.23368657	0.21849078	5.71476221
-1.24326992	0.21060327	5.71478033
-1.24459219	0.20958832	5.71478271
-1.24686456	0.20808342	5.71478653
-1.25135732	0.20551482	5.71479416
-1.25893581	0.19949007	5.71480799
-1.26183581	0.19703749	5.71481371
-1.26311660	0.19724520	5.71481466
-1.26481795	0.19826955	5.71481609
-1.27022815	0.19667315	5.71482372
-1.27163887	0.19577795	5.71482611
-1.27326584	0.19568135	5.71482801
-1.27702391	0.19440176	5.71483374
-1.27858698	0.19396576	5.71483564
-1.28089654	0.19302130	5.71483898
-1.28181422	0.19399354	5.71483946
-1.28432798	0.19306707	5.71484327
-1.28946698	0.18908975	5.71485281
-1.29209971	0.19008511	5.71485472
-1.29724336	0.18813048	5.71486235
-1.30051780	0.18569441	5.71486855
-1.30394530	0.18371704	5.71487427
-1.30512571	0.18302444	5.71487617
-1.30926645	0.18200144	5.71488190
-1.31086683	0.18212587	5.71488333
-1.31193280	0.18153413	5.71488523
-1.31465089	0.18062565	5.71488905
-1.31983554	0.18125461	5.71489477
-1.32137263	0.18103915	5.71489668
-1.32472599	0.18174672	5.71490002
-1.32809794	0.17966992	5.71490574
-1.32936454	0.18087892	5.71490622
-1.33074927	0.18020432	5.71490812
-1.33385098	0.18335782	5.71490908
-1.33491707	0.18276604	5.71491098
-1.34045756	0.18387261	5.71491671
-1.34296024	0.18216506	5.71492100
-1.34525967	0.18424502	5.71492195
-1.34968197	0.18257855	5.71492815
-1.35317755	0.18676968	5.71492863
-1.35471463	0.18655422	5.71493101
-1.35733354	0.18855083	5.71493196
-1.36110628	0.18626952	5.71493864
-1.36294806	0.18697244	5.71494007
-1.36761296	0.18968987	5.71494341
-1.36912465	0.18969458	5.71494484
-1.37117064	0.19041540	5.71494675
-1.37277150	0.19053942	5.71494865
-1.37617707	0.19080578	5.71495199
-1.38014340	0.19156727	5.71495628
-1.38222647	0.19284859	5.71495771
-1.38702846	0.19322103	5.71496296
-1.38925374	0.19418004	5.71496439
-1.39165616	0.19537801	5.71496630
-1.39298964	0.19514415	5.71496820
-1.39506161	0.19564435	5.71497011
-1.39699316	0.19646613	5.71497154
-1.40093350	0.19744819	5.71497536
-1.40262294	0.19769196	5.71497726
-1.40508938	0.19922934	5.71497869
-1.40755534	0.20076722	5.71498013
-1.41180015	0.20266764	5.71498346
-1.41422570	0.20162150	5.71498728
-1.41547382	0.20329148	5.71498728
-1.41879010	0.20343858	5.71499109
-1.42027521	0.20366429	5.71499252
-1.42401123	0.20462842	5.71499634
-1.42594290	0.20545016	5.71499777
-1.42852366	0.20688671	5.71499968
-1.43208599	0.20963497	5.71500111
-1.43368638	0.20975940	5.71500301
-1.43597448	0.21105821	5.71500444
-1.44017768	0.21037547	5.71501017
-1.44124746	0.21180692	5.71501017
-1.44263291	0.21113186	5.71501255
-1.44492114	0.21243075	5.71501398
-1.44593906	0.21430334	5.71501350
-1.45032060	0.21385916	5.71501875
-1.45390439	0.21436408	5.71502256
-1.45492220	0.21623677	5.71502209
-1.45948279	0.21603067	5.71502781
-1.46128738	0.21617310	5.71502972
-1.46410573	0.21616493	5.71503305
-1.46508646	0.21747704	5.71503305
-1.46621573	0.21722525	5.71503448
-1.46762729	0.21781209	5.71503592
-1.46985137	0.21728900	5.71503878
-1.47198820	0.21961080	5.71503925
-1.47297919	0.22022192	5.71503973
-1.47406387	0.22065166	5.71504068
-1.47511435	0.22106203	5.71504164
-1.47635138	0.22195096	5.71504259
-1.47892201	0.22641186	5.71504164
-1.48315942	0.22574848	5.71504688
-1.48519802	0.22622895	5.71504879
-1.48631322	0.22846083	5.71504831
-1.48720479	0.22965372	5.71504831
-1.48894608	0.22945623	5.71505070
-1.49044693	0.23248570	5.71504974
-1.49357474	0.23541857	5.71505070
-1.49784577	0.23709840	5.71505451
-1.49929357	0.23676364	5.71505642
-1.50190032	0.23649715	5.71505976
-1.50256169	0.23789261	5.71505928
-1.50345325	0.23908550	5.71505928
-1.50501692	0.23864900	5.71506166
-1.50636554	0.24121936	5.71506071
-1.50705278	0.24239418	5.71506071
-1.51066995	0.24291900	5.71506453
-1.51156521	0.24465242	5.71506405
-1.51419818	0.24564788	5.71506643
-1.51578820	0.24879663	5.71506548
-1.51753020	0.24859869	5.71506739
-1.51975453	0.24955814	5.71506929
-1.52239931	0.25133410	5.71507072
-1.52303457	0.25295016	5.71507025
-1.52528489	0.25368896	5.71507215
-1.52706409	0.25405157	5.71507406
-1.52781463	0.25556633	5.71507359
-1.52891052	0.25677714	5.71507406
-1.53191113	0.25903070	5.71507549
-1.53342307	0.25903547	5.71507740
-1.53454483	0.26002565	5.71507788
-1.53678036	0.26176611	5.71507883
-1.53753066	0.26328087	5.71507835
-1.54043829	0.26339200	5.71508169
-1.54174972	0.26540190	5.71508121
-1.54532719	0.27095437	5.71508074
-1.54666054	0.27072045	5.71508265
-1.55028629	0.27380863	5.71508408
-1.55174530	0.27425492	5.71508551
-1.55326092	0.27628276	5.71508551
-1.55712795	0.27994937	5.71508694
-1.55995023	0.28196436	5.71508837
-1.56126535	0.28451490	5.71508789
-1.56491232	0.28535968	5.71509123
-1.56633890	0.28726822	5.71509123
-1.56694448	0.28856423	5.71509123
-1.56813323	0.29043499	5.71509075
-1.56996083	0.29362157	5.71509027
-1.57176912	0.29430464	5.71509171
-1.57266068	0.29549745	5.71509171
-1.57337403	0.29645175	5.71509171
-1.57480502	0.30038303	5.71509027
-1.57635438	0.30475405	5.71508789
-1.57861316	0.30953875	5.71508646
-1.58142149	0.31255490	5.71508741
-1.58378696	0.31319243	5.71508980
-1.58415473	0.31445062	5.71508884
-1.58548188	0.31926420	5.71508646
-1.58692980	0.31892943	5.71508837
-1.58816314	0.32160115	5.71508741
-1.59066319	0.32315844	5.71508884
-1.59136164	0.32511434	5.71508837
-1.59245002	0.32608479	5.71508884
-1.59373546	0.32831520	5.71508837
-1.59540331	0.33080223	5.71508789
-1.59831500	0.33293650	5.71508980
-1.59906530	0.33445123	5.71508932
-1.59944141	0.33594945	5.71508837
-1.60060036	0.33750010	5.71508837
-1.60317111	0.34196097	5.71508741
-1.60700035	0.34506768	5.71508932
-1.60867310	0.35338309	5.71508408
-1.61255026	0.35402530	5.71508837
-1.61339450	0.35768217	5.71508598
-1.61519909	0.35782450	5.71508789
-1.61646581	0.35903350	5.71508837
-1.61780703	0.36284584	5.71508694
-1.61873579	0.36459923	5.71508646
-1.62047780	0.36440131	5.71508837
-1.62075651	0.36554021	5.71508789
-1.62166321	0.36953723	5.71508551
-1.62326407	0.36966124	5.71508741
-1.62383616	0.37093747	5.71508694
-1.62591267	0.37346044	5.71508694
-1.62619138	0.37459919	5.71508646
-1.62719810	0.37569079	5.71508694
-1.62787068	0.37786737	5.71508551
-1.62894046	0.37929872	5.71508551
-1.62965369	0.38025305	5.71508551
-1.63108063	0.38596743	5.71508265
-1.63194609	0.38738087	5.71508217
-1.63277459	0.38823381	5.71508265
-1.63323140	0.38961136	5.71508169
-1.63421214	0.39092344	5.71508169
-1.63478434	0.39219972	5.71508121
-1.63588119	0.39721587	5.71507835
-1.63665760	0.39850998	5.71507835
-1.63913822	0.39904627	5.71508074
-1.63995183	0.40090099	5.71507978
-1.64054990	0.40195650	5.71507978
-1.64118528	0.40357250	5.71507931
-1.64295721	0.40517715	5.71507978
-1.64344013	0.40633401	5.71507931
-1.64360368	0.40757430	5.71507835
-1.64431691	0.40852857	5.71507835
-1.64503479	0.41150549	5.71507692
-1.64809477	0.41207576	5.71507978
-1.64842927	0.41479668	5.71507788
-1.64883423	0.41661540	5.71507692
-1.64960408	0.41915119	5.71507549
-1.65080047	0.42126241	5.71507502
-1.65384543	0.42283431	5.71507740
-1.65450680	0.42422980	5.71507692
-1.65563989	0.42600110	5.71507692
-1.65646827	0.42685401	5.71507692
-1.65698838	0.42857131	5.71507597
-1.65720785	0.43139362	5.71507406
-1.65900218	0.43456039	5.71507359
-1.66118991	0.43495879	5.71507549
-1.66293228	0.43856686	5.71507454
-1.66530895	0.43998533	5.71507597
-1.66741884	0.44104573	5.71507788
-1.66862977	0.44215506	5.71507835
-1.66948056	0.44457021	5.71507692
-1.67214024	0.44534463	5.71507931
-1.67289066	0.44685945	5.71507931
-1.67367828	0.44893456	5.71507835
-1.67682016	0.45086622	5.71508026
-1.67825770	0.45355591	5.71507978
-1.67940211	0.45610827	5.71507883
-1.68109608	0.45837462	5.71507883
-1.68196166	0.45978805	5.71507883
-1.68232942	0.46104628	5.71507788
-1.68372989	0.46317536	5.71507788
-1.68439126	0.46457094	5.71507740
-1.68630064	0.46763629	5.71507692
-1.68867803	0.46905449	5.71507835
-1.68895674	0.47019348	5.71507788
-1.69073987	0.47257915	5.71507788
-1.69180965	0.47401050	5.71507788
-1.69238174	0.47528663	5.71507740
-1.69401932	0.47597161	5.71507883
-1.69534540	0.47697985	5.71507931
-1.69569182	0.48048130	5.71507692
-1.69712949	0.48317087	5.71507645
-1.69868243	0.48575917	5.71507597
-1.70172501	0.49059594	5.71507549
-1.70244932	0.49233130	5.71507454
-1.70353436	0.49656689	5.71507215
-1.70408499	0.50008625	5.71506977
-1.70420420	0.50200832	5.71506834
-1.70755768	0.50271583	5.71507168
-1.70752144	0.50596070	5.71506882
-1.70832396	0.50703424	5.71506882
-1.70943093	0.50902617	5.71506834
-1.71159196	0.50964558	5.71507025
-1.71230519	0.51059997	5.71507072
-1.71223187	0.51328444	5.71506834
-1.71427774	0.51400524	5.71506977
-1.71503949	0.51630110	5.71506882
-1.71560502	0.51881891	5.71506739
-1.71727943	0.52006423	5.71506834
-1.71814978	0.52350038	5.71506643
-1.71945024	0.52853501	5.71506357
-1.71946537	0.53133917	5.71506119
-1.72363663	0.53211838	5.71506548
-1.72405291	0.53471804	5.71506357
-1.72404563	0.53596014	5.71506262
-1.72318256	0.54744589	5.71505165
-1.72626865	0.54779553	5.71505499
-1.72660387	0.55051601	5.71505308
-1.72826076	0.55602765	5.71505022
-1.72991872	0.56153905	5.71504736
-1.73030615	0.56762427	5.71504259
-1.73502219	0.56841850	5.71504736
-1.73541987	0.57147926	5.71504545
-1.73673129	0.57348901	5.71504498
-1.73660219	0.57607406	5.71504259
-1.73716414	0.58037454	5.71503973
-1.73716807	0.58239770	5.71503782
-1.73831689	0.58697283	5.71503544
-1.74070299	0.59624273	5.71503019
-1.74216688	0.59871161	5.71502972
-1.74611199	0.60552233	5.71502876
-1.74675107	0.60916150	5.71502638
-1.75598311	0.61043125	5.71503592
-1.75780332	0.61337739	5.71503544
-1.75691414	0.62127793	5.71502781
-1.75891268	0.62446260	5.71502733
-1.76466930	0.62636787	5.71503258
-1.76539779	0.63012630	5.71503019
-1.77112865	0.63225186	5.71503496
-1.77128482	0.63473415	5.71503305
-1.77452779	0.63756579	5.71503448
-1.77509999	0.63884211	5.71503401
-1.77750254	0.64003992	5.71503592
-1.77834225	0.64167416	5.71503544
-1.78171515	0.64720851	5.71503448
-1.78531480	0.65051734	5.71503592
-1.78786981	0.65217435	5.71503735
-1.79033613	0.65371174	5.71503878
-1.79428768	0.65547490	5.71504211
-1.79544699	0.65702564	5.71504211
-1.79717803	0.65985256	5.71504164
-1.80035305	0.66032159	5.71504498
-1.80193186	0.66268927	5.71504498
-1.80695331	0.66588378	5.71504784
-1.80992877	0.66835761	5.71504927
-1.81439316	0.67308027	5.71505070
-1.81747925	0.67342997	5.71505356
-1.81727958	0.67543477	5.71505165
-1.81894290	0.67589879	5.71505356
-1.82007587	0.67767018	5.71505308
-1.82078922	0.67862457	5.71505308
-1.82074189	0.68108851	5.71505117
-1.82431471	0.68461818	5.71505213
-1.82693350	0.68661469	5.71505356
-1.82706380	0.68931770	5.71505117
-1.82957125	0.69343865	5.71505070
-1.83085680	0.69566905	5.71505022
-1.83338642	0.69754636	5.71505165
-1.83429313	0.70154357	5.71504927
-1.83688569	0.70376068	5.71505070
-1.83668566	0.70576578	5.71504831
-1.83764017	0.70729852	5.71504831
-1.83841658	0.70859271	5.71504831
-1.83898878	0.70986903	5.71504784
-1.83979106	0.71094239	5.71504784
-1.84078312	0.71303564	5.71504688
-1.84182692	0.71468765	5.71504688
-1.84309101	0.71916145	5.71504450
-1.84443939	0.72173154	5.71504402
-1.84614468	0.72477913	5.71504307
-1.84760845	0.72724819	5.71504307
-1.84845924	0.72966337	5.71504164
-1.84993756	0.73113072	5.71504211
-1.84962213	0.73323715	5.71504021
-1.85132325	0.73426157	5.71504116
-1.85077095	0.73781216	5.71503735
-1.85421360	0.73863918	5.71504068
-1.85597730	0.74000365	5.71504164
-1.85649490	0.74498582	5.71503782
-1.85793245	0.74767548	5.71503735
-1.86041403	0.75201702	5.71503639
-1.86024034	0.75380129	5.71503496
-1.86092758	0.75497609	5.71503448
-1.86409199	0.75846976	5.71503544
-1.86445320	0.76096964	5.71503353
-1.86591232	0.76141602	5.71503496
-1.86785877	0.76504189	5.71503401
-1.87008786	0.76802403	5.71503401
-1.87036645	0.76916307	5.71503353
-1.87146223	0.77037388	5.71503401
-1.87357211	0.77143413	5.71503544
-1.87545097	0.77269739	5.71503639
-1.87567496	0.77754229	5.71503258
-1.87778485	0.77860272	5.71503401
-1.87849796	0.77955687	5.71503401
-1.88149500	0.77978730	5.71503735
-1.88142538	0.78449482	5.71503353
-1.88517678	0.78826326	5.71503448
-1.88945878	0.79072416	5.71503735
-1.88961577	0.79320598	5.71503544
-1.89143622	0.79615217	5.71503496
-1.89432168	0.79850698	5.71503639
-1.89580750	0.79873234	5.71503782
-1.89720333	0.79883885	5.71503925
-1.89729714	0.80098081	5.71503782
-1.89816260	0.80239427	5.71503735
-1.89973700	0.80273926	5.71503925
-1.90128589	0.80330449	5.71504021
-1.90149415	0.80534548	5.71503878
-1.90414548	0.80587995	5.71504164
-1.90459585	0.80849910	5.71503973
-1.90563977	0.81015098	5.71503973
-1.90733385	0.81241757	5.71503973
-1.91096592	0.81426382	5.71504211
-1.91272688	0.81889325	5.71504021
-1.91327298	0.82039011	5.71503973
-1.91591787	0.82216614	5.71504116
-1.91613734	0.82498831	5.71503925
-1.92049813	0.82678688	5.71504259
-1.92273819	0.83055007	5.71504211
-1.92451692	0.83091307	5.71504402
-1.92633307	0.83183610	5.71504498
-1.92631114	0.83407986	5.71504307
-1.92975354	0.83490664	5.71504641
-1.92997372	0.83772850	5.71504450
-1.93323815	0.83831692	5.71504784
-1.93475366	0.84034473	5.71504784
-1.93612826	0.84269428	5.71504736
-1.93708301	0.84422708	5.71504688
-1.94210458	0.84742171	5.71505022
-1.94587779	0.84894621	5.71505308
-1.94751966	0.85165381	5.71505308
-1.94850039	0.85296595	5.71505308
-1.95274544	0.85486639	5.71505642
-1.95494378	0.85604638	5.71505785
-1.95667481	0.85887337	5.71505737
-1.96035969	0.86027813	5.71506071
-1.96154475	0.86160827	5.71506071
-1.96367979	0.86244833	5.71506262
-1.96576369	0.86372942	5.71506405
-1.96918046	0.86477673	5.71506691
-1.96936262	0.86703849	5.71506500
-1.97260082	0.86784732	5.71506834
-1.97402740	0.86975586	5.71506834
-1.97803104	0.87107790	5.71507168
-1.97972107	0.87132120	5.71507359
-1.98047137	0.87283599	5.71507311
-1.98180878	0.87462515	5.71507311
-1.98540366	0.87591124	5.71507645
-1.98653686	0.87768263	5.71507597
-1.98997927	0.87850940	5.71507931
-1.99252307	0.87938553	5.71508169
-1.99432826	0.87952733	5.71508360
-1.99617076	0.88022995	5.71508503
-1.99624515	0.88135087	5.71508408
-1.99864769	0.88254887	5.71508598
-2.00093579	0.88384759	5.71508741
-2.00364327	0.88596392	5.71508884
-2.00984573	0.88846558	5.71509409
-2.01183987	0.88962758	5.71509552
-2.01635218	0.89188588	5.71509886
-2.01862931	0.89240354	5.71510077
-2.02317905	0.89522237	5.71510363
-2.02517295	0.89638454	5.71510506
-2.02884650	0.89700812	5.71510887
-2.03065109	0.89715064	5.71511078
-2.03142738	0.89844477	5.71511078
-2.03326988	0.89914721	5.71511221
-2.03950500	0.90018660	5.71511841
-2.04132080	0.90110999	5.71511984
-2.04357171	0.90184844	5.71512175
-2.04460430	0.90271938	5.71512222
-2.04688048	0.90323770	5.71512461
-2.04842949	0.90380287	5.71512604
-2.05103636	0.90501869	5.71512794
-2.05601692	0.90562969	5.71513319
-2.05836821	0.90726835	5.71513462
-2.06725097	0.90830147	5.71514416
-2.07534337	0.90904152	5.71515274
-2.08043909	0.90955126	5.71515846
-2.08429003	0.91041398	5.71516228
-2.13149500	0.91376722	5.71521425
-2.13646340	0.91359758	5.71522045
-2.13939714	0.91348821	5.71522379
-2.15934253	0.91190648	5.71524811
-2.16644335	0.91055340	5.71525764
-2.17931056	0.90808117	5.71527481
-2.19863820	0.90061694	5.71530390
-2.20877171	0.89624935	5.71531916
-2.21933603	0.88967395	5.71533728
-2.22379160	0.88654476	5.71534538
-2.22927594	0.88226366	5.71535540
-2.26078796	0.83852422	5.71542931
-2.26484609	0.83233434	5.71543932
-2.26652050	0.82977390	5.71544361
-2.29099131	0.77102292	5.71552229
-2.29776883	0.75304854	5.71554565
-2.30243969	0.71226132	5.71558619
-2.30256128	0.70711255	5.71559048
-2.30145359	0.65049994	5.71563768
-2.28941226	0.60627490	5.71566153
-2.28205276	0.59134603	5.71566582
-2.27861667	0.58547175	5.71566677
-2.27551079	0.58029521	5.71566772
-2.27180719	0.57406306	5.71566868
-2.27022815	0.57169509	5.71566868
-2.26848578	0.56808740	5.71566963
-2.26423120	0.55833560	5.71567345
-2.25694513	0.54072237	5.71567965
-2.25516653	0.54035944	5.71567822
-2.25380659	0.53700799	5.71567917
-2.25035453	0.52832985	5.71568251
-2.24822211	0.52422488	5.71568394
-2.24576211	0.51763999	5.71568632
-2.24201107	0.51387179	5.71568537
-2.24036884	0.51116419	5.71568584
-2.23868966	0.50789607	5.71568680
-2.23518562	0.49965918	5.71568966
-2.23399377	0.49957073	5.71568823
-2.23115110	0.49272925	5.71569061
-2.22981834	0.49296266	5.71568918
-2.22811317	0.48991516	5.71568966
-2.22299290	0.47875014	5.71569347
-2.22212744	0.47733667	5.71569347
-2.21755195	0.47473848	5.71569014
-2.21644497	0.47274655	5.71569061
-2.21426797	0.46932334	5.71569109
-2.21351743	0.46780854	5.71569157
-2.20910048	0.46062207	5.71569252
-2.20741081	0.46037832	5.71569061
-2.20556855	0.45967588	5.71568918
-2.20374179	0.45797145	5.71568871
-2.20213675	0.45582426	5.71568871
-2.20119333	0.45507267	5.71568823
-2.20007896	0.45432276	5.71568727
-2.19861531	0.45185369	5.71568775
-2.19767189	0.45110208	5.71568727
-2.19597125	0.45007735	5.71568632
-2.19423985	0.44725049	5.71568680
-2.19109344	0.44329613	5.71568632
-2.18922544	0.44281417	5.71568441
-2.18805885	0.44250566	5.71568346
-2.18714118	0.44153330	5.71568346
-2.18481636	0.43967348	5.71568203
-2.18324161	0.43932912	5.71568060
-2.18208289	0.43777832	5.71568060
-2.17958641	0.43443832	5.71568060
-2.17803836	0.43387276	5.71567917
-2.17694211	0.43266183	5.71567917
-2.17446065	0.42832032	5.71567965
-2.17288184	0.42595264	5.71568012
-2.17163754	0.42630559	5.71567822
-2.17008448	0.42371735	5.71567869
-2.16782713	0.42422062	5.71567535
-2.16633344	0.41994908	5.71567726
-2.16482162	0.41994426	5.71567583
-2.16218781	0.41514355	5.71567678
-2.16134834	0.41350952	5.71567726
-2.15879321	0.41185242	5.71567583
-2.15690970	0.40856630	5.71567631
-2.15601802	0.40737361	5.71567631
-2.15368891	0.40349099	5.71567678
-2.15220332	0.40326583	5.71567535
-2.15078759	0.39833251	5.71567774
-2.10638452	0.24214521	5.71575975
-2.09129477	0.18344933	5.71579218
-2.07936597	0.16087502	5.71579790
-2.07785416	0.16087025	5.71579599
-2.07665801	0.15875903	5.71579647
-2.07367229	0.15930966	5.71579266
-2.07262850	0.15765765	5.71579266
-2.06945968	0.15214124	5.71579361
-2.06588674	0.14861146	5.71579266
-2.06345248	0.14180592	5.71579552
-2.05897236	0.13427958	5.71579695
-2.05792832	0.13262746	5.71579695
-2.05604506	0.12934148	5.71579742
-2.05342698	0.12734455	5.71579647
-2.05091929	0.12322348	5.71579695
-2.04983830	0.12101096	5.71579742
-2.04876828	0.11957955	5.71579742
-2.04714108	0.11587030	5.71579885
-2.04504871	0.11054361	5.71580076
-2.04335928	0.11029989	5.71579885
-2.04251981	0.10866585	5.71579933
-2.04010129	0.10466412	5.71580029
-2.03699541	0.09948751	5.71580076
-2.03559899	0.09938148	5.71579933
-2.03384185	0.09677517	5.71579933
-2.03309155	0.09526047	5.71579981
-2.03133416	0.09265414	5.71580029
-2.03040576	0.09090087	5.71580076
-2.02780890	0.08666050	5.71580124
-2.02647591	0.08689404	5.71579933
-2.02543211	0.08524194	5.71579981
-2.02423620	0.08313090	5.71579981
-2.02288008	0.08180255	5.71579981
-2.02182126	0.08115223	5.71579885
-2.02024269	0.07878453	5.71579933
-2.01930261	0.07625005	5.71580029
-2.01870465	0.07519445	5.71580029
-2.01684308	0.06966478	5.71580315
-2.01550961	0.06989864	5.71580124
-2.01107764	0.05990788	5.71580458
-2.00863719	0.05814993	5.71580315
-2.00756717	0.05671850	5.71580315
-2.00690579	0.05532306	5.71580362
-2.00574303	0.05174914	5.71580553
-2.00350308	0.04798600	5.71580601
-1.99976826	0.03614584	5.71581173
-1.99009085	0.00343418	5.71582842
-1.98637128	-0.00560170	5.71583176
-1.98256314	-0.01475739	5.71583509
-1.98114073	-0.01464283	5.71583366
-1.97980797	-0.01440939	5.71583176
-1.97794592	-0.01993877	5.71583414
-1.97692788	-0.02181131	5.71583462
-1.97541690	-0.02181649	5.71583271
-1.97123647	-0.03425303	5.71583891
-1.96982002	-0.03918591	5.71584129
-1.96913290	-0.04036087	5.71584129
-1.96432400	-0.05946139	5.71585226
-1.92738199	-0.21450144	5.71594191
-1.92371035	-0.22600171	5.71594715
-1.92240930	-0.23103595	5.71595001
-1.92208946	-0.23475850	5.71595287
-1.91390693	-0.25939310	5.71596432
-1.90280783	-0.29199052	5.71597958
-1.89992762	-0.29939246	5.71598244
-1.89746821	-0.30597776	5.71598530
-1.89423621	-0.31183416	5.71598625
-1.89117789	-0.31947464	5.71598959
-1.88980329	-0.32182443	5.71598959
-1.88836575	-0.32451403	5.71599054
-1.88599539	-0.33098006	5.71599340
-1.88130569	-0.34435296	5.71599913
-1.87716651	-0.35420600	5.71600294
-1.87621176	-0.35573870	5.71600294
-1.87346268	-0.36043817	5.71600389
-1.87268615	-0.36173233	5.71600389
-1.87082875	-0.36523896	5.71600485
-1.86699486	-0.37417403	5.71600819
-1.86475468	-0.37793723	5.71600866
-1.86228824	-0.37947470	5.71600723
-1.85961318	-0.38685906	5.71601009
-1.85615468	-0.39048967	5.71600914
-1.85396266	-0.39671716	5.71601200
-1.85229468	-0.39920416	5.71601248
-1.85034811	-0.40283012	5.71601295
-1.84889960	-0.40249494	5.71601105
-1.84826422	-0.40411100	5.71601200
-1.84631360	-0.40976000	5.71601439
-1.84244657	-0.41342661	5.71601295
-1.83897305	-0.41986144	5.71601439
-1.83801842	-0.42139417	5.71601486
-1.83706355	-0.42292690	5.71601486
-1.83001971	-0.43996209	5.71602106
-1.82591963	-0.44016132	5.71601677
-1.82394242	-0.44558930	5.71601915
-1.82245731	-0.44581503	5.71601725
-1.81993389	-0.45273980	5.71602058
-1.81803560	-0.45502421	5.71602011
-1.81719613	-0.45665824	5.71602058
-1.81569529	-0.45968774	5.71602154
-1.81433201	-0.46125638	5.71602106
-1.81349218	-0.46289045	5.71602154
-1.81274176	-0.46440518	5.71602201
-1.81149364	-0.46607512	5.71602201
-1.81053889	-0.46760789	5.71602201
-1.80978858	-0.46912268	5.71602249
-1.80903804	-0.47063738	5.71602297
-1.80770540	-0.47040391	5.71602106
-1.80595839	-0.47603461	5.71602392
-1.80524504	-0.47698885	5.71602392
-1.80384922	-0.47709531	5.71602249
-1.80284262	-0.47818679	5.71602201
-1.80218124	-0.47958231	5.71602249
-1.79955840	-0.48360199	5.71602297
-1.79478872	-0.48924252	5.71602249
-1.79341412	-0.49159229	5.71602249
-1.78957391	-0.49547988	5.71602154
-1.78888655	-0.49665478	5.71602154
-1.78297496	-0.51191819	5.71602774
-1.77737045	-0.51336420	5.71602249
-1.77653098	-0.51499820	5.71602297
-1.76656210	-0.52407229	5.71601915
-1.76500916	-0.52666056	5.71601963
-1.76309979	-0.52972603	5.71602011
-1.76170325	-0.52983207	5.71601868
-1.75950027	-0.53303480	5.71601868
-1.75474644	-0.53587151	5.71601534
-1.75128388	-0.54152524	5.71601629
-1.74868107	-0.54071808	5.71601248
-1.74725902	-0.54060394	5.71601105
-1.74379683	-0.54625767	5.71601152
-1.73835492	-0.55026883	5.71600866
-1.73597825	-0.55168748	5.71600723
-1.73415780	-0.55463356	5.71600771
-1.73255706	-0.55475754	5.71600580
-1.73151302	-0.55640960	5.71600580
-1.72967136	-0.55711246	5.71600437
-1.72645044	-0.56218779	5.71600485
-1.72296596	-0.56559783	5.71600389
-1.72154427	-0.56548363	5.71600199
-1.71990228	-0.56819123	5.71600246
-1.71702683	-0.57357049	5.71600389
-1.71560431	-0.57345593	5.71600199
-1.71413040	-0.57290059	5.71600008
-1.71195340	-0.57632393	5.71600008
-1.71037853	-0.57666850	5.71599865
-1.70924544	-0.57843977	5.71599865
-1.70524824	-0.58480918	5.71599960
-1.70327556	-0.58821464	5.71600008
-1.70194292	-0.58798110	5.71599865
-1.70021176	-0.59080797	5.71599913
-1.69675326	-0.59443867	5.71599817
-1.69274092	-0.60361230	5.71600103
-1.62250280	-0.75575519	5.71604967
-1.61701560	-0.76817900	5.71605349
-1.61792850	-0.76922941	5.71605587
-1.61736274	-0.77555305	5.71606064
-1.62028122	-0.77846676	5.71606636
-1.61943042	-0.78088188	5.71606731
-1.61904323	-0.78316110	5.71606874
-1.61868632	-0.78744406	5.71607208
-1.61912739	-0.78887033	5.71607399
-1.62207210	-0.79200453	5.71608019
-1.62459671	-0.79595578	5.71608639
-1.62477040	-0.79773998	5.71608782
-1.62591457	-0.79899341	5.71609068
-1.62565327	-0.80439878	5.71609497
-1.62795162	-0.80612433	5.71609879
-1.62653530	-0.81105715	5.71610165
-1.62546051	-0.81831712	5.71610641
-1.62628508	-0.81948721	5.71610832
-1.62592340	-0.82579297	5.71611357
-1.62639129	-0.82744032	5.71611547
-1.62695849	-0.83199269	5.71611977
-1.62752581	-0.83654499	5.71612453
-1.62757325	-0.83900893	5.71612644
-1.62774634	-0.84459889	5.71613169
-1.63004100	-0.84834754	5.71613741
-1.63080168	-0.84985721	5.71613979
-1.63271809	-0.85183966	5.71614361
-1.63253474	-0.85790670	5.71614838
-1.63145280	-0.86392462	5.71615267
-1.63303423	-0.86482167	5.71615505
-1.63406301	-0.86597395	5.71615744
-1.63460445	-0.87030566	5.71616173
-1.63449931	-0.87322873	5.71616411
-1.63670850	-0.87507343	5.71616793
-1.63911819	-0.87892342	5.71617413
-1.63914776	-0.88092673	5.71617603
-1.64164281	-0.88287461	5.71618080
-1.64118123	-0.88627481	5.71618319
-1.64122939	-0.88873917	5.71618509
-1.64151335	-0.89645314	5.71619225
-1.63924217	-0.90582436	5.71619749
-1.64015603	-0.90687519	5.71619940
-1.63815236	-0.91588843	5.71620464
-1.63918114	-0.91704065	5.71620703
-1.63980067	-0.91822827	5.71620846
-1.64003730	-0.92347848	5.71621323
-1.64050508	-0.92512572	5.71621561
-1.64192200	-0.93106842	5.71622229
-1.64119375	-0.93482685	5.71622467
-1.64207578	-0.94148540	5.71623135
-1.64026642	-0.94745636	5.71623421
-1.64140582	-0.95073247	5.71623850
-1.64154422	-0.96395361	5.71624994
-1.64184403	-0.96886384	5.71625423
-1.63966227	-0.97811562	5.71625996
-1.64507246	-0.97971201	5.71626759
-1.64146388	-0.99467826	5.71627617
-1.64302301	-0.99713749	5.71627998
-1.64473450	-0.99913740	5.71628380
-1.64430976	-1.00578308	5.71628904
-1.64371777	-1.01188612	5.71629333
-1.64162517	-1.02101874	5.71629858
-1.64545679	-1.02498281	5.71630669
-1.64447117	-1.03212345	5.71631145
-1.64021230	-1.04770410	5.71632004
-1.64136672	-1.04817605	5.71632195
-1.63982475	-1.05378914	5.71632481
-1.64005041	-1.05601454	5.71632671
-1.63988304	-1.05927789	5.71632957
-1.64059174	-1.06034636	5.71633101
-1.63929117	-1.06538093	5.71633387
-1.64014101	-1.06677127	5.71633625
-1.64193106	-1.06943345	5.71634054
-1.64355350	-1.07155287	5.71634436
-1.64496017	-1.07447112	5.71634865
-1.64200199	-1.08501709	5.71635389
-1.64094234	-1.08947301	5.71635675
-1.64358211	-1.09352553	5.71636295
-1.64446902	-1.09435534	5.71636486
-1.64210892	-1.10384583	5.71637011
-1.64022756	-1.11800826	5.71638012
-1.63471973	-1.13525844	5.71638870
-1.63186646	-1.14288139	5.71639156
-1.62874508	-1.15086186	5.71639490
-1.61934972	-1.16953564	5.71639967
-1.61178994	-1.18245935	5.71640205
-1.58773541	-1.22357988	5.71640921
-1.58471918	-1.22863710	5.71641016
-1.57684350	-1.23945415	5.71641016
-1.55780792	-1.25562811	5.71640205
-1.53818321	-1.26500559	5.71638680
-1.49476337	-1.28454089	5.71635294
-1.48716414	-1.28714848	5.71634626
-1.46725154	-1.29083538	5.71632624
-1.43933499	-1.29514265	5.71629763
-1.43764472	-1.29538596	5.71629572
-1.37463868	-1.29996336	5.71622610
-1.32130289	-1.30143237	5.71616507
-1.32023764	-1.30084097	5.71616364
-1.31414008	-1.30041933	5.71615601
-1.31017756	-1.29915786	5.71615028
-1.30870378	-1.29860258	5.71614790
-1.30737019	-1.29836869	5.71614647
-1.30500877	-1.29698300	5.71614265
-1.30202317	-1.29643250	5.71613836
-1.29761493	-1.29576731	5.71613264
-1.29305506	-1.29556179	5.71612740
-1.28491068	-1.29586053	5.71611786
-1.27736437	-1.29510391	5.71610880
-1.27266741	-1.29255331	5.71610069
-1.25484180	-1.29293573	5.71608067
-1.25054932	-1.29237223	5.71607494
-1.24809861	-1.29110587	5.71607113
-1.24658704	-1.29111063	5.71606922
-1.24552166	-1.29051936	5.71606731
-1.24432945	-1.29060733	5.71606636
-1.23920858	-1.29089689	5.71606064
-1.23133159	-1.29083800	5.71605110
-1.22810471	-1.29086566	5.71604729
-1.22212219	-1.29054546	5.71604013
-1.22105622	-1.28995395	5.71603870
-1.21469116	-1.28989029	5.71603107
-1.21380341	-1.28905988	5.71602917
-1.21055043	-1.28886712	5.71602535
-1.20895028	-1.28899169	5.71602345
-1.20156372	-1.28901780	5.71601486
-1.19869328	-1.28856850	5.71601105
-1.19859672	-1.28744566	5.71601009
-1.18803501	-1.28794098	5.71599817
-1.18175900	-1.28775811	5.71599102
-1.18031049	-1.28742290	5.71598864
-1.17978024	-1.28611588	5.71598721
-1.17294264	-1.28642762	5.71597958
-1.16980457	-1.28633630	5.71597576
-1.04313087	-1.29688621	5.71583700
-1.03883791	-1.29632235	5.71583128
-1.03552151	-1.29646957	5.71582794
-1.03392148	-1.29659390	5.71582603
-1.02731407	-1.29710817	5.71581888
-0.96457148	-1.30335093	5.71575069
-0.95985854	-1.30360413	5.71574545
-0.95689893	-1.30327392	5.71574211
-0.95402843	-1.30282474	5.71573830
-0.95299959	-1.30167246	5.71573591
-0.94888556	-1.30087030	5.71573067
-0.94743705	-1.30053520	5.71572828
