//X	Y	Z
0.13326991	-0.37607622	1.20316422
0.13515854	-0.36763737	1.20315039
0.13507256	-0.36002246	1.20313883
0.13464767	-0.35655159	1.20313382
0.13395816	-0.35302132	1.20312893
0.13384220	-0.35215154	1.20312762
0.13325070	-0.35201949	1.20312786
0.13297555	-0.35069168	1.20312595
0.13267711	-0.34935892	1.20312417
0.13198753	-0.34582865	1.20311916
0.13050595	-0.34423169	1.20311773
0.13023855	-0.34290558	1.20311582
0.12986587	-0.34197798	1.20311463
0.12921190	-0.34183258	1.20311487
0.12851296	-0.33998740	1.20311248
0.12780538	-0.33898547	1.20311141
0.12732714	-0.33845648	1.20311081
0.12705715	-0.33586371	1.20310712
0.12519237	-0.33586910	1.20310819
0.12448567	-0.33402222	1.20310581
0.12409718	-0.33309138	1.20310462
0.12320983	-0.33289316	1.20310485
0.12310171	-0.33202502	1.20310366
0.12269782	-0.33109090	1.20310247
0.12234560	-0.32890156	1.20309937
0.12173839	-0.32876614	1.20309949
0.12151437	-0.32702821	1.20309699
0.12090710	-0.32689276	1.20309722
0.11973183	-0.32663020	1.20309746
0.11938574	-0.32612932	1.20309699
0.11926633	-0.32483780	1.20309508
0.11870590	-0.32471228	1.20309520
0.11820930	-0.32291323	1.20309281
0.11779758	-0.32197750	1.20309162
0.11725268	-0.32185525	1.20309174
0.11691535	-0.32051423	1.20308995
0.11616194	-0.31865746	1.20308757
0.11553145	-0.31851706	1.20308769
0.11536096	-0.31763569	1.20308650
0.11464470	-0.31747389	1.20308673
0.11439659	-0.31657600	1.20308542
0.11323482	-0.31420502	1.20308256
0.11260431	-0.31406468	1.20308280
0.11186644	-0.31221113	1.20308042
0.11180502	-0.31135297	1.20307910
0.11133641	-0.30914530	1.20307600
0.10928627	-0.30741468	1.20307469
0.10868928	-0.30474922	1.20307100
0.10757612	-0.30449986	1.20307124
0.10717995	-0.30356729	1.20307016
0.10610738	-0.30163950	1.20306778
0.10502963	-0.30097666	1.20306754
0.10455139	-0.30044767	1.20306695
0.10187791	-0.29942968	1.20306706
0.10119376	-0.29843274	1.20306599
0.09816110	-0.29817080	1.20306742
0.09788543	-0.29769120	1.20306683
0.09759800	-0.29677868	1.20306563
0.09725390	-0.29459426	1.20306253
0.09668201	-0.29404217	1.20306206
0.09639132	-0.29271108	1.20306015
0.09565610	-0.29212421	1.20305967
0.09544753	-0.29038966	1.20305717
0.09493808	-0.28985399	1.20305669
0.09458871	-0.28893140	1.20305550
0.09351090	-0.28826860	1.20305514
0.09239960	-0.28633571	1.20305288
0.09199890	-0.28582001	1.20305240
0.09142292	-0.28569117	1.20305252
0.09133822	-0.28483123	1.20305121
0.09068932	-0.28341764	1.20304954
0.09031662	-0.28249010	1.20304835
0.09006393	-0.28201222	1.20304775
0.08966345	-0.28149974	1.20304728
0.08821294	-0.27990937	1.20304573
0.08780899	-0.27897516	1.20304453
0.08733071	-0.27844614	1.20304406
0.08671426	-0.27620706	1.20304096
0.08629867	-0.27483988	1.20303917
0.08571222	-0.27344275	1.20303738
0.08532728	-0.27293357	1.20303690
0.08472012	-0.27279812	1.20303702
0.08462751	-0.27193332	1.20303571
0.08407588	-0.27097088	1.20303464
0.08305264	-0.27031964	1.20303428
0.08236058	-0.26932105	1.20303321
0.08173026	-0.26918384	1.20303333
0.08159928	-0.26745936	1.20303082
0.08133635	-0.26571321	1.20302832
0.08093580	-0.26520073	1.20302773
0.08075763	-0.26431778	1.20302653
0.08005355	-0.26373753	1.20302606
0.07961586	-0.26153326	1.20302308
0.07870935	-0.26090688	1.20302260
0.07854664	-0.26002395	1.20302141
0.07772832	-0.25688726	1.20301712
0.07725008	-0.25636142	1.20301664
0.07705699	-0.25462693	1.20301414
0.07665472	-0.25200605	1.20301032
0.07579160	-0.25097105	1.20300937
0.07533665	-0.25044701	1.20300877
0.07477248	-0.24989656	1.20300829
0.07421731	-0.24850923	1.20300651
0.07381412	-0.24673006	1.20300412
0.07349235	-0.24539238	1.20300221
0.07294745	-0.24527015	1.20300245
0.07239205	-0.24387966	1.20300066
0.07143544	-0.24282160	1.20299959
0.07112861	-0.24233536	1.20299900
0.07043562	-0.24217533	1.20299923
0.07028846	-0.24129888	1.20299792
0.06977576	-0.24034476	1.20299685
0.06968044	-0.23821329	1.20299363
0.06907339	-0.23807789	1.20299387
0.06828712	-0.23790117	1.20299399
0.06581524	-0.23777118	1.20299530
0.06546305	-0.23558190	1.20299220
0.06456859	-0.23453707	1.20299113
0.06396155	-0.23440164	1.20299137
0.06306633	-0.23420176	1.20299160
0.06225320	-0.23359522	1.20299113
0.06159325	-0.23176147	1.20298874
0.06015391	-0.23059443	1.20298791
0.05948422	-0.23043934	1.20298803
0.05919726	-0.22953637	1.20298684
0.05865242	-0.22941419	1.20298696
0.05839859	-0.22597656	1.20298195
0.05692992	-0.22311619	1.20297849
0.05526832	-0.22232288	1.20297825
0.05489289	-0.22012867	1.20297515
0.05446556	-0.21918951	1.20297396
0.05326758	-0.21807697	1.20297301
0.05296483	-0.21716429	1.20297182
0.05175044	-0.21689342	1.20297217
0.05169408	-0.21477020	1.20296896
0.05023069	-0.21444316	1.20296931
0.04983015	-0.21393070	1.20296884
0.04966484	-0.21178430	1.20296574
0.04883968	-0.21159935	1.20296586
0.04844089	-0.20940015	1.20296276
0.04717292	-0.20827273	1.20296180
0.04565141	-0.20750919	1.20296156
0.04420090	-0.20591882	1.20296013
0.04330568	-0.20571898	1.20296037
0.04272193	-0.20558849	1.20296049
0.04223754	-0.20337108	1.20295739
0.04112436	-0.20312171	1.20295775
0.04053272	-0.20298955	1.20295787
0.04010895	-0.20247214	1.20295727
0.03932432	-0.20060873	1.20295501
0.03835911	-0.20039397	1.20295525
0.03796026	-0.19819476	1.20295215
0.03733491	-0.19678937	1.20295036
0.03705205	-0.19545993	1.20294857
0.03694389	-0.19459181	1.20294726
0.03648891	-0.19406776	1.20294678
0.03604677	-0.19228032	1.20294428
0.03567130	-0.19008610	1.20294118
0.03568421	-0.18882275	1.20293927
0.03524916	-0.18788195	1.20293820
0.03471975	-0.18776304	1.20293832
0.03424148	-0.18723400	1.20293772
0.03424392	-0.18470234	1.20293391
0.03368345	-0.18457681	1.20293403
0.03313074	-0.18445295	1.20293427
0.03258584	-0.18433072	1.20293438
0.03255207	-0.18305746	1.20293248
0.03200714	-0.18293525	1.20293260
0.03201222	-0.18167022	1.20293069
0.03149503	-0.18113294	1.20293021
0.03142581	-0.18027312	1.20292890
0.03089301	-0.17973247	1.20292842
0.03082375	-0.17887266	1.20292711
0.03051745	-0.17753823	1.20292532
0.03008585	-0.17701913	1.20292485
0.02943207	-0.17687379	1.20292497
0.02912151	-0.17595945	1.20292377
0.02905656	-0.17467955	1.20292187
0.02805333	-0.17361476	1.20292091
0.02785585	-0.17230032	1.20291901
0.02741309	-0.17135789	1.20291781
0.02738107	-0.16840109	1.20291340
0.02736174	-0.16417451	1.20290697
0.02597096	-0.16133392	1.20290351
0.02515357	-0.16115057	1.20290375
0.02534029	-0.15739517	1.20289791
0.02240555	-0.15673944	1.20289874
0.02304762	-0.14593060	1.20288193
0.01861755	-0.14578302	1.20288444
0.01765223	-0.14556506	1.20288467
0.01759974	-0.14387317	1.20288205
0.01741234	-0.14002551	1.20287633
0.01697461	-0.13781807	1.20287335
0.01677080	-0.13566984	1.20287013
0.01622590	-0.13554762	1.20287037
0.01563927	-0.13415046	1.20286858
0.01552838	-0.13201249	1.20286536
0.01540978	-0.12987603	1.20286226
0.01520122	-0.12814143	1.20285976
0.01508268	-0.12600501	1.20285654
0.01485076	-0.12426547	1.20285404
0.01404120	-0.12408380	1.20285428
0.01295307	-0.12215268	1.20285201
0.01165367	-0.12101221	1.20285106
0.01156110	-0.12014741	1.20284975
0.01143741	-0.11927599	1.20284855
0.01004556	-0.11727711	1.20284641
0.00955946	-0.11674642	1.20284581
0.00945915	-0.11587997	1.20284462
0.00916428	-0.11410800	1.20284212
0.00837440	-0.10971126	1.20283592
0.00740734	-0.10824903	1.20283425
0.00745296	-0.10530557	1.20282984
0.00724803	-0.10399590	1.20282793
0.00724274	-0.10146257	1.20282412
0.00713972	-0.09932946	1.20282090
0.00681785	-0.09799173	1.20281911
0.00687458	-0.09167332	1.20280945
0.00649132	-0.08947743	1.20280635
0.00596203	-0.08935853	1.20280647
0.00588932	-0.08807698	1.20280468
0.00505634	-0.08789036	1.20280480
0.00490933	-0.08701396	1.20280361
0.01249436	0.08555968	1.20253766
0.01513493	0.08665673	1.20253444
0.01544795	0.08827407	1.20253170
0.01211970	0.21603480	1.20234025
0.01270088	0.21717098	1.20233810
0.01334350	0.21744898	1.20233738
0.01379584	0.21819156	1.20233595
0.01472382	0.21967185	1.20233309
0.01531271	0.22080636	1.20233107
0.01745407	0.22117397	1.20232928
0.01951085	0.22240150	1.20232618
0.01984714	0.22401391	1.20232344
0.01988602	0.22780077	1.20231771
0.02122313	0.22961181	1.20231414
0.02281626	0.23052013	1.20231187
0.02314897	0.23256063	1.20230854
0.02327108	0.23379439	1.20230663
0.02404584	0.23404747	1.20230579
0.02421789	0.23485281	1.20230448
0.02461654	0.23645198	1.20230174
0.02552386	0.23667049	1.20230091
0.02651776	0.23770943	1.20229876
0.02791634	0.23866227	1.20229650
0.02914278	0.23880979	1.20229554
0.02978267	0.24035448	1.20229280
0.03072627	0.24183136	1.20228994
0.03193443	0.24324887	1.20228708
0.03217645	0.24404252	1.20228577
0.03234585	0.24611454	1.20228255
0.03434385	0.24693045	1.20228004
0.03574412	0.24957001	1.20227516
0.03799103	0.25033301	1.20227265
0.03877808	0.25100124	1.20227122
0.03950287	0.25168273	1.20226979
0.04026657	0.25235593	1.20226824
0.04211468	0.25531811	1.20226264
0.04401568	0.25658193	1.20225966
0.04610276	0.25695789	1.20225775
0.05017559	0.25773454	1.20225418
0.05089597	0.25799596	1.20225334
0.05266394	0.25844297	1.20225155
0.05288270	0.25923839	1.20225024
0.05412905	0.25980264	1.20224869
0.05511419	0.26000467	1.20224774
0.05605768	0.26148161	1.20224500
0.05687237	0.26256496	1.20224285
0.05825534	0.26352113	1.20224059
0.06002396	0.26481310	1.20223749
0.06027296	0.26855525	1.20223165
0.06269412	0.26886976	1.20222974
0.06294067	0.27008027	1.20222783
0.06314823	0.27129903	1.20222580
0.06354681	0.27289817	1.20222318
0.06407352	0.27404594	1.20222116
0.06481522	0.27555627	1.20221841
0.06498459	0.27762833	1.20221508
0.06516179	0.27969870	1.20221186
0.06593323	0.28037027	1.20221043
0.06665027	0.28105336	1.20220888
0.06660336	0.28486168	1.20220315
0.06698637	0.28646415	1.20220053
0.06710047	0.28770596	1.20219862
0.06845929	0.28782216	1.20219755
0.06957401	0.28926271	1.20219469
0.07021669	0.28954071	1.20219398
0.07155369	0.29135180	1.20219040
0.07221703	0.29289150	1.20218766
0.07246348	0.29410198	1.20218563
0.07415730	0.29500163	1.20218325
0.07522883	0.29602712	1.20218110
0.07653485	0.29784483	1.20217752
0.07637662	0.30672845	1.20216417
0.07599781	0.32158440	1.20214188
0.07542835	0.34070957	1.20211327
0.07522514	0.35129309	1.20209742
0.07688805	0.35598484	1.20208931
0.07335952	0.36648104	1.20207548
0.07255156	0.36834937	1.20207310
0.04517397	0.43018359	1.20199597
-0.01868273	0.57488966	1.20181513
-0.02832367	0.59265864	1.20179403
-0.04440367	0.61862087	1.20176435
-0.05383363	0.62959659	1.20175350
-0.08381769	0.65318227	1.20173573
-0.20364979	0.65552717	1.20180428
-0.23054151	0.65181959	1.20182610
-0.24846557	0.64696479	1.20184422
-0.24992274	0.64560026	1.20184720
-0.25131357	0.64464575	1.20184946
-0.25615504	0.64279187	1.20185518
-0.25660473	0.64078254	1.20185852
-0.27162021	0.63654691	1.20187390
-0.71239877	0.53137010	1.20229840
-0.71541977	0.53119904	1.20230043
-0.71643144	0.53141737	1.20230079
-0.71766394	0.53295821	1.20229912
-0.71831965	0.53521514	1.20229614
-0.72048199	0.54204351	1.20228708
-0.72310185	0.54220819	1.20228839
-0.79562986	0.50484800	1.20238864
-0.81870860	0.48048675	1.20243943
-0.85377252	0.42839545	1.20253944
-0.86006832	0.41632003	1.20256150
-0.87770766	0.37974584	1.20262754
-0.88901544	0.35358733	1.20267391
-0.91615939	0.27568316	1.20280826
-0.91900641	0.26661560	1.20282376
-0.91994053	0.22250710	1.20289111
-0.92001128	0.21408994	1.20290387
-0.91904384	0.20416692	1.20291829
-0.91895908	0.20330378	1.20291960
-0.91811973	0.19763044	1.20292771
-0.91493028	0.18299662	1.20294797
-0.91454631	0.18164571	1.20294976
-0.91417783	0.18029808	1.20295155
-0.91382051	0.17937380	1.20295274
-0.91340452	0.17885804	1.20295334
-0.91307062	0.17793876	1.20295453
-0.91266221	0.17742458	1.20295501
-0.91069919	0.17022714	1.20296478
-0.90991455	0.16836375	1.20296705
-0.90897089	0.16604236	1.20297003
-0.90861362	0.16511807	1.20297122
-0.90836108	0.16464025	1.20297182
-0.90783685	0.16325633	1.20297360
-0.88146341	0.06664394	1.20310402
-0.88080764	0.06438695	1.20310712
-0.88000828	0.06167525	1.20311069
-0.87910360	0.05936533	1.20311368
-0.87882757	0.05887933	1.20311427
-0.87853599	0.05839318	1.20311475
-0.87804651	0.05744077	1.20311594
-0.87752664	0.05563684	1.20311832
-0.87694794	0.05424136	1.20312011
-0.87607855	0.05151477	1.20312369
-0.87558472	0.05098245	1.20312428
-0.87493163	0.04999213	1.20312536
-0.87455100	0.04906288	1.20312655
-0.87417811	0.04813531	1.20312774
-0.87355292	0.04672992	1.20312941
-0.87299746	0.04533939	1.20313120
-0.87180114	0.04254012	1.20313478
-0.87093449	0.04108021	1.20313644
-0.87049514	0.04055946	1.20313692
-0.87007558	0.03962198	1.20313811
-0.86902630	0.03769910	1.20314038
-0.86838102	0.03671046	1.20314157
-0.86787152	0.03617477	1.20314205
-0.86700219	0.03344819	1.20314562
-0.86613381	0.03367503	1.20314479
-0.86554384	0.03185619	1.20314717
-0.86494535	0.03087744	1.20314825
-0.86455691	0.02994654	1.20314944
-0.86416072	0.02901401	1.20315063
-0.86345321	0.02801211	1.20315170
-0.86273861	0.02616358	1.20315409
-0.86232692	0.02522773	1.20315528
-0.86196965	0.02430350	1.20315647
-0.86156571	0.02336928	1.20315766
-0.86127424	0.02288316	1.20315814
-0.86028028	0.02012694	1.20316172
-0.85963851	0.01956317	1.20316219
-0.85933924	0.01907220	1.20316279
-0.85893524	0.01813799	1.20316398
-0.85856241	0.01721042	1.20316517
-0.85814297	0.01627292	1.20316637
-0.85782814	0.01578188	1.20316684
-0.85755956	0.01529106	1.20316744
-0.85724503	0.01480640	1.20316803
-0.85702026	0.01391350	1.20316923
-0.85663182	0.01298261	1.20317042
-0.85634804	0.01249494	1.20317101
-0.85559708	0.01190160	1.20317137
-0.85522789	0.01140212	1.20317197
-0.85497183	0.01049939	1.20317316
-0.85385066	0.00645001	1.20317864
-0.85339576	0.00592595	1.20317912
-0.85253167	0.00573270	1.20317888
-0.85165721	0.00427116	1.20318055
-0.85067290	0.00363138	1.20318103
-0.85026437	0.00311086	1.20318151
-0.84951800	0.00210069	1.20318258
-0.84907079	0.00157826	1.20318317
-0.84873277	0.00108542	1.20318365
-0.84827089	-0.00028206	1.20318544
-0.84795606	-0.00077634	1.20318604
-0.84750879	-0.00129876	1.20318651
-0.84722137	-0.00221132	1.20318770
-0.84655648	-0.00277685	1.20318818
-0.84593356	-0.00292198	1.20318806
-0.84565431	-0.00382331	1.20318925
-0.84511721	-0.00394388	1.20318913
-0.84468985	-0.00488305	1.20319033
-0.84371829	-0.00679256	1.20319259
-0.84328324	-0.00773337	1.20319378
-0.84087592	-0.01797208	1.20320785
-0.84030509	-0.01936591	1.20320952
-0.83976525	-0.02075312	1.20321131
-0.83951271	-0.02123098	1.20321190
-0.83914763	-0.02215689	1.20321310
-0.83879811	-0.02307951	1.20321429
-0.83841759	-0.02400872	1.20321548
-0.83782327	-0.02540754	1.20321727
-0.83724463	-0.02680302	1.20321894
-0.83678961	-0.02732708	1.20321953
-0.83590460	-0.03005697	1.20322311
-0.83544970	-0.03058103	1.20322359
-0.83318806	-0.03911118	1.20323515
-0.82332408	-0.07549159	1.20328438
-0.78611475	-0.23868498	1.20350921
-0.78678060	-0.23895802	1.20351005
-0.78769815	-0.24170655	1.20351470
-0.78659165	-0.24870601	1.20352471
-0.78714156	-0.24984878	1.20352674
-0.78758621	-0.25059310	1.20352817
-0.78749096	-0.25272459	1.20353127
-0.78723133	-0.25404903	1.20353317
-0.78749341	-0.25525627	1.20353508
-0.78693968	-0.25833344	1.20353949
-0.78683937	-0.25919998	1.20354068
-0.78680122	-0.26005313	1.20354199
-0.78673631	-0.26133305	1.20354390
-0.78671378	-0.26218298	1.20354509
-0.78764874	-0.26281661	1.20354664
-0.78754061	-0.26368478	1.20354795
-0.78781044	-0.26489028	1.20354986
-0.78761739	-0.26662153	1.20355237
-0.78778172	-0.26742855	1.20355368
-0.78796154	-0.26823226	1.20355511
-0.78803331	-0.26990414	1.20355761
-0.78765005	-0.27209997	1.20356071
-0.78725117	-0.27429914	1.20356381
-0.78715080	-0.27516568	1.20356512
-0.78675199	-0.27736491	1.20356822
-0.78700626	-0.27857375	1.20357013
-0.78773880	-0.27925357	1.20357156
-0.78790045	-0.28132731	1.20357490
-0.78780001	-0.28219372	1.20357609
-0.78563130	-0.28985268	1.20358646
-0.77535689	-0.30903181	1.20360923
-0.77448243	-0.31049332	1.20361102
-0.77386045	-0.31147707	1.20361209
-0.76301730	-0.32614011	1.20362782
-0.75919074	-0.33037224	1.20363188
-0.75795388	-0.33149314	1.20363283
-0.75500441	-0.33299702	1.20363331
-0.73105448	-0.34468654	1.20363665
-0.58311379	-0.41366443	1.20365214
-0.58129573	-0.41364908	1.20365095
-0.43197179	-0.36562350	1.20348847
-0.40949464	-0.35970488	1.20346594
-0.40713170	-0.35981172	1.20346475
-0.40467888	-0.35951668	1.20346272
-0.40033853	-0.36299714	1.20346546
-0.39399791	-0.36399418	1.20346308
-0.37450904	-0.35949430	1.20344460
-0.37408513	-0.36001170	1.20344508
-0.37330326	-0.36060846	1.20344555
-0.37038827	-0.36168733	1.20344543
-0.36731604	-0.36110938	1.20344269
-0.36678335	-0.36164999	1.20344317
-0.36590374	-0.36184651	1.20344293
-0.36356753	-0.36152667	1.20344102
-0.36298022	-0.36207888	1.20344162
-0.36253306	-0.36260131	1.20344210
-0.36168459	-0.36279118	1.20344186
-0.35077828	-0.36058736	1.20343196
-0.34846506	-0.36027217	1.20343006
-0.34776491	-0.36041787	1.20342994
-0.34752715	-0.36091161	1.20343053
-0.34536821	-0.36179799	1.20343053
-0.34420821	-0.36206046	1.20343029
-0.34207889	-0.36211127	1.20342898
-0.34094244	-0.36236563	1.20342875
-0.33948749	-0.36353600	1.20342970
-0.33642483	-0.36464310	1.20342946
-0.33420554	-0.36429521	1.20342767
-0.33182701	-0.36440533	1.20342636
-0.31963938	-0.36207515	1.20341551
-0.31828147	-0.36280072	1.20341575
-0.31674391	-0.36271620	1.20341468
-0.31484163	-0.36441535	1.20341611
-0.31392819	-0.36588517	1.20341778
-0.30616915	-0.36550939	1.20341253
-0.30566755	-0.36604339	1.20341313
-0.30291104	-0.36581606	1.20341110
-0.30087167	-0.36626875	1.20341051
-0.28656268	-0.36398456	1.20339847
-0.28109652	-0.36352003	1.20339453
-0.28024805	-0.36370993	1.20339429
-0.27885023	-0.36360204	1.20339322
-0.27798280	-0.36421701	1.20339370
-0.27759007	-0.36472782	1.20339417
-0.27663273	-0.36580181	1.20339525
-0.27397466	-0.36595878	1.20339394
-0.27105126	-0.36619109	1.20339251
-0.27011019	-0.36724582	1.20339358
-0.26331627	-0.36665535	1.20338857
-0.26191080	-0.36654907	1.20338750
-0.26157254	-0.36704829	1.20338809
-0.25951329	-0.36708426	1.20338690
-0.25896057	-0.36720812	1.20338678
-0.25697559	-0.36765242	1.20338619
-0.25524750	-0.36803889	1.20338583
-0.25402105	-0.36789134	1.20338488
-0.25327811	-0.36847982	1.20338523
-0.25091511	-0.36858669	1.20338404
-0.24855214	-0.36869347	1.20338273
-0.24556997	-0.36851737	1.20338070
-0.24392307	-0.36846566	1.20337963
-0.24073082	-0.36833411	1.20337749
-0.23876134	-0.36877516	1.20337701
-0.23730576	-0.36910045	1.20337665
-0.23494270	-0.36920735	1.20337534
-0.23257983	-0.36931422	1.20337403
-0.22982338	-0.36908686	1.20337212
-0.22226661	-0.36866814	1.20336688
-0.22179604	-0.36919546	1.20336747
-0.22028166	-0.36911237	1.20336640
-0.21791869	-0.36921918	1.20336509
-0.21517777	-0.36898863	1.20336318
-0.21158069	-0.36894959	1.20336092
-0.20253277	-0.36844274	1.20335472
-0.19904113	-0.36880225	1.20335317
-0.19853942	-0.36933628	1.20335364
-0.19590409	-0.36950418	1.20335233
-0.19316319	-0.36927363	1.20335031
-0.18419659	-0.36832851	1.20334351
-0.18243469	-0.36998829	1.20334494
-0.18046519	-0.37042928	1.20334446
-0.17810224	-0.37053606	1.20334315
-0.17727447	-0.37198770	1.20334482
-0.02785461	-0.35731888	1.20323277
-0.02488796	-0.35713947	1.20323074
-0.02444518	-0.35808188	1.20323181
-0.02305521	-0.35797235	1.20323086
-0.02221446	-0.35816061	1.20323062
-0.02195418	-0.35864013	1.20323122
-0.02141349	-0.35918558	1.20323169
-0.02118159	-0.36092514	1.20323420
-0.02065222	-0.36104408	1.20323408
-0.01994469	-0.36204594	1.20323515
0.00438073	-0.35989130	1.20321727
0.00674374	-0.35999817	1.20321596
0.00971820	-0.35982040	1.20321393
0.01064443	-0.36002687	1.20321369
0.01177316	-0.36027953	1.20321345
0.01505898	-0.36017114	1.20321131
0.01715725	-0.36021852	1.20321012
0.01857403	-0.36053562	1.20320976
0.02001677	-0.36212438	1.20321119
0.02303793	-0.36195651	1.20320916
0.02494068	-0.36280432	1.20320928
0.02730373	-0.36291116	1.20320809
0.02844020	-0.36316547	1.20320773
0.02994677	-0.36308068	1.20320678
0.03221993	-0.36358947	1.20320618
0.03487084	-0.36376071	1.20320475
0.03636975	-0.36367428	1.20320380
0.03789204	-0.36359283	1.20320272
0.04025498	-0.36369964	1.20320141
0.04456824	-0.36382246	1.20319903
0.04517889	-0.36437964	1.20319951
0.04679372	-0.36516297	1.20319974
0.04968604	-0.36538875	1.20319831
0.05105180	-0.36611596	1.20319867
0.05284637	-0.36609563	1.20319748
0.05338359	-0.36621618	1.20319736
0.05550012	-0.36753350	1.20319808
0.05644888	-0.36858994	1.20319915
0.05677070	-0.36992759	1.20320094
0.05904368	-0.37043628	1.20320034
0.06074849	-0.37081784	1.20319986
0.06223960	-0.37072974	1.20319891
0.06394438	-0.37111127	1.20319843
0.06500309	-0.37134907	1.20319819
0.06621739	-0.37162000	1.20319784
0.06701140	-0.37179834	1.20319760
0.06783228	-0.37240335	1.20319808
0.06870671	-0.37386489	1.20319974
0.07041142	-0.37424642	1.20319927
0.07354077	-0.37494671	1.20319843
0.07518160	-0.37700170	1.20320058
0.07800732	-0.37763423	1.20319986
0.07979416	-0.37761223	1.20319879
0.08067647	-0.37907547	1.20320046
0.08172303	-0.37973168	1.20320082
0.08358704	-0.38057116	1.20320094
0.08540511	-0.38055581	1.20319986
0.10497189	-0.37987077	1.20318699
0.11286771	-0.37910634	1.20318115
