//X	Y	Z
-0.32698277	0.25581133	3.63658404
-0.35645646	0.27754754	3.63655019
-0.38584843	0.29827669	3.63651705
-0.38848451	0.30005294	3.63651419
-0.39437261	0.30391014	3.63650775
-0.39733905	0.30575439	3.63650441
-0.44809353	0.33698958	3.63645005
-0.45605975	0.34059441	3.63644218
-0.54750544	0.37748453	3.63635612
-0.57300657	0.38521200	3.63633370
-0.58249623	0.38761985	3.63632560
-0.62298536	0.39486510	3.63629293
-0.63006598	0.39574647	3.63628745
-0.73653412	0.39330044	3.63621497
-0.74251831	0.39151695	3.63621187
-0.74456465	0.38986823	3.63621163
-0.74675894	0.38786852	3.63621116
-0.74898762	0.38663837	3.63621044
-0.75006390	0.38540959	3.63621044
-0.75057065	0.38464919	3.63621068
-0.75100911	0.38406095	3.63621068
-0.75247633	0.38303950	3.63621020
-0.75369316	0.38177168	3.63621020
-0.75440258	0.37955293	3.63621116
-0.90578401	0.29612499	3.63615727
-0.90813422	0.29517397	3.63615608
-0.90940762	0.29623103	3.63615465
-0.91302609	0.29431081	3.63615322
-0.91538584	0.29320067	3.63615227
-0.91695106	0.29246151	3.63615179
-0.91964734	0.29266626	3.63614964
-0.92410684	0.29035842	3.63614798
-0.92490137	0.28998747	3.63614774
-0.92658818	0.28952742	3.63614678
-0.92822111	0.28939572	3.63614583
-0.96215588	0.27330032	3.63613200
-0.96557224	0.27205899	3.63613033
-1.01354229	0.24638066	3.63611293
-1.01831591	0.24383219	3.63611126
-1.03756046	0.21113791	3.63611794
-1.10726488	0.06650296	3.63615847
-1.15822434	-0.03670388	3.63618636
-1.15910864	-0.03819218	3.63618684
-1.16092956	-0.04164946	3.63618755
-1.16280425	-0.04543483	3.63618875
-1.16309273	-0.04582486	3.63618875
-1.16453791	-0.04840159	3.63618922
-1.16641259	-0.05218697	3.63619018
-1.16814625	-0.05515379	3.63619089
-1.17089593	-0.06026831	3.63619208
-1.17789328	-0.07433408	3.63619590
-1.18997979	-0.10100845	3.63620400
-1.19379830	-0.10953045	3.63620663
-1.19543684	-0.11340636	3.63620782
-1.19925380	-0.14358369	3.63622379
-1.19925475	-0.15013343	3.63622761
-1.19899130	-0.15209463	3.63622904
-1.18490636	-0.22202730	3.63628197
-1.16499662	-0.32030785	3.63635612
-1.15910971	-0.33976507	3.63637209
-1.15717924	-0.34485435	3.63637662
-1.13703871	-0.38413212	3.63641477
-1.10854053	-0.41988242	3.63645649
-1.10765994	-0.42057979	3.63645768
-1.05476487	-0.45422307	3.63651514
-0.99427819	-0.49157205	3.63657999
-0.98983657	-0.49379408	3.63658452
-0.95926291	-0.51089656	3.63661623
-0.95788330	-0.51114511	3.63661742
-0.95536143	-0.51233071	3.63661981
-0.95309222	-0.51311707	3.63662195
-0.95081365	-0.51374412	3.63662386
-0.94915587	-0.51454085	3.63662553
-0.94548202	-0.51650459	3.63662934
-0.94411206	-0.51691204	3.63663054
-0.94232333	-0.51782864	3.63663220
-0.94169295	-0.51750004	3.63663244
-0.94036740	-0.51807672	3.63663387
-0.93796718	-0.51898283	3.63663602
-0.93719900	-0.51924181	3.63663673
-0.93548054	-0.52017802	3.63663840
-0.93394428	-0.52069569	3.63663983
-0.93219036	-0.52162260	3.63664174
-0.93142235	-0.52188134	3.63664246
-0.92930984	-0.52239841	3.63664412
-0.92802644	-0.52251685	3.63664508
-0.92747569	-0.52236700	3.63664532
-0.92447352	-0.52342194	3.63664818
-0.92162800	-0.52420771	3.63665056
-0.77577192	-0.60380757	3.63680100
-0.75132418	-0.61773133	3.63682652
-0.75103641	-0.61812067	3.63682699
-0.75008655	-0.61957765	3.63682842
-0.74705952	-0.62156117	3.63683176
-0.74600351	-0.62220943	3.63683295
-0.74384058	-0.62380445	3.63683534
-0.65768260	-0.67336571	3.63692570
-0.65692484	-0.67456293	3.63692689
-0.65715253	-0.67509246	3.63692713
-0.65669847	-0.67559195	3.63692784
-0.65627956	-0.67610145	3.63692832
-0.65582561	-0.67660099	3.63692904
-0.65587097	-0.67754900	3.63692951
-0.65535820	-0.67803562	3.63693023
-0.65464282	-0.67955434	3.63693166
-0.65347469	-0.68064106	3.63693309
-0.65305603	-0.68115014	3.63693380
-0.65274251	-0.68168879	3.63693428
-0.65228856	-0.68218833	3.63693500
-0.65083277	-0.68366402	3.63693690
-0.64870477	-0.68526900	3.63693929
-0.64618361	-0.68723375	3.63694215
-0.64548379	-0.68766463	3.63694310
-0.64578176	-0.68821383	3.63694310
-0.64422047	-0.68966031	3.63694501
-0.64327943	-0.69049710	3.63694620
-0.58823818	-0.70967424	3.63699627
-0.57137191	-0.71147233	3.63700914
-0.56553245	-0.71191335	3.63701344
-0.52045029	-0.70807326	3.63704228
-0.45455015	-0.68860900	3.63707614
-0.45206881	-0.68777800	3.63707733
-0.33429077	-0.60333401	3.63710737
-0.33358270	-0.60267413	3.63710737
-0.22242481	-0.49838206	3.63712049
-0.20213795	-0.46776912	3.63711572
-0.12093726	-0.34182063	3.63709474
-0.11133432	-0.32238474	3.63708949
-0.10956493	-0.31862867	3.63708830
-0.09762046	-0.28030023	3.63707304
-0.08572006	-0.22404003	3.63704681
-0.07104734	-0.14599791	3.63700891
-0.07082224	-0.14281529	3.63700724
-0.07370424	-0.11631465	3.63698888
-0.07610887	-0.10683239	3.63698149
-0.07927847	-0.09568474	3.63697243
-0.10500096	-0.01049671	3.63690209
-0.10553111	-0.00877000	3.63690066
-0.11761217	0.02037583	3.63687444
-0.11789052	0.02092443	3.63687372
-0.12131283	0.02670059	3.63686800
-0.12213156	0.02803743	3.63686657
-0.12405673	0.03110047	3.63686323
-0.12525922	0.03295641	3.63686132
-0.12618341	0.03426406	3.63685989
-0.16309923	0.07893686	3.63680673
-0.17096132	0.08757249	3.63679600
-0.17319469	0.08914793	3.63679338
-0.18631504	0.10289085	3.63677597
-0.18886183	0.10500494	3.63677287
-0.18989888	0.10597149	3.63677144
-0.19053592	0.10611030	3.63677096
-0.19219306	0.10768665	3.63676882
-0.19566409	0.11110841	3.63676429
-0.19626802	0.11140952	3.63676381
-0.19950251	0.11474065	3.63675952
-0.20168382	0.11679659	3.63675666
-0.20271417	0.11729559	3.63675570
-0.20334908	0.11728174	3.63675523
-0.20384769	0.11761238	3.63675475
-0.20459963	0.11756279	3.63675427
-0.20506103	0.11775071	3.63675380
-0.20702556	0.11952995	3.63675117
-0.32040974	0.24761996	3.63659382
-0.32170814	0.24960566	3.63659167
-0.32248503	0.25048473	3.63659048
