//X	Y	Z
0.03899400	-0.62549520	2.39397740
0.05433840	-0.61254930	2.39393282
0.06686975	-0.59261042	2.39388323
0.11177430	-0.50569451	2.39368343
0.11426678	-0.50038832	2.39367175
0.11580791	-0.49669272	2.39366388
0.11960496	-0.46636620	2.39361429
0.11905814	-0.45928770	2.39360523
0.11840794	-0.45370299	2.39359856
0.11761095	-0.45065102	2.39359570
0.11700549	-0.44887090	2.39359403
0.11634456	-0.44713429	2.39359283
0.11609580	-0.44623947	2.39359188
0.11565720	-0.44538036	2.39359140
0.11535310	-0.44452927	2.39359093
0.11491778	-0.44384742	2.39359069
0.11474308	-0.44316024	2.39358997
0.11376821	-0.44113946	2.39358878
0.11336123	-0.44014168	2.39358807
0.11272216	-0.43883336	2.39358735
0.11236533	-0.43794787	2.39358664
0.11182909	-0.43678617	2.39358592
0.11084436	-0.43533257	2.39358544
0.11029159	-0.43358672	2.39358401
0.10982473	-0.43304372	2.39358401
0.10972635	-0.43248579	2.39358354
0.10896740	-0.43208712	2.39358425
0.10847145	-0.43160486	2.39358425
0.10801168	-0.43057263	2.39358377
0.10661314	-0.43050602	2.39358592
0.10614088	-0.43011889	2.39358616
0.10583494	-0.42960107	2.39358592
0.10531787	-0.42894569	2.39358592
0.10488004	-0.42834198	2.39358592
0.10420745	-0.42830235	2.39358687
0.10389598	-0.42714339	2.39358592
0.10331954	-0.42609918	2.39358544
0.10237788	-0.42524704	2.39358592
0.10215295	-0.42444748	2.39358497
0.10176771	-0.42387792	2.39358497
0.10109237	-0.42311943	2.39358497
0.10082331	-0.42230695	2.39358425
0.10032869	-0.42123628	2.39358354
0.09915681	-0.42083931	2.39358521
0.09882120	-0.42012700	2.39358473
0.09807729	-0.41980186	2.39358544
0.09789253	-0.41888487	2.39358449
0.09726995	-0.41816080	2.39358449
0.09666403	-0.41802108	2.39358544
0.09622795	-0.41708401	2.39358473
0.09564843	-0.41696149	2.39358568
0.09525405	-0.41611546	2.39358521
0.09467171	-0.41607070	2.39358616
0.09390070	-0.41467652	2.39358544
0.09248560	-0.41402569	2.39358687
0.09208260	-0.41346040	2.39358687
0.09169226	-0.41304690	2.39358687
0.09134793	-0.41231307	2.39358640
0.09096468	-0.41141045	2.39358592
0.09041131	-0.41050819	2.39358544
0.08929294	-0.41009867	2.39358687
0.08899815	-0.40952417	2.39358640
0.08825632	-0.40886608	2.39358687
0.08735280	-0.40822968	2.39358759
0.08674549	-0.40757942	2.39358759
0.08639252	-0.40712631	2.39358759
0.08599556	-0.40635824	2.39358711
0.08515878	-0.40641844	2.39358878
0.08465872	-0.40470690	2.39358711
0.08348295	-0.40387744	2.39358807
0.08338726	-0.40324166	2.39358735
0.08272859	-0.40306753	2.39358807
0.08221067	-0.40215683	2.39358783
0.08167779	-0.40117246	2.39358735
0.08099993	-0.40049219	2.39358735
0.08060278	-0.39892727	2.39358592
0.07959175	-0.39745644	2.39358568
0.07926916	-0.39635429	2.39358449
0.07906266	-0.39580563	2.39358425
0.07870390	-0.39525330	2.39358401
0.07790921	-0.39376408	2.39358330
0.07755231	-0.39287853	2.39358258
0.07697997	-0.39226687	2.39358282
0.07635744	-0.39154291	2.39358282
0.07531346	-0.39079919	2.39358354
0.07469545	-0.38966399	2.39358306
0.07393382	-0.38934323	2.39358377
0.07325332	-0.38874084	2.39358401
0.07252067	-0.38835919	2.39358473
0.07236948	-0.38776690	2.39358425
0.07176616	-0.38754922	2.39358497
0.07153866	-0.38682765	2.39358425
0.07052902	-0.38666397	2.39358592
0.07039635	-0.38552609	2.39358449
0.06978436	-0.38528699	2.39358521
0.06910646	-0.38460654	2.39358544
0.06855366	-0.38286066	2.39358377
0.06790927	-0.38170826	2.39358330
0.06746883	-0.38118249	2.39358330
0.06722456	-0.37987641	2.39358187
0.06558073	-0.37988922	2.39358473
0.06536368	-0.37885565	2.39358377
0.06489682	-0.37831277	2.39358377
0.06375863	-0.37824053	2.39358544
0.06359173	-0.37731937	2.39358449
0.06307669	-0.37633088	2.39358401
0.06275067	-0.37505129	2.39358282
0.06190267	-0.37516803	2.39358449
0.06108383	-0.37522417	2.39358592
0.06048432	-0.37513673	2.39358687
0.06027388	-0.37445778	2.39358616
0.05989605	-0.37339932	2.39358521
0.05929521	-0.37310356	2.39358592
0.05887885	-0.37103230	2.39358377
0.05761024	-0.37108269	2.39358592
0.05697306	-0.36944112	2.39358473
0.05602942	-0.36892211	2.39358568
0.05545701	-0.36831045	2.39358568
0.05468398	-0.36724937	2.39358544
0.05407014	-0.36734354	2.39358664
0.05357748	-0.36703855	2.39358711
0.05305981	-0.36612800	2.39358687
0.05250853	-0.36568940	2.39358711
0.05201784	-0.36505121	2.39358711
0.05107220	-0.36486542	2.39358830
0.05047873	-0.36408064	2.39358830
0.05021944	-0.36349759	2.39358783
0.05002346	-0.36263722	2.39358711
0.04936748	-0.36238527	2.39358783
0.04883839	-0.36073446	2.39358640
0.04844382	-0.35909155	2.39358473
0.04769658	-0.35779250	2.39358425
-0.03027179	-0.20367885	2.39349985
-0.03056873	-0.20233855	2.39349866
-0.03057805	-0.20126516	2.39349699
-0.03009160	-0.20067394	2.39349532
-0.03054865	-0.19956389	2.39349461
-0.03006471	-0.19905075	2.39349294
-0.03016977	-0.19734156	2.39349079
-0.03052399	-0.19637808	2.39349008
-0.02997282	-0.19571772	2.39348817
-0.02960839	-0.19447359	2.39348578
-0.02973305	-0.19389865	2.39348531
-0.03271238	-0.18733850	2.39348102
-0.03414163	-0.18412980	2.39347887
-0.03557354	-0.18099898	2.39347696
-0.03613163	-0.17940894	2.39347577
-0.03535039	-0.17859553	2.39347315
-0.03488753	-0.17790934	2.39347148
-0.03646789	-0.17410836	2.39346886
-0.03929552	-0.16759899	2.39346433
-0.03985353	-0.16600904	2.39346313
-0.03965378	-0.16540629	2.39346194
-0.03929065	-0.16444837	2.39346004
-0.03992130	-0.16206250	2.39345765
-0.03977499	-0.16147229	2.39345646
-0.03959966	-0.16051918	2.39345503
-0.03974819	-0.15954679	2.39345384
-0.04058592	-0.15745604	2.39345217
-0.03986454	-0.15709750	2.39345050
-0.03933194	-0.15618603	2.39344835
-0.03991032	-0.15467827	2.39344716
-0.04008777	-0.15406895	2.39344668
-0.03991780	-0.15327166	2.39344525
-0.04001082	-0.15255795	2.39344430
-0.03946292	-0.15202256	2.39344263
-0.03962338	-0.15035696	2.39344049
-0.03974806	-0.14978196	2.39344001
-0.03994671	-0.14899945	2.39343929
-0.03961566	-0.14822742	2.39343762
-0.03969443	-0.14653532	2.39343524
-0.03976367	-0.14591679	2.39343452
-0.03975385	-0.14534968	2.39343381
-0.03950135	-0.14478131	2.39343262
-0.03982204	-0.14334589	2.39343095
-0.03981027	-0.14244555	2.39342976
-0.03989886	-0.14132056	2.39342833
-0.03985199	-0.14045891	2.39342690
-0.03984223	-0.13989182	2.39342618
-0.04009362	-0.13907495	2.39342546
-0.03979436	-0.13844153	2.39342403
-0.03967176	-0.13745409	2.39342237
-0.03978397	-0.13623407	2.39342093
-0.03980058	-0.13564976	2.39342022
-0.04004738	-0.13442174	2.39341879
-0.03992939	-0.13384542	2.39341784
-0.03994724	-0.13305293	2.39341664
-0.03987879	-0.13231732	2.39341545
-0.03979377	-0.13167143	2.39341450
-0.03912522	-0.13127844	2.39341283
-0.03889003	-0.12987047	2.39341044
-0.03884920	-0.12890944	2.39340901
-0.03886123	-0.12791401	2.39340758
-0.03836486	-0.12675577	2.39340520
-0.03808667	-0.12594926	2.39340353
-0.03806975	-0.12489300	2.39340186
-0.03754954	-0.12382998	2.39339948
-0.03717777	-0.12209684	2.39339638
-0.03652912	-0.12094228	2.39339375
-0.03723232	-0.11885940	2.39339209
-0.03664021	-0.11833703	2.39339018
-0.03643401	-0.11698990	2.39338803
-0.03549318	-0.11569109	2.39338446
-0.03575999	-0.11290474	2.39338112
-0.03498083	-0.11052891	2.39337635
-0.03485112	-0.10905226	2.39337397
-0.03512168	-0.10772911	2.39337254
-0.03396656	-0.10674500	2.39336920
-0.03417443	-0.10488921	2.39336705
-0.03404473	-0.10341258	2.39336467
-0.03418602	-0.10225324	2.39336324
-0.03441355	-0.10153164	2.39336276
-0.03384785	-0.10099204	2.39336085
-0.03391723	-0.10037337	2.39336014
-0.03406568	-0.09970322	2.39335942
-0.03368188	-0.09896554	2.39335775
-0.03403422	-0.09766884	2.39335656
-0.03357139	-0.09698260	2.39335489
-0.03222518	-0.09537426	2.39335012
-0.03281996	-0.08974600	2.39334321
-0.03264461	-0.08879289	2.39334154
-0.03275697	-0.08757277	2.39334011
-0.03290798	-0.08698066	2.39333940
-0.03253366	-0.08516946	2.39333630
-0.03241123	-0.08418187	2.39333463
-0.03253323	-0.08352898	2.39333391
-0.03224793	-0.08223328	2.39333177
-0.03249206	-0.08092737	2.39333034
-0.03138959	-0.07990903	2.39332700
-0.03115654	-0.07693852	2.39332223
-0.03120887	-0.07526369	2.39332008
-0.03128748	-0.07357174	2.39331770
-0.03129685	-0.07249835	2.39331627
-0.03066404	-0.07101481	2.39331317
-0.03038765	-0.06700528	2.39330697
-0.03052628	-0.06576803	2.39330554
-0.03056151	-0.06303705	2.39330173
-0.03004147	-0.06197388	2.39329934
-0.02986878	-0.06109869	2.39329767
-0.03018218	-0.05917424	2.39329553
-0.03041045	-0.05819730	2.39329457
-0.02943660	-0.05727036	2.39329147
-0.02916442	-0.05636446	2.39328980
-0.02935252	-0.05527018	2.39328861
-0.02836609	-0.05449492	2.39328575
-0.02884120	-0.05149329	2.39328241
-0.02855591	-0.05019760	2.39328003
-0.02867793	-0.04954469	2.39327931
-0.02884567	-0.04836814	2.39327788
-0.02830364	-0.04773350	2.39327621
-0.02822934	-0.04630043	2.39327407
-0.02786487	-0.04505630	2.39327168
-0.02808255	-0.04376762	2.39327025
-0.02835046	-0.04236655	2.39326859
-0.02856828	-0.04107773	2.39326715
-0.02930783	-0.03764914	2.39326358
-0.02938847	-0.03629032	2.39326191
-0.02946976	-0.03467630	2.39325976
-0.02932085	-0.03370595	2.39325809
-0.02925783	-0.03153273	2.39325500
-0.02943218	-0.02920498	2.39325190
-0.02906770	-0.02796090	2.39324951
-0.02896440	-0.02646701	2.39324713
-0.02910306	-0.02522977	2.39324570
-0.02894689	-0.02377035	2.39324331
-0.02926750	-0.02233496	2.39324188
-0.02970986	-0.01860602	2.39323735
-0.02986500	-0.01678461	2.39323497
-0.03017840	-0.01486015	2.39323282
-0.03016096	-0.01216340	2.39322901
-0.03021327	-0.01048854	2.39322686
-0.03011714	-0.00948386	2.39322519
-0.03024137	-0.00726840	2.39322233
-0.03038713	-0.00652035	2.39322138
-0.03031699	-0.00385794	2.39321756
-0.03047480	-0.00211439	2.39321542
-0.03005758	-0.00090463	2.39321303
-0.03024894	0.00036696	2.39321160
-0.03029178	0.00096825	2.39321065
-0.03045949	0.00214481	2.39320946
-0.03048272	0.00388028	2.39320683
-0.03028640	0.00466049	2.39320540
-0.03051805	0.00661141	2.39320302
-0.03049114	0.00823465	2.39320087
-0.03050315	0.00923012	2.39319944
-0.03050530	0.01079258	2.39319730
-0.03074421	0.01225442	2.39319563
-0.03036578	0.01283632	2.39319396
-0.03027643	0.01499243	2.39319086
-0.03022912	0.01669782	2.39318848
-0.02976827	0.01705091	2.39318705
-0.02956668	0.01798694	2.39318538
-0.02944216	0.01930764	2.39318323
-0.02795723	0.01967862	2.39318037
-0.02934368	0.02851462	2.39317012
-0.04738277	0.11994331	2.39307189
-0.04692519	0.12047360	2.39307022
-0.04619479	0.12165458	2.39306736
-0.04583487	0.12248755	2.39306569
-0.04517415	0.12264658	2.39306426
-0.04502526	0.12361693	2.39306259
-0.04400197	0.12468682	2.39305925
-0.04413801	0.12600209	2.39305782
-0.04366079	0.12766659	2.39305449
-0.04356465	0.12867129	2.39305305
-0.04284859	0.12887399	2.39305139
-0.04286468	0.13109867	2.39304829
-0.04962772	0.17120165	2.39300323
-0.05004299	0.17465813	2.39299917
-0.04928869	0.17574379	2.39299631
-0.04918730	0.17690445	2.39299440
-0.04929712	0.18009818	2.39299011
-0.04937777	0.18145697	2.39298820
-0.04818302	0.18201697	2.39298558
-0.04788977	0.18354638	2.39298272
-0.04772601	0.18713544	2.39297748
-0.04689273	0.18816981	2.39297462
-0.04831079	0.19686706	2.39296460
-0.04841325	0.19865416	2.39296246
-0.04811391	0.19928764	2.39296103
-0.04851860	0.20225915	2.39295745
-0.04844877	0.20328099	2.39295578
-0.04830509	0.20409533	2.39295459
-0.04818264	0.20508294	2.39295292
-0.04787087	0.20636141	2.39295053
-0.04777208	0.20744401	2.39294887
-0.04780778	0.20853452	2.39294744
-0.04768533	0.20952208	2.39294577
-0.04749557	0.21145344	2.39294267
-0.04763424	0.21269068	2.39294124
-0.04750133	0.21508896	2.39293766
-0.04722321	0.21589547	2.39293599
-0.04829246	0.22427022	2.39292598
-0.04863185	0.22785239	2.39292145
-0.04898292	0.23053429	2.39291835
-0.04919806	0.23190096	2.39291668
-0.04912111	0.23341195	2.39291453
-0.04928562	0.23630677	2.39291072
-0.04908666	0.23716484	2.39290905
-0.04938495	0.23981242	2.39290595
-0.04951039	0.24064271	2.39290476
-0.04936081	0.24135768	2.39290357
-0.04943678	0.24233097	2.39290237
-0.04941261	0.24467301	2.39289904
-0.04959419	0.24651170	2.39289665
-0.04950058	0.24743839	2.39289522
-0.04994485	0.25083402	2.39289117
-0.04946026	0.25139412	2.39288950
-0.04938027	0.25462362	2.39288497
-0.04918113	0.25548163	2.39288330
-0.04782030	0.25617236	2.39287996
-0.04836351	0.26038110	2.39287496
-0.04836041	0.26209950	2.39287257
-0.04696137	0.26367342	2.39286804
-0.04669735	0.26703784	2.39286280
-0.04697850	0.27397570	2.39285350
-0.04659170	0.27643189	2.39284921
-0.04601166	0.27794975	2.39284611
-0.04577973	0.27953497	2.39284348
-0.04575220	0.28090304	2.39284158
-0.04495770	0.28130937	2.39283967
-0.04451668	0.28242397	2.39283729
-0.04476032	0.28537038	2.39283347
-0.04506138	0.28794000	2.39283037
-0.04457742	0.28845319	2.39282894
-0.04593027	0.29776105	2.39281797
-0.04594693	0.29834545	2.39281726
-0.04533696	0.29887208	2.39281535
-0.04473656	0.30126882	2.39281106
-0.04479158	0.30286568	2.39280891
-0.04391456	0.30304334	2.39280701
-0.04424715	0.30547410	2.39280415
-0.04331744	0.30561733	2.39280248
-0.04217210	0.30603430	2.39279985
-0.04198194	0.30960619	2.39279461
-0.04262280	0.31411749	2.39278913
-0.04231900	0.31516212	2.39278722
-0.04234689	0.31648660	2.39278531
-0.04271522	0.32000795	2.39278102
-0.04283157	0.32245731	2.39277768
-0.04285553	0.32444814	2.39277506
-0.04289323	0.32520550	2.39277411
-0.04255521	0.32646686	2.39277172
-0.04258326	0.32968703	2.39276719
-0.04283679	0.33206633	2.39276433
-0.04260871	0.33298510	2.39276242
-0.04233572	0.33363566	2.39276123
-0.04226601	0.33465758	2.39275956
-0.04167393	0.33517995	2.39275789
-0.04158035	0.33610666	2.39275646
-0.04172170	0.33726597	2.39275503
-0.04138806	0.33811602	2.39275312
-0.04108837	0.34038994	2.39274955
-0.04091215	0.34462401	2.39274311
-0.04076549	0.34715697	2.39273930
-0.04024798	0.34814209	2.39273715
-0.04011101	0.35010785	2.39273405
-0.03932258	0.35141033	2.39273095
-0.03935468	0.35585976	2.39272451
-0.03944328	0.35698467	2.39272308
-0.03917703	0.35878658	2.39272022
-0.03931564	0.36002383	2.39271855
-0.03920969	0.36159557	2.39271617
-0.03911626	0.36252236	2.39271474
-0.03913274	0.36310661	2.39271402
-0.03892398	0.36453176	2.39271164
-0.03867081	0.36594382	2.39270926
-0.03844082	0.36719581	2.39270711
-0.03810549	0.36837929	2.39270473
-0.03801382	0.36897266	2.39270377
-0.03758264	0.36952019	2.39270234
-0.03743374	0.37049049	2.39270067
-0.03702897	0.37105533	2.39269924
-0.03714719	0.37237465	2.39269757
-0.03655174	0.37271976	2.39269590
-0.03604147	0.37321585	2.39269447
-0.03585905	0.37465811	2.39269209
-0.03578204	0.37616912	2.39268970
-0.03572160	0.37826428	2.39268661
-0.03567901	0.38035542	2.39268374
-0.03566608	0.38184416	2.39268160
-0.03555867	0.38290539	2.39267993
-0.03527328	0.38420099	2.39267755
-0.03505450	0.38539642	2.39267540
-0.03492481	0.38687301	2.39267325
-0.03464329	0.38750231	2.39267182
-0.03412971	0.38782105	2.39267039
-0.03380013	0.38910365	2.39266801
-0.03359517	0.38986230	2.39266658
-0.03357819	0.39091861	2.39266515
-0.03305006	0.39141878	2.39266348
-0.03287742	0.39229396	2.39266205
-0.03281567	0.39387873	2.39265966
-0.03219983	0.39430600	2.39265800
-0.03240201	0.39716151	2.39265442
-0.03194970	0.39833272	2.39265180
-0.03184631	0.39982641	2.39264965
-0.03185567	0.40089986	2.39264798
-0.03194425	0.40202481	2.39264655
-0.03176895	0.40297791	2.39264512
-0.03140712	0.40414408	2.39264274
-0.03117442	0.40547407	2.39264035
-0.03072214	0.40584853	2.39263916
-0.03076658	0.40775716	2.39263654
-0.03069496	0.40911236	2.39263439
-0.02989435	0.40941933	2.39263272
-0.02988005	0.41039753	2.39263129
-0.02960187	0.41120404	2.39262962
-0.02944577	0.41186684	2.39262843
-0.02908388	0.41303292	2.39262629
-0.02820691	0.41321051	2.39262438
-0.02811345	0.41413733	2.39262295
-0.02738488	0.41498509	2.39262056
-0.02726230	0.41597250	2.39261889
-0.02696711	0.41783518	2.39261580
-0.02708194	0.41897732	2.39261436
-0.02709857	0.41956156	2.39261365
-0.02699262	0.42113340	2.39261127
-0.02676123	0.42187488	2.39260983
-0.02673373	0.42324287	2.39260769
-0.02631980	0.42462987	2.39260507
-0.02608714	0.42595989	2.39260268
-0.02613011	0.42656130	2.39260197
-0.02574578	0.42704397	2.39260077
-0.02527368	0.42855251	2.39259768
-0.02479663	0.43021703	2.39259458
-0.02477506	0.43168449	2.39259243
-0.02451345	0.43307516	2.39259005
-0.02443382	0.43466407	2.39258766
-0.02433771	0.43566877	2.39258599
-0.02396187	0.43617272	2.39258480
-0.02375755	0.43718672	2.39258289
-0.02374589	0.43808699	2.39258170
-0.02373606	0.43865407	2.39258075
-0.02356339	0.43952930	2.39257932
-0.02357799	0.44044673	2.39257812
-0.02309668	0.44088200	2.39257669
-0.02289760	0.44173998	2.39257503
-0.02272245	0.44269320	2.39257336
-0.02235794	0.44393730	2.39257097
-0.02217805	0.44530156	2.39256883
-0.02147973	0.44550014	2.39256740
-0.02115139	0.44619420	2.39256573
-0.02090493	0.44686204	2.39256430
-0.02041575	0.44753113	2.39256263
-0.02050689	0.44857797	2.39256120
-0.01914594	0.44926888	2.39255786
-0.01916263	0.44985312	2.39255714
-0.01848671	0.45073512	2.39255476
-0.01807213	0.45186698	2.39255238
-0.01712805	0.45298845	2.39254928
-0.01652879	0.45400006	2.39254689
-0.01663908	0.45555323	2.39254475
-0.01591775	0.45591179	2.39254308
-0.01529211	0.45690629	2.39254045
-0.01482469	0.45800370	2.39253831
-0.01455188	0.45865434	2.39253688
-0.01432902	0.45941722	2.39253545
-0.01386884	0.46002555	2.39253378
-0.01360720	0.46141618	2.39253139
-0.01356918	0.46229941	2.39252996
-0.01246667	0.46331781	2.39252663
-0.01218855	0.46412426	2.39252496
-0.01162100	0.46499705	2.39252281
-0.01131901	0.46570849	2.39252138
-0.01062629	0.46764690	2.39251733
-0.01029795	0.46834099	2.39251590
-0.00992221	0.46884495	2.39251447
-0.00943556	0.46943605	2.39251280
-0.00887260	0.46989775	2.39251113
-0.00844809	0.47159657	2.39250803
-0.00804335	0.47216129	2.39250660
-0.00773415	0.47336179	2.39250445
-0.00738880	0.47511220	2.39250135
-0.00690237	0.47570336	2.39249969
-0.00696185	0.47688898	2.39249802
-0.00677061	0.47751310	2.39249682
-0.00680831	0.47827047	2.39249587
-0.00629079	0.47925562	2.39249349
-0.00608733	0.48052484	2.39249134
-0.00585333	0.48134437	2.39248991
-0.00563574	0.48195124	2.39248872
-0.00528374	0.48255032	2.39248705
-0.00494492	0.48355633	2.39248514
-0.00476509	0.48492074	2.39248300
-0.00444198	0.48545891	2.39248157
-0.00373465	0.48647988	2.39247894
-0.00316441	0.48743063	2.39247656
-0.00320271	0.48844320	2.39247537
-0.00266081	0.48907802	2.39247346
-0.00211883	0.48971266	2.39247155
-0.00160858	0.49020872	2.39247012
-0.00169256	0.49174482	2.39246798
-0.00076273	0.49188793	2.39246631
-0.00010353	0.49335438	2.39246297
0.00030389	0.49399707	2.39246130
0.00103697	0.49525595	2.39245844
0.00113353	0.49790105	2.39245439
0.00199178	0.50022548	2.39244962
0.00161001	0.50604945	2.39244223
0.00158134	0.50762928	2.39243984
0.00159132	0.50819623	2.39243913
0.00209489	0.50984365	2.39243603
0.00265789	0.51030529	2.39243436
0.00312531	0.51140273	2.39243197
0.00388455	0.53053379	2.39240360
0.00376284	0.53282714	2.39240050
0.00219542	0.53891367	2.39239478
0.00144139	0.54136413	2.39239240
-0.00170645	0.55125153	2.39238381
-0.00600776	0.56318063	2.39237452
-0.02451700	0.58482450	2.39237547
-0.03109059	0.59023649	2.39237928
-0.03860882	0.59478229	2.39238572
-0.05635318	0.59639823	2.39241385
-0.06721848	0.59398007	2.39243579
-0.13012961	0.56608689	2.39258313
-0.13101912	0.56526428	2.39258575
-0.13294035	0.56418967	2.39259052
-0.13469899	0.56342340	2.39259458
-0.13603345	0.56271541	2.39259791
-0.13713318	0.56177497	2.39260101
-0.13833055	0.56113702	2.39260411
-0.13923848	0.56056547	2.39260650
-0.14537507	0.55775982	2.39262080
-0.14919072	0.55533844	2.39263082
-0.15148592	0.55409324	2.39263654
-0.15252563	0.55360758	2.39263916
-0.15319169	0.55329263	2.39264059
-0.15426499	0.55233490	2.39264393
-0.15485445	0.55189049	2.39264536
-0.15541765	0.55142879	2.39264703
-0.15619352	0.55077124	2.39264941
-0.15739885	0.54989958	2.39265275
-0.15812212	0.54920775	2.39265490
-0.15953580	0.54855132	2.39265823
-0.16740376	0.54470688	2.39267707
-0.32041621	0.46595860	2.39305067
-0.32222477	0.46530443	2.39305472
-0.32321191	0.46558112	2.39305592
-0.32393053	0.46530050	2.39305758
-0.32589489	0.46482748	2.39306164
-0.33154044	0.46252966	2.39307451
-0.33454567	0.46117479	2.39308167
-0.33594683	0.46116334	2.39308405
-0.33757082	0.46038911	2.39308786
-0.33820856	0.46039021	2.39308906
-0.33996439	0.45970184	2.39309287
-0.34572455	0.45744693	2.39310598
-0.34785172	0.45666587	2.39311075
-0.34889147	0.45618016	2.39311337
-0.34963658	0.45591673	2.39311481
-0.35104501	0.45541626	2.39311814
-0.35192460	0.45516062	2.39311981
-0.35266447	0.45505315	2.39312124
-0.35346490	0.45474607	2.39312315
-0.35407281	0.45455259	2.39312434
-0.35593426	0.45393291	2.39312840
-0.35668194	0.45359147	2.39313030
-0.35809034	0.45309097	2.39313340
-0.37526911	0.44517943	2.39317393
-0.37601680	0.44483805	2.39317584
-0.37667292	0.44509012	2.39317656
-0.37762910	0.44496417	2.39317846
-0.37875935	0.44527006	2.39317989
-0.37949464	0.44557369	2.39318061
-0.38093466	0.44493446	2.39318419
-0.38196462	0.44501591	2.39318562
-0.38296819	0.44508001	2.39318728
-0.38448736	0.44449228	2.39319086
-0.38542849	0.44508928	2.39319158
-0.38608715	0.44526339	2.39319253
-0.38794863	0.44464383	2.39319658
-0.38961810	0.44439286	2.39319968
-0.39166874	0.44348228	2.39320445
-0.39345366	0.44273317	2.39320874
-0.39523578	0.44206184	2.39321256
-0.39925662	0.44058523	2.39322162
-0.40103179	0.44040316	2.39322495
-0.40276131	0.43969762	2.39322877
-0.40430152	0.43928295	2.39323211
-0.40492600	0.43967378	2.39323258
-0.40564471	0.43939307	2.39323425
-0.40702486	0.43920878	2.39323688
-0.40776724	0.43902314	2.39323831
-0.40845239	0.43921447	2.39323926
-0.40930039	0.43909758	2.39324093
-0.41047204	0.43869787	2.39324355
-0.41168866	0.43856627	2.39324570
-0.41267380	0.43837947	2.39324784
-0.41325271	0.43824673	2.39324880
-0.41369849	0.43861669	2.39324903
-0.41468358	0.43842989	2.39325118
-0.41537595	0.43813214	2.39325261
-0.41641045	0.43780220	2.39325500
-0.41712660	0.43759960	2.39325643
-0.41784078	0.43773010	2.39325762
-0.41887331	0.43773359	2.39325929
-0.42136705	0.43727082	2.39326429
-0.42229152	0.43728346	2.39326572
-0.42314219	0.43708873	2.39326739
-0.42502993	0.43648624	2.39327168
-0.42619634	0.43624231	2.39327383
-0.42789480	0.43593064	2.39327717
-0.42861357	0.43564996	2.39327884
-0.43052506	0.43514267	2.39328289
-0.43169412	0.43482077	2.39328527
-0.43435335	0.43397197	2.39329100
-0.43612850	0.43378991	2.39329433
-0.43782443	0.43355629	2.39329767
-0.43919927	0.43352780	2.39330006
-0.43991530	0.43332511	2.39330149
-0.44179595	0.43321174	2.39330482
-0.44256735	0.43296543	2.39330649
-0.44319981	0.43312240	2.39330745
-0.44532415	0.43241918	2.39331222
-0.44680265	0.43279248	2.39331412
-0.44820571	0.43244791	2.39331698
-0.44945651	0.43209964	2.39331961
-0.45027357	0.43237677	2.39332056
-0.45200312	0.43167123	2.39332461
-0.45321774	0.43187293	2.39332652
-0.45475802	0.43145818	2.39332962
-0.45687789	0.43116617	2.39333367
-0.45822898	0.43104243	2.39333606
-0.46029481	0.43020564	2.39334083
-0.46156931	0.42995250	2.39334345
-0.46216023	0.43001851	2.39334440
-0.46393517	0.42983633	2.39334774
-0.46646261	0.42890179	2.39335322
-0.46763167	0.42857987	2.39335585
-0.46962225	0.42812398	2.39335990
-0.47108346	0.42765784	2.39336300
-0.47272658	0.42738986	2.39336610
-0.47429326	0.42699248	2.39336944
-0.47588894	0.42653424	2.39337277
-0.47953001	0.42532125	2.39338064
-0.48058900	0.42534184	2.39338255
-0.48202637	0.42478061	2.39338589
-0.48396689	0.42421246	2.39338994
-0.48683184	0.42365694	2.39339566
-0.48882252	0.42320102	2.39339972
-0.49041560	0.42282084	2.39340305
-0.49118704	0.42257452	2.39340472
-0.49251109	0.42217842	2.39340734
-0.49357003	0.42219904	2.39340925
-0.49426043	0.42223436	2.39341044
-0.49505037	0.42223909	2.39341164
-0.49616480	0.42221615	2.39341354
-0.49693358	0.42204779	2.39341521
-0.49788707	0.42199969	2.39341688
-0.49870878	0.42186576	2.39341855
-0.49995428	0.42167339	2.39342093
-0.50117612	0.42138582	2.39342332
-0.50186574	0.42116600	2.39342499
-0.50308228	0.42103428	2.39342713
-0.50387752	0.42088312	2.39342880
-0.50455546	0.42156366	2.39342904
-0.50699842	0.42073324	2.39343429
-0.50749707	0.42113769	2.39343452
-0.50818676	0.42091784	2.39343619
-0.50935113	0.42100704	2.39343786
-0.51104712	0.42077348	2.39344120
-0.51205069	0.42083764	2.39344287
-0.51428139	0.42045847	2.39344716
-0.51710081	0.41937941	2.39345360
-0.51933068	0.41874486	2.39345837
-0.52082103	0.41821814	2.39346147
-0.52140325	0.41826266	2.39346242
-0.52735859	0.41631085	2.39347553
-0.53214765	0.41460302	2.39348602
-0.53768164	0.41263160	2.39349842
-0.53847677	0.41248032	2.39349985
-0.54042459	0.41221982	2.39350367
-0.54156995	0.41180280	2.39350629
-0.54309511	0.41131443	2.39350939
-0.54383755	0.41112897	2.39351106
-0.54441714	0.41125154	2.39351177
-0.54507780	0.41109255	2.39351320
-0.54605180	0.41096228	2.39351511
-0.54759204	0.41054761	2.39351821
-0.54870570	0.41026932	2.39352059
-0.54963541	0.41012612	2.39352226
-0.55034888	0.41000131	2.39352369
-0.55167878	0.40970463	2.39352655
-0.55379611	0.40949064	2.39353037
-0.55531257	0.40898076	2.39353371
-0.55717409	0.40836111	2.39353776
-0.55906183	0.40775856	2.39354181
-0.56118363	0.40713328	2.39354634
-0.56224716	0.40674269	2.39354873
-0.56321979	0.40640420	2.39355087
-0.56386274	0.40624937	2.39355230
-0.56622648	0.40536755	2.39355755
-0.56712270	0.40569621	2.39355850
-0.56778407	0.40579242	2.39355969
-0.56889772	0.40551427	2.39356184
-0.57083297	0.40510190	2.39356589
-0.57205480	0.40481436	2.39356828
-0.57449311	0.40439522	2.39357305
-0.57544661	0.40434712	2.39357471
-0.57621282	0.40425679	2.39357615
-0.57810068	0.40365425	2.39358020
-0.57942796	0.40343547	2.39358282
-0.58024693	0.40337947	2.39358425
-0.58149505	0.40310907	2.39358687
-0.58303809	0.40261659	2.39359021
-0.58529973	0.40184334	2.39359522
-0.58593392	0.40166706	2.39359665
-0.58829850	0.40104043	2.39360142
-0.58912265	0.40082845	2.39360309
-0.59017909	0.40092707	2.39360476
-0.59092152	0.40074164	2.39360642
-0.59179580	0.40064189	2.39360809
-0.59264642	0.40044716	2.39360976
-0.59383929	0.40022045	2.39361215
-0.59553522	0.39998689	2.39361525
-0.59739661	0.39936706	2.39361954
-0.59861583	0.39915764	2.39362192
-0.60236824	0.39811265	2.39362979
-0.60391122	0.39762011	2.39363313
-0.60571986	0.39696610	2.39363718
-0.61053252	0.39535329	2.39364767
-0.61190999	0.39524680	2.39365005
-0.61548704	0.39405596	2.39365792
-0.61781251	0.39326054	2.39366293
-0.61840218	0.39361292	2.39366364
-0.61996889	0.39321545	2.39366674
-0.62071383	0.39295194	2.39366841
-0.62237352	0.39247140	2.39367199
-0.62298214	0.39253327	2.39367294
-0.62467808	0.39229962	2.39367628
-0.62754303	0.39174414	2.39368176
-0.62836474	0.39161026	2.39368343
-0.63003683	0.39128149	2.39368677
-0.63372612	0.39051414	2.39369416
-0.63739610	0.38924038	2.39370227
-0.65061498	0.38461146	2.39373159
-0.65376616	0.38381255	2.39373803
-0.65836328	0.38247341	2.39374781
-0.68294835	0.37385690	2.39380217
-0.68845332	0.37194636	2.39381433
-0.73556608	0.35337380	2.39392114
-0.74113107	0.35100847	2.39393401
-0.76070541	0.34237850	2.39397979
-0.79485661	0.32581466	2.39406180
-0.83091688	0.30528507	2.39415264
-0.83430922	0.30317733	2.39416146
-0.85247457	0.29045987	2.39421058
-0.88610560	0.26329845	2.39430642
-0.89122790	0.25884470	2.39432168
-0.89335090	0.25683433	2.39432812
-0.89461339	0.25558564	2.39433193
-0.89689922	0.25326699	2.39433908
-0.91031688	0.23965579	2.39438152
-0.91201323	0.23778175	2.39438701
-0.91438544	0.23502558	2.39439487
-0.91734898	0.23118958	2.39440536
-0.97478592	0.15523891	2.39461112
-0.98715532	0.13775900	2.39465714
-0.98908424	0.13455486	2.39466500
-0.99107587	0.13081817	2.39467359
-0.99536085	0.12263313	2.39469266
-1.00483680	0.10412914	2.39473486
-1.00949204	0.08936745	2.39476371
-1.01031661	0.08561933	2.39477062
-1.01467514	0.06328881	2.39480948
-1.01591992	0.05661243	2.39482117
-1.01723182	0.04899225	2.39483404
-1.01926196	0.03296697	2.39486027
-1.02070010	0.02100033	2.39487958
-1.02109444	0.01641443	2.39488673
-1.02221656	-0.00716361	2.39492202
-1.01973903	-0.05519632	2.39498568
-1.01741874	-0.07055035	2.39500332
-1.00927603	-0.11290602	2.39504933
-1.00878584	-0.11518456	2.39505172
-0.99025649	-0.17690483	2.39510727
-0.96769989	-0.24172594	2.39516020
-0.94160628	-0.28001752	2.39516950
-0.93841898	-0.28410044	2.39516997
-0.92253560	-0.30422541	2.39517117
-0.90434515	-0.32410067	2.39516807
-0.84160835	-0.37958157	2.39513898
-0.83957505	-0.38136765	2.39513803
-0.83806163	-0.38257638	2.39513707
-0.81617033	-0.39998707	2.39512420
-0.78109550	-0.42493260	2.39509940
-0.77845371	-0.42678034	2.39509749
-0.77101922	-0.43168581	2.39509153
-0.76908165	-0.43283620	2.39508986
-0.76695704	-0.43402863	2.39508796
-0.75764704	-0.43897671	2.39507914
-0.74917662	-0.44246942	2.39506936
-0.73322332	-0.44796914	2.39504981
-0.73019332	-0.44866812	2.39504576
-0.72642553	-0.44959265	2.39504051
-0.72281325	-0.45033616	2.39503551
-0.72028375	-0.45096397	2.39503193
-0.71814978	-0.45133436	2.39502883
-0.71438193	-0.45225883	2.39502358
-0.71337831	-0.45232311	2.39502192
-0.68417943	-0.46034661	2.39498329
-0.68301761	-0.46051377	2.39498162
-0.68196380	-0.46069032	2.39497995
-0.68011940	-0.46112680	2.39497757
-0.67837793	-0.46141678	2.39497495
-0.67740065	-0.46146378	2.39497328
-0.67679214	-0.46152562	2.39497232
-0.66892862	-0.46352428	2.39496160
-0.66299522	-0.46468028	2.39495325
-0.66207337	-0.46477094	2.39495182
-0.66140944	-0.46478909	2.39495063
-0.65759134	-0.46582592	2.39494562
-0.65671432	-0.46564835	2.39494371
-0.65610379	-0.46537709	2.39494228
-0.65546620	-0.46537808	2.39494133
-0.65446520	-0.46552023	2.39493966
-0.65108168	-0.46613064	2.39493489
-0.64891887	-0.46644002	2.39493155
-0.64815009	-0.46627170	2.39492989
-0.63993442	-0.46846807	2.39491892
-0.60246122	-0.47840956	2.39486885
-0.52547646	-0.49953806	2.39476681
-0.37778199	-0.54092616	2.39457226
-0.36748713	-0.54379159	2.39455867
-0.36701763	-0.54425663	2.39455843
-0.36610025	-0.54475850	2.39455748
-0.36497718	-0.54555368	2.39455676
-0.35586399	-0.54858917	2.39454532
-0.35395184	-0.54913366	2.39454293
-0.35270748	-0.54952985	2.39454126
-0.35213232	-0.55006367	2.39454103
-0.34994763	-0.55080146	2.39453840
-0.34868559	-0.55119324	2.39453673
-0.34781575	-0.55150485	2.39453578
-0.28948319	-0.56755817	2.39445853
-0.28782547	-0.56820762	2.39445662
-0.28356686	-0.56977040	2.39445138
-0.28160179	-0.57034945	2.39444900
-0.28028885	-0.57110876	2.39444780
-0.27836794	-0.57167482	2.39444518
-0.27772051	-0.57190549	2.39444447
-0.27730629	-0.57241428	2.39444447
-0.27530628	-0.57303172	2.39444184
-0.27414891	-0.57361019	2.39444065
-0.27291322	-0.57398486	2.39443922
-0.27133715	-0.57466084	2.39443755
-0.17440756	-0.60200834	2.39431000
-0.09082627	-0.62276441	2.39419603
-0.03412340	-0.63645113	2.39411831
0.00709614	-0.63803065	2.39404988
0.01706858	-0.63625759	2.39403033
0.01913837	-0.63585323	2.39402604
0.02112897	-0.63539732	2.39402199
0.02341431	-0.63471925	2.39401722
