//X	Y	Z
-0.14999634	-0.34033012	1.93428600
-0.14724004	-0.33572042	1.93426061
-0.13554159	-0.30582795	1.93411243
-0.13519381	-0.30440435	1.93410587
-0.13502836	-0.30263564	1.93409848
-0.13494265	-0.30177841	1.93409491
-0.13537383	-0.30069131	1.93409181
-0.13482980	-0.29907206	1.93408394
-0.13514602	-0.29698968	1.93407667
-0.13584763	-0.29579598	1.93407381
-0.13632236	-0.29521197	1.93407273
-0.13558991	-0.29213205	1.93405867
-0.13586915	-0.29058468	1.93405330
-0.13521235	-0.28811878	1.93404186
-0.10559557	-0.12298597	1.93331504
-0.10362223	-0.11375553	1.93327355
-0.10245944	-0.10836765	1.93324935
-0.09946735	-0.09225531	1.93317807
-0.09928831	-0.09180568	1.93317592
-0.09900111	-0.09139869	1.93317354
-0.09858394	-0.09039909	1.93316853
-0.09822589	-0.08949980	1.93316400
-0.09780901	-0.08850016	1.93315899
-0.09739688	-0.08762221	1.93315446
-0.09715873	-0.08707225	1.93315172
-0.09685476	-0.08615160	1.93314731
-0.09664868	-0.08571261	1.93314505
-0.09649196	-0.08513063	1.93314230
-0.09602573	-0.08427402	1.93313766
-0.09572324	-0.08426976	1.93313694
-0.09539727	-0.08348139	1.93313289
-0.09494830	-0.08237077	1.93312740
-0.09477405	-0.08204283	1.93312562
-0.09437391	-0.08155683	1.93312263
-0.09383830	-0.08112428	1.93311954
-0.09345023	-0.08103028	1.93311822
-0.09245489	-0.08077903	1.93311465
-0.09222731	-0.07970470	1.93310976
-0.09150095	-0.07843041	1.93310285
-0.09085240	-0.07791886	1.93309915
-0.09014805	-0.07651228	1.93309176
-0.08981878	-0.07651863	1.93309093
-0.08920059	-0.07520168	1.93308413
-0.08887106	-0.07520805	1.93308330
-0.08813993	-0.07381214	1.93307590
-0.08783772	-0.07380781	1.93307507
-0.08733795	-0.07192385	1.93306637
-0.08692728	-0.07196224	1.93306541
-0.08652541	-0.07055996	1.93305886
-0.08617938	-0.07005264	1.93305600
-0.08566431	-0.06857139	1.93304884
-0.08548527	-0.06812175	1.93304658
-0.08514397	-0.06773607	1.93304420
-0.08477095	-0.06723945	1.93304121
-0.08427116	-0.06535548	1.93303251
-0.08343334	-0.06491862	1.93302858
-0.08304971	-0.06494632	1.93302774
-0.08254144	-0.06450300	1.93302464
-0.08238947	-0.06404270	1.93302238
-0.08129150	-0.06318815	1.93301618
-0.08086431	-0.06271283	1.93301320
-0.08053333	-0.06180286	1.93300879
-0.08012267	-0.06184125	1.93300784
-0.07973757	-0.06095263	1.93300331
-0.07892680	-0.06050503	1.93299937
-0.07847260	-0.06004041	1.93299639
-0.07788290	-0.05962914	1.93299329
-0.07732907	-0.05776653	1.93298447
-0.07691868	-0.05780490	1.93298352
-0.07602678	-0.05738929	1.93297958
-0.07521280	-0.05510904	1.93296850
-0.07460155	-0.05406246	1.93296278
-0.07434645	-0.05376647	1.93296087
-0.07408127	-0.05322717	1.93295813
-0.07345454	-0.05335088	1.93295693
-0.07316737	-0.05294393	1.93295455
-0.07282104	-0.05243662	1.93295169
-0.07209641	-0.05207866	1.93294835
-0.07166898	-0.05160344	1.93294537
-0.07125210	-0.05060378	1.93294036
-0.07077562	-0.05027147	1.93293786
-0.07039199	-0.05029921	1.93293691
-0.06991076	-0.04984525	1.93293393
-0.06972697	-0.04927389	1.93293118
-0.06939744	-0.04928030	1.93293035
-0.06921841	-0.04883063	1.93292809
-0.06891949	-0.04803166	1.93292415
-0.06823365	-0.04805505	1.93292248
-0.06760189	-0.04805709	1.93292081
-0.06739584	-0.04761815	1.93291855
-0.06679441	-0.04681487	1.93291378
-0.06598366	-0.04636727	1.93290997
-0.06554593	-0.04641634	1.93290901
-0.06483158	-0.04553404	1.93290365
-0.06410699	-0.04517609	1.93290031
-0.06375040	-0.04519315	1.93289948
-0.06340438	-0.04468586	1.93289649
-0.06297691	-0.04421057	1.93289351
-0.06206302	-0.04392733	1.93289006
-0.06171668	-0.04342003	1.93288720
-0.06156471	-0.04295972	1.93288493
-0.06111531	-0.04261675	1.93288243
-0.06075899	-0.04263377	1.93288159
-0.05980825	-0.04211782	1.93287706
-0.05819143	-0.04134436	1.93286979
-0.05739422	-0.03957775	1.93286073
-0.05709200	-0.03957345	1.93285990
-0.05678952	-0.03956915	1.93285906
-0.05589612	-0.03823723	1.93285155
-0.05548547	-0.03827563	1.93285060
-0.05469178	-0.03834166	1.93284881
-0.05387925	-0.03697778	1.93284130
-0.05349590	-0.03700547	1.93284035
-0.05311081	-0.03611681	1.93283582
-0.05275424	-0.03613387	1.93283498
-0.05186230	-0.03571829	1.93283105
-0.05095218	-0.03387274	1.93282139
-0.05059560	-0.03388979	1.93282056
-0.04983743	-0.03250451	1.93281305
-0.04932916	-0.03206119	1.93280995
-0.04888996	-0.03119390	1.93280542
-0.04850636	-0.03122160	1.93280458
-0.04809421	-0.03034365	1.93280005
-0.04772113	-0.02984703	1.93279707
-0.04730901	-0.02896905	1.93279254
-0.04681247	-0.02891777	1.93279099
-0.04636303	-0.02857481	1.93278849
-0.04575653	-0.02764991	1.93278325
-0.04530062	-0.02626896	1.93277669
-0.04497138	-0.02627529	1.93277586
-0.04415885	-0.02491139	1.93276834
-0.04386689	-0.02438273	1.93276548
-0.04345000	-0.02338311	1.93276048
-0.04261546	-0.02215150	1.93275344
-0.04204629	-0.02069157	1.93274617
-0.04162392	-0.02033797	1.93274367
-0.04091983	-0.01893133	1.93273640
-0.04017165	-0.01702182	1.93272686
-0.03981028	-0.01691715	1.93272555
-0.03912300	-0.01602420	1.93272018
-0.03897576	-0.01568557	1.93271852
-0.03830901	-0.01374397	1.93270910
-0.03800648	-0.01373966	1.93270826
-0.03712660	-0.01371609	1.93270588
-0.03642254	-0.01230946	1.93269849
-0.03624353	-0.01185983	1.93269622
-0.03570791	-0.01142725	1.93269312
-0.03480802	-0.00905730	1.93268144
-0.03402251	-0.00768271	1.93267405
-0.03331845	-0.00627613	1.93266666
-0.03282015	-0.00530852	1.93266153
-0.03155370	-0.00347996	1.93265104
-0.03089313	-0.00257634	1.93264580
-0.02995595	-0.00074142	1.93263614
-0.02962640	-0.00074784	1.93263519
-0.02892235	0.00065881	1.93262792
-0.02853869	0.00063108	1.93262696
-0.02802868	0.00199066	1.93262029
-0.02769943	0.00198430	1.93261945
-0.02717407	0.00294127	1.93261433
-0.02688691	0.00334822	1.93261194
-0.02618282	0.00475484	1.93260455
-0.02579947	0.00472720	1.93260372
-0.02541587	0.00469945	1.93260276
-0.02468473	0.00609541	1.93259537
-0.02410534	0.00703095	1.93259025
-0.02161145	0.01370174	1.93255746
-0.01978210	0.01595214	1.93254375
-0.01907800	0.01735875	1.93253636
-0.01749052	0.02062160	1.93251944
-0.01485172	0.03010967	1.93247521
-0.01479112	0.03112638	1.93247104
-0.01472546	0.03226465	1.93246639
-0.01565851	0.03657374	1.93245184
-0.01660506	0.03957450	1.93244255
-0.02046865	0.05081482	1.93240845
-0.02242552	0.05396700	1.93240118
-0.04061641	0.08090082	1.93234301
-0.04990417	0.08637926	1.93234587
-0.05257204	0.08785444	1.93234706
-0.05441372	0.08860701	1.93234885
-0.05734679	0.08954296	1.93235290
-0.06202291	0.09094533	1.93235970
-0.06905332	0.09235960	1.93237245
-0.07153845	0.09272215	1.93237758
-0.07394242	0.09305269	1.93238258
-0.07580088	0.09329155	1.93238652
-0.08078818	0.09350303	1.93239880
-0.08448967	0.09357803	1.93240821
-0.08559793	0.09324783	1.93241239
-0.08615112	0.09324487	1.93241382
-0.08725177	0.09300926	1.93241763
-0.08782101	0.09299281	1.93241918
-0.08838288	0.09298711	1.93242073
-0.09170991	0.09329122	1.93242824
-0.09437980	0.09258233	1.93243802
-0.09463996	0.09216471	1.93244028
-0.09573616	0.09222646	1.93244302
-0.09665035	0.09194320	1.93244648
-0.09753022	0.09191965	1.93244886
-0.09901705	0.09173875	1.93245351
-0.10097335	0.09149593	1.93245959
-0.10161683	0.09110598	1.93246281
-0.10332282	0.09103753	1.93246758
-0.10350186	0.09058784	1.93246973
-0.10470620	0.09069228	1.93247247
-0.10512643	0.09048730	1.93247437
-0.10557109	0.09026605	1.93247640
-0.10681929	0.08986746	1.93248129
-0.10742401	0.08985889	1.93248296
-0.10885674	0.08965668	1.93248749
-0.10967775	0.08973344	1.93248928
-0.11114231	0.08942023	1.93249440
-0.11142947	0.08901325	1.93249679
-0.11181313	0.08904094	1.93249762
-0.11214237	0.08904730	1.93249846
-0.11229436	0.08858699	1.93250072
-0.11348367	0.08828878	1.93250501
-0.11442970	0.08789456	1.93250895
-0.11504614	0.08749391	1.93251216
-0.11541948	0.08699733	1.93251514
-0.11711712	0.08625574	1.93252254
-0.11757573	0.08549377	1.93252671
-0.11764660	0.08500147	1.93252885
-0.11810647	0.08459091	1.93253160
-0.11847478	0.08421594	1.93253410
-0.11882569	0.08417889	1.93253517
-0.11985816	0.08387074	1.93253911
-0.12029591	0.08391979	1.93254006
-0.12103726	0.08304816	1.93254542
-0.12132448	0.08264120	1.93254769
-0.12182099	0.08258992	1.93254924
-0.12243775	0.08218932	1.93255246
-0.12310827	0.08181006	1.93255568
-0.12478915	0.08158217	1.93256092
-0.12643300	0.08081934	1.93256831
-0.12675196	0.08030139	1.93257117
-0.12735668	0.08029281	1.93257272
-0.12821648	0.07998817	1.93257618
-0.12848316	0.07853253	1.93258262
-0.12878563	0.07852827	1.93258345
-0.12912694	0.07814263	1.93258584
-0.12922959	0.07753929	1.93258846
-0.12962668	0.07625864	1.93259454
-0.12999977	0.07576200	1.93259752
-0.13083124	0.07577118	1.93259966
-0.13132304	0.07584161	1.93260062
-0.13431643	0.07576078	1.93260884
-0.30602771	0.09568627	1.93298054
-0.30777577	0.09603110	1.93298376
-0.30783314	0.09684710	1.93298078
-0.30798560	0.09715443	1.93297994
-0.30809420	0.09796476	1.93297708
-0.30936295	0.09861484	1.93297780
-0.30968741	0.09874286	1.93297815
-0.30990160	0.09897689	1.93297780
-0.30986798	0.10000424	1.93297362
-0.31036264	0.10010166	1.93297458
-0.31061628	0.10072201	1.93297279
-0.31121162	0.10172436	1.93297040
-0.31194934	0.10191776	1.93297160
-0.31196272	0.10382870	1.93296409
-0.31301033	0.10451514	1.93296421
-0.31351066	0.10602619	1.93295956
-0.31416440	0.10616058	1.93296075
-0.31476438	0.10627367	1.93296182
-0.31497896	0.10727531	1.93295848
-0.31547332	0.10737269	1.93295932
-0.31586909	0.10777605	1.93295884
-0.31638288	0.10797874	1.93295932
-0.31636196	0.10878979	1.93295610
-0.31692699	0.10898682	1.93295681
-0.31796217	0.10929757	1.93295836
-0.31813973	0.10976428	1.93295693
-0.31817704	0.11029926	1.93295491
-0.31910118	0.11054032	1.93295646
-0.31913847	0.11107535	1.93295443
-0.31961352	0.11165939	1.93295336
-0.31998006	0.11220075	1.93295217
-0.32103753	0.11264384	1.93295324
-0.32123229	0.11336455	1.93295085
-0.32259244	0.11457098	1.93294978
-0.32368389	0.11475441	1.93295193
-0.32399637	0.11527443	1.93295062
-0.32503372	0.11543653	1.93295276
-0.32518426	0.11589256	1.93295133
-0.32742095	0.11628071	1.93295562
-0.32740414	0.11679441	1.93295360
-0.32882515	0.11698420	1.93295658
-0.33040813	0.11723802	1.93295968
-0.33274129	0.11806086	1.93296266
-0.33597657	0.11899250	1.93296742
-0.33745164	0.11920366	1.93297040
-0.33788908	0.11925267	1.93297136
-0.33886477	0.11948807	1.93297303
-0.33923638	0.11990777	1.93297243
-0.34029099	0.12032388	1.93297350
-0.34140953	0.12051798	1.93297565
-0.34156474	0.12085234	1.93297482
-0.34245715	0.12120441	1.93297577
-0.34328818	0.12180543	1.93297553
-0.34441173	0.12187791	1.93297815
-0.36060622	0.12171102	1.93302131
-0.36421639	0.12122968	1.93303263
-0.37814072	0.11848271	1.93307996
-0.38864920	0.11557812	1.93311894
-0.39455146	0.11382232	1.93314123
-0.39651144	0.11251448	1.93315160
-0.55670464	0.04714233	1.93382847
-0.55779612	0.04732578	1.93383062
-0.55931473	0.04703394	1.93383574
-0.56216234	0.04619981	1.93384647
-0.56501031	0.04554138	1.93385661
-0.56552905	0.04562245	1.93385756
-0.61189288	0.02727209	1.93405128
-0.62520802	0.01821679	1.93412173
-0.63234574	0.01229180	1.93416381
-0.64426267	0.00191134	1.93423581
-0.64547497	0.00006138	1.93424630
-0.68695605	-0.06917982	1.93462729
-0.68913567	-0.07545425	1.93465769
-0.69200844	-0.11138442	1.93480647
-0.69036674	-0.11661690	1.93482268
-0.68802792	-0.12148072	1.93483567
-0.68374914	-0.12924282	1.93485498
-0.68131608	-0.13206266	1.93485975
-0.68010759	-0.13372943	1.93486309
-0.59541935	-0.28481209	1.93523514
-0.59462762	-0.28824612	1.93524659
-0.59502995	-0.28888074	1.93525016
-0.59218681	-0.29419068	1.93526351
-0.58918357	-0.29971319	1.93527746
-0.58428228	-0.30925590	1.93530214
-0.56259274	-0.34859973	1.93539989
-0.56193018	-0.35017473	1.93540442
-0.55822718	-0.35780740	1.93542469
-0.54905301	-0.37107116	1.93545282
-0.53511399	-0.38626668	1.93547595
-0.48210710	-0.43570802	1.93553150
-0.48137915	-0.43614471	1.93553126
-0.47851217	-0.43745130	1.93552887
-0.41212279	-0.45290422	1.93541563
-0.41007507	-0.45321780	1.93541145
-0.40247941	-0.45423710	1.93539560
-0.37909305	-0.45079392	1.93532073
-0.36110514	-0.44751722	1.93526077
-0.35893798	-0.44671375	1.93525183
-0.35453802	-0.44396850	1.93522954
-0.35300264	-0.44316298	1.93522239
-0.35066128	-0.44203153	1.93521178
-0.35045013	-0.44147092	1.93520904
-0.34972554	-0.44111300	1.93520570
-0.34854645	-0.44029045	1.93519938
-0.34700602	-0.43936327	1.93519175
-0.34684229	-0.43851089	1.93518794
-0.34661108	-0.43823129	1.93518627
-0.34555280	-0.43758237	1.93518090
-0.18751438	-0.36762655	1.93449163
-0.18492486	-0.36646947	1.93448031
-0.18459532	-0.36647585	1.93447948
-0.18077911	-0.36555552	1.93446577
-0.17880601	-0.36479908	1.93445766
-0.17416078	-0.36200118	1.93443453
-0.17169444	-0.36039874	1.93442178
-0.16145451	-0.35257602	1.93436408
-0.16027036	-0.35163182	1.93435729
-0.15741415	-0.34901911	1.93433952
-0.15351960	-0.34488449	1.93431306
-0.15155026	-0.34256566	1.93429875
