//X	Y	Z
-0.15718432	-0.25892478	1.96818006
-0.15793426	-0.25971657	1.96817958
-0.15694843	-0.26205072	1.96819317
-0.15734532	-0.26254576	1.96819329
-0.15811589	-0.26449889	1.96819735
-0.15728772	-0.26615548	1.96820760
-0.15813379	-0.26700506	1.96820700
-0.15891714	-0.26754230	1.96820545
-0.15984061	-0.26982731	1.96820998
-0.16104504	-0.27119994	1.96820986
-0.16082008	-0.27186266	1.96821344
-0.16120806	-0.27295241	1.96821582
-0.16182102	-0.27337942	1.96821463
-0.16188788	-0.27507412	1.96822095
-0.16216493	-0.27718666	1.96822786
-0.16031550	-0.28109667	1.96825159
-0.16085094	-0.28229204	1.96825373
-0.15899260	-0.28679672	1.96827972
-0.15919136	-0.28766209	1.96828210
-0.15922950	-0.28860188	1.96828568
-0.16011479	-0.28994712	1.96828675
-0.15994546	-0.29256421	1.96829772
-0.16047482	-0.29372132	1.96829975
-0.16081864	-0.29532495	1.96830440
-0.16215193	-0.29597706	1.96830070
-0.16149426	-0.29897994	1.96831536
-0.16160360	-0.30060527	1.96832120
-0.16200459	-0.30151501	1.96832287
-0.16157961	-0.30370462	1.96833336
-0.16164121	-0.30446100	1.96833599
-0.16236995	-0.30480361	1.96833396
-0.16310175	-0.30529317	1.96833253
-0.16291255	-0.30752835	1.96834207
-0.16327995	-0.30894855	1.96834588
-0.16425125	-0.30964282	1.96834409
-0.16448084	-0.31088638	1.96834779
-0.16797127	-0.31303510	1.96834004
-0.16831505	-0.31463867	1.96834469
-0.16874352	-0.31603566	1.96834815
-0.16910177	-0.31655881	1.96834850
-0.16891725	-0.31752875	1.96835315
-0.17034684	-0.31823856	1.96834922
-0.17289549	-0.32000384	1.96834433
-0.17258933	-0.32225603	1.96835446
-0.17313299	-0.32453671	1.96836090
-0.17272331	-0.32616949	1.96836901
-0.17317341	-0.32704771	1.96837044
-0.17565183	-0.32793921	1.96836245
-0.17794578	-0.32980075	1.96835911
-0.17785011	-0.33247057	1.96836984
-0.17533810	-0.34064877	1.96841311
-0.17548648	-0.34348178	1.96842349
-0.17542714	-0.34455231	1.96842790
-0.17519841	-0.34603617	1.96843469
-0.17572673	-0.34666982	1.96843469
-0.17646946	-0.34689993	1.96843219
-0.17670619	-0.34870517	1.96843803
-0.17651427	-0.35131738	1.96844912
-0.17700946	-0.35220531	1.96845019
-0.17757121	-0.35258439	1.96844912
-0.17735328	-0.35380894	1.96845484
-0.17709114	-0.35554734	1.96846282
-0.17765610	-0.35581750	1.96846128
-0.17892334	-0.35626632	1.96845710
-0.17904890	-0.35760272	1.96846175
-0.18102854	-0.35842726	1.96845579
-0.18101414	-0.35950771	1.96846008
-0.18151639	-0.36095750	1.96846342
-0.18222581	-0.36144200	1.96846199
-0.18309012	-0.36259377	1.96846247
-0.18351135	-0.36342901	1.96846378
-0.18483394	-0.36434042	1.96846116
-0.18464558	-0.36613166	1.96846902
-0.18678065	-0.36691117	1.96846223
-0.18718348	-0.36815625	1.96846521
-0.18710929	-0.36907145	1.96846902
-0.18799953	-0.36940718	1.96846628
-0.18941841	-0.37037629	1.96846354
-0.19065629	-0.37149435	1.96846211
-0.19161600	-0.37218010	1.96846032
-0.19258016	-0.37256846	1.96845746
-0.19351102	-0.37321132	1.96845567
-0.19505508	-0.37428099	1.96845269
-0.19656934	-0.37478414	1.96844757
-0.19765958	-0.37579674	1.96844649
-0.19764511	-0.37687719	1.96845078
-0.19828063	-0.37730905	1.96844947
-0.19969857	-0.37775454	1.96844471
-0.19963276	-0.37878716	1.96844900
-0.20047824	-0.37911290	1.96844637
-0.20104000	-0.37949198	1.96844530
-0.20208885	-0.37967372	1.96844113
-0.20190704	-0.38150272	1.96844912
-0.20361841	-0.38182384	1.96844244
-0.20410174	-0.38244763	1.96844268
-0.37643671	-0.39738491	1.96770656
-0.37775418	-0.39366239	1.96768606
-0.37959623	-0.38919079	1.96766019
-0.38042751	-0.38839307	1.96765327
-0.38192630	-0.38724935	1.96764195
-0.38345885	-0.38585091	1.96762943
-0.38424224	-0.38638809	1.96762800
-0.38587800	-0.38560912	1.96761739
-0.38640642	-0.38624269	1.96761739
-0.38808656	-0.38494974	1.96760464
-0.39009511	-0.38361344	1.96759021
-0.39088202	-0.38332969	1.96758556
-0.39485905	-0.38034967	1.96755564
-0.39677572	-0.38086203	1.96754873
-0.39789113	-0.38053492	1.96754241
-0.39937580	-0.38047138	1.96753526
-0.40028802	-0.38028812	1.96753037
-0.40137383	-0.37939432	1.96752191
-0.40230089	-0.37865454	1.96751475
-0.40477881	-0.37681842	1.96749628
-0.40673244	-0.37625527	1.96748507
-0.40801755	-0.37551466	1.96747625
-0.41124147	-0.37308776	1.96745205
-0.41294026	-0.37262094	1.96744239
-0.41381198	-0.37213042	1.96743643
-0.41622299	-0.37080342	1.96742022
-0.41713950	-0.37032291	1.96741414
-0.41976556	-0.37131992	1.96740592
-0.42224416	-0.37221134	1.96739793
-0.42457062	-0.37329462	1.96739137
-0.42864099	-0.37392086	1.96737504
-0.43245697	-0.37172744	1.96734893
-0.43412226	-0.37151513	1.96734047
-0.43817049	-0.36993253	1.96731567
-0.44100583	-0.37153563	1.96730888
-0.44330275	-0.37205228	1.96730030
-0.44398150	-0.37144664	1.96729481
-0.44447964	-0.37098977	1.96729076
-0.44582739	-0.37056142	1.96728289
-0.44703037	-0.37088656	1.96727860
-0.44797415	-0.37160531	1.96727705
-0.44923279	-0.37168097	1.96727157
-0.45025635	-0.37099880	1.96726418
-0.45275563	-0.37084779	1.96725202
-0.45813501	-0.37398958	1.96723950
-0.46001470	-0.37337381	1.96722841
-0.47560808	-0.38713041	1.96720994
-0.47626537	-0.38704345	1.96720648
-0.47704768	-0.38705716	1.96720302
-0.47807783	-0.38641283	1.96719575
-0.47875309	-0.38662821	1.96719348
-0.47960225	-0.38613272	1.96718764
-0.54892844	-0.45254898	1.96712565
-0.54988617	-0.45289940	1.96712255
-0.55064154	-0.45320547	1.96712029
-0.55176902	-0.45314246	1.96711481
-0.55361176	-0.45139837	1.96709955
-0.55464268	-0.45127776	1.96709442
-0.55594641	-0.45136324	1.96708870
-0.55664420	-0.45158350	1.96708632
-0.55784243	-0.45071429	1.96707749
-0.55892432	-0.45064166	1.96707225
-0.55980504	-0.45104825	1.96706975
-0.56055886	-0.45101884	1.96706617
-0.56243515	-0.44902027	1.96704972
-0.56369448	-0.44961971	1.96704626
-0.56617588	-0.44916636	1.96703303
-0.56769758	-0.44802725	1.96702158
-0.56910837	-0.44791111	1.96701467
-0.57026070	-0.44871220	1.96701252
-0.57080352	-0.44826528	1.96700823
-0.57306218	-0.44784212	1.96699619
-0.57534087	-0.44805664	1.96698654
-0.57678866	-0.44686484	1.96697521
-0.58020020	-0.44432682	1.96694970
-0.58140743	-0.44435468	1.96694422
-0.58197284	-0.44391268	1.96693993
-0.58284426	-0.44342238	1.96693397
-0.58338368	-0.44379649	1.96693301
-0.58406347	-0.44371441	1.96692955
-0.58494580	-0.44296461	1.96692252
-0.58616859	-0.44243562	1.96691489
-0.58728039	-0.44292951	1.96691167
-0.58808875	-0.44212711	1.96690488
-0.58984351	-0.44141060	1.96689391
-0.59062588	-0.44142428	1.96689045
-0.59150845	-0.44067436	1.96688342
-0.59226191	-0.44064513	1.96687984
-0.59657705	-0.43560278	1.96684039
-0.59853065	-0.43503964	1.96682930
-0.60024416	-0.43349221	1.96681535
-0.60111004	-0.43348762	1.96681130
-0.60387951	-0.43047988	1.96678698
-0.60569656	-0.42955178	1.96677494
-0.60821104	-0.42664033	1.96675205
-0.60882443	-0.42706710	1.96675086
-0.61092132	-0.42470300	1.96673214
-0.61218071	-0.42530248	1.96672857
-0.61265004	-0.42480260	1.96672451
-0.61341441	-0.42451400	1.96671987
-0.61388332	-0.42401439	1.96671581
-0.61770302	-0.42074409	1.96668553
-0.61882931	-0.42015746	1.96667802
-0.62049848	-0.41912401	1.96666634
-0.62272501	-0.41656315	1.96664619
-0.62449777	-0.41614902	1.96663642
-0.62749988	-0.41303992	1.96661055
-0.62884754	-0.41261160	1.96660268
-0.62992990	-0.41253883	1.96659732
-0.63053542	-0.41240418	1.96659410
-0.63220108	-0.41219169	1.96658552
-0.63311690	-0.41118747	1.96657741
-0.63411427	-0.41132137	1.96657336
-0.63585746	-0.41034055	1.96656156
-0.63683230	-0.41046962	1.96655750
-0.63834310	-0.40959001	1.96654713
-0.63895994	-0.40919569	1.96654284
-0.63990521	-0.40875816	1.96653676
-0.64116848	-0.40853637	1.96653008
-0.64178526	-0.40814215	1.96652567
-0.64294124	-0.40812227	1.96652031
-0.64355803	-0.40772802	1.96651590
-0.64421535	-0.40764099	1.96651256
-0.64627600	-0.40908006	1.96650863
-0.64692593	-0.40843147	1.96650314
-0.64800471	-0.40697590	1.96649253
-0.64876521	-0.40750846	1.96649110
-0.64969999	-0.40733004	1.96648610
-0.65059251	-0.40728897	1.96648180
-0.65141988	-0.40731245	1.96647811
-0.65219307	-0.40714103	1.96647394
-0.65359890	-0.40608639	1.96646333
-0.65481782	-0.40637857	1.96645880
-0.65549159	-0.40554646	1.96645248
-0.65657532	-0.40431726	1.96644270
-0.65755963	-0.40313941	1.96643364
-0.65890735	-0.40271115	1.96642578
-0.65984565	-0.40171176	1.96641755
-0.66049212	-0.40188414	1.96641529
-0.66125214	-0.40189281	1.96641183
-0.66186237	-0.40146077	1.96640730
-0.66225773	-0.40090829	1.96640337
-0.66307706	-0.39984643	1.96639550
-0.66394842	-0.39935613	1.96638954
-0.66506422	-0.39902878	1.96638310
-0.66587526	-0.39908534	1.96637964
-0.66633797	-0.39854777	1.96637535
-0.66688085	-0.39810085	1.96637118
-0.66788220	-0.39741361	1.96636391
-0.66950625	-0.39637032	1.96635234
-0.67096210	-0.39626390	1.96634519
-0.67200285	-0.39536029	1.96633697
-0.67247212	-0.39486051	1.96633279
-0.67341751	-0.39442289	1.96632683
-0.67448884	-0.39460951	1.96632254
-0.67550778	-0.39422476	1.96631634
-0.67611831	-0.39379251	1.96631193
-0.67696285	-0.39359456	1.96630728
-0.67769176	-0.39322516	1.96630251
-0.68083799	-0.38883889	1.96627092
-0.68204170	-0.38748401	1.96626019
-0.68353349	-0.38577843	1.96624672
-0.68440878	-0.38446689	1.96623755
-0.68514347	-0.38361162	1.96623087
-0.68671262	-0.38113785	1.96621406
-0.68950522	-0.37742275	1.96618676
-0.69144022	-0.37603357	1.96617246
-0.69302189	-0.37434778	1.96615863
-0.69402862	-0.37317479	1.96614945
-0.69717050	-0.36811808	1.96611536
-0.69862914	-0.36666688	1.96610308
-0.70013767	-0.36421606	1.96608663
-0.70167345	-0.36199671	1.96607089
-0.70272619	-0.36135727	1.96606362
-0.70373952	-0.36145821	1.96605933
-0.70468342	-0.35997307	1.96604919
-0.70551610	-0.36022282	1.96604633
-0.70642650	-0.35899231	1.96603739
-0.70815170	-0.35770920	1.96602452
-0.70878649	-0.35761735	1.96602118
-0.70979834	-0.35667080	1.96601284
-0.71142703	-0.35533008	1.96600020
-0.71268827	-0.35477298	1.96599221
-0.71329224	-0.35430282	1.96598756
-0.71399629	-0.35456121	1.96598530
-0.71511441	-0.35288930	1.96597373
-0.71595430	-0.35149702	1.96596444
-0.71715838	-0.35014194	1.96595359
-0.71791178	-0.35011274	1.96595001
-0.71911556	-0.34875777	1.96593928
-0.72027266	-0.34854946	1.96593308
-0.72150517	-0.34794939	1.96592510
-0.72280270	-0.34728488	1.96591651
-0.72403604	-0.34649664	1.96590781
-0.72537321	-0.34632751	1.96590102
-0.72618157	-0.34552512	1.96589422
-0.72734487	-0.34386298	1.96588242
-0.73021293	-0.34468785	1.96587241
-0.73066598	-0.34422117	1.96586847
-0.73128211	-0.34330323	1.96586204
-0.73196697	-0.34344757	1.96585953
-0.73265243	-0.34287977	1.96585417
-0.73402268	-0.34245634	1.96584618
-0.73443401	-0.34187090	1.96584201
-0.73566377	-0.34190369	1.96583641
-0.73644531	-0.34139362	1.96583092
-0.73728359	-0.34115770	1.96582615
-0.73780859	-0.34040838	1.96582079
-0.73938936	-0.34040266	1.96581352
-0.73976219	-0.33984530	1.96580958
-0.74095154	-0.33957085	1.96580303
-0.74212998	-0.33955580	1.96579754
-0.74271798	-0.33911863	1.96579313
-0.74334109	-0.33876249	1.96578896
-0.74419451	-0.33796984	1.96578193
-0.74466360	-0.33747023	1.96577775
-0.74601126	-0.33704191	1.96576989
-0.74666154	-0.33639312	1.96576440
-0.74775088	-0.33688211	1.96576130
-0.74858177	-0.33608454	1.96575439
-0.74948657	-0.33533973	1.96574736
-0.75085688	-0.33491626	1.96573937
-0.75161040	-0.33488709	1.96573579
-0.75259650	-0.33475649	1.96573079
-0.75336081	-0.33446786	1.96572614
-0.75416994	-0.33418921	1.96572125
-0.75481635	-0.33436158	1.96571898
-0.75516665	-0.33379936	1.96571517
-0.75633645	-0.33437884	1.96571207
-0.75677037	-0.33379829	1.96570778
-0.75719428	-0.33328894	1.96570385
-0.75774997	-0.33291793	1.96569991
-0.75863421	-0.33321545	1.96569693
-0.75944328	-0.33293676	1.96569216
-0.76007175	-0.33280686	1.96568871
-0.76116234	-0.33090365	1.96567631
-0.76290345	-0.33179128	1.96567178
-0.76344097	-0.33111811	1.96566665
-0.76376247	-0.33051294	1.96566284
-0.76458979	-0.33053640	1.96565914
-0.76588619	-0.33006030	1.96565127
-0.76707548	-0.32978582	1.96564472
-0.76759624	-0.32933381	1.96564066
-0.76881856	-0.32880503	1.96563292
-0.77052474	-0.32889977	1.96562541
-0.77113068	-0.32876503	1.96562219
-0.77200615	-0.32868943	1.96561778
-0.77249771	-0.32819468	1.96561360
-0.77328032	-0.32820818	1.96561003
-0.77367544	-0.32765588	1.96560609
-0.77432179	-0.32782835	1.96560383
-0.77466583	-0.32722804	1.96559989
-0.77528262	-0.32683381	1.96559548
-0.77601051	-0.32690853	1.96559250
-0.77695882	-0.32636213	1.96558595
-0.77778554	-0.32586181	1.96558022
-0.77851009	-0.32578966	1.96557665
-0.77976167	-0.32530361	1.96556890
-0.78046381	-0.32522658	1.96556544
-0.78164142	-0.32468781	1.96555793
-0.78234386	-0.32461059	1.96555436
-0.78319263	-0.32411540	1.96554852
-0.78416055	-0.32368264	1.96554244
-0.78460741	-0.32317799	1.96553838
-0.78523117	-0.32334554	1.96553612
-0.78656453	-0.32179388	1.96552396
-0.78786826	-0.32187933	1.96551836
-0.78891003	-0.32149929	1.96551204
-0.78938997	-0.32074025	1.96550691
-0.79151022	-0.32110858	1.96549857
-0.79372925	-0.32019001	1.96548474
-0.79499257	-0.31996822	1.96547806
-0.79683912	-0.31960678	1.96546817
-0.79828334	-0.31923598	1.96546006
-0.80160367	-0.31907049	1.96544421
-0.80248219	-0.31914195	1.96544039
-0.80315113	-0.31931928	1.96543801
-0.80376798	-0.31892502	1.96543360
-0.80423695	-0.31842548	1.96542954
-0.80537057	-0.31840044	1.96542418
-0.80670744	-0.31823152	1.96541739
-0.80752778	-0.31769326	1.96541154
-0.80893862	-0.31757700	1.96540463
-0.81071860	-0.31772447	1.96539700
-0.81180447	-0.31683064	1.96538854
-0.81263185	-0.31685412	1.96538472
-0.81310070	-0.31635457	1.96538067
-0.81429708	-0.31664190	1.96537626
-0.81501746	-0.31686702	1.96537387
-0.81556034	-0.31642008	1.96536958
-0.81801295	-0.31592384	1.96535635
-0.82135940	-0.31714594	1.96534574
-0.82370096	-0.31767258	1.96533692
-0.82558423	-0.31843960	1.96533120
-0.82726890	-0.31905296	1.96532583
-0.82813680	-0.31938365	1.96532309
-0.82965106	-0.31988683	1.96531808
-0.83080697	-0.31986690	1.96531272
-0.83318937	-0.32070053	1.96530497
-0.83520222	-0.32127076	1.96529794
-0.83635104	-0.32068908	1.96529031
-0.83857477	-0.32167676	1.96528387
-0.87091589	-0.33586779	1.96518993
-0.87250400	-0.33642358	1.96518481
-0.87297344	-0.33592382	1.96518064
-0.87386262	-0.33573592	1.96517587
-0.87492704	-0.33536074	1.96516943
-0.87592447	-0.33549467	1.96516538
-0.87725705	-0.33562300	1.96515977
-0.87774849	-0.33512831	1.96515560
-0.87844634	-0.33534855	1.96515322
-0.87886393	-0.33480108	1.96514916
-0.88020110	-0.33463204	1.96514237
-0.88144255	-0.33492914	1.96513784
-0.88211036	-0.33458292	1.96513343
-0.88300008	-0.33439475	1.96512854
-0.88375354	-0.33436558	1.96512496
-0.88458097	-0.33438903	1.96512127
-0.88553786	-0.33421570	1.96511614
-0.88641655	-0.33428699	1.96511233
-0.88750982	-0.33395478	1.96510601
-0.88866568	-0.33393478	1.96510065
-0.88975960	-0.33412632	1.96509635
-0.89046836	-0.33408713	1.96509290
-0.89103371	-0.33364508	1.96508861
-0.89217871	-0.33388460	1.96508431
-0.89356267	-0.33406085	1.96507859
-0.89441264	-0.33408916	1.96507478
-0.89492667	-0.33359936	1.96507049
-0.89745271	-0.33315599	1.96505713
-0.89904726	-0.33374989	1.96505213
-0.90014124	-0.33394134	1.96504784
-0.90048516	-0.33334103	1.96504390
-0.90280432	-0.33386278	1.96503520
-0.90372789	-0.33394402	1.96503127
-0.90473938	-0.33396536	1.96502674
-0.90600264	-0.33374363	1.96502006
-0.90759516	-0.33400217	1.96501374
-0.90799677	-0.33348778	1.96500981
-0.90893161	-0.33330935	1.96500492
-0.90972555	-0.33358735	1.96500230
-0.91070032	-0.33371645	1.96499825
-0.91119194	-0.33322167	1.96499407
-0.91201925	-0.33324516	1.96499038
-0.91323030	-0.33245185	1.96498179
-0.91478169	-0.33187947	1.96497238
-0.91672444	-0.33157575	1.96496224
-0.91735208	-0.33092210	1.96495676
-0.91825700	-0.33017722	1.96494973
-0.92049515	-0.33008450	1.96493912
-0.92460597	-0.33101806	1.96492374
-0.92606890	-0.33147332	1.96491885
-0.92795587	-0.33141911	1.96490991
-0.92880583	-0.33144748	1.96490610
-0.92990601	-0.33167702	1.96490192
-0.93131685	-0.33156082	1.96489501
-0.93201900	-0.33148372	1.96489143
-0.93307102	-0.33155650	1.96488690
-0.93430090	-0.33158928	1.96488130
-0.93512833	-0.33161277	1.96487761
-0.93588960	-0.33143294	1.96487343
-0.93692350	-0.33120349	1.96486771
-0.93827868	-0.33133674	1.96486199
-0.94001794	-0.33117718	1.96485341
-0.94100475	-0.33157033	1.96485031
-0.94152522	-0.33111849	1.96484625
-0.94299161	-0.33075282	1.96483803
-0.94407374	-0.33068010	1.96483278
-0.94530362	-0.33071283	1.96482718
-0.94740510	-0.33025512	1.96481574
-0.94823241	-0.33027858	1.96481204
-0.94946229	-0.33031130	1.96480656
-0.95219934	-0.33028546	1.96479380
-0.95391250	-0.33094198	1.96478844
-0.95425773	-0.33015326	1.96478379
-0.95708501	-0.33067107	1.96477282
-0.95779932	-0.33014610	1.96476746
-0.95859361	-0.33042401	1.96476483
-0.95929563	-0.33034694	1.96476138
-0.95997900	-0.32944387	1.96475470
-0.96121418	-0.32970291	1.96475005
-0.96196616	-0.32862622	1.96474242
-0.96233892	-0.32806888	1.96473849
-0.96339136	-0.32742953	1.96473122
-0.96414471	-0.32740036	1.96472764
-0.96500993	-0.32687205	1.96472156
-0.96652073	-0.32378858	1.96470261
-0.96826386	-0.32280779	1.96469080
-0.96895814	-0.32164523	1.96468306
-0.97092623	-0.32000166	1.96466768
-0.97232610	-0.32014492	1.96466172
-0.97402060	-0.31997538	1.96465325
-0.97446072	-0.31943285	1.96464920
-0.97618508	-0.31982976	1.96464276
-0.97669923	-0.31933990	1.96463847
-0.97834587	-0.31830153	1.96462691
-0.98011047	-0.31680202	1.96461296
-0.98137367	-0.31658030	1.96460629
-0.98224545	-0.31608981	1.96460032
-0.98508561	-0.31668344	1.96458960
-0.98725015	-0.31653786	1.96457899
-0.98877537	-0.31678149	1.96457291
-0.98985726	-0.31670892	1.96456766
-0.99087727	-0.31684774	1.96456349
-0.99177784	-0.31640020	1.96455765
-0.99244678	-0.31657752	1.96455526
-0.99332559	-0.31664872	1.96455145
-0.99395370	-0.31651905	1.96454811
-0.99468845	-0.31566378	1.96454132
-0.99617314	-0.31560025	1.96453428
-0.99822295	-0.31509492	1.96452284
-1.00015450	-0.31452674	1.96451175
-1.00118518	-0.31440607	1.96450651
-1.00296855	-0.31373274	1.96449578
-1.00415790	-0.31345823	1.96448922
-1.00745606	-0.31328759	1.96447337
-1.00893331	-0.31266260	1.96446407
-1.00973821	-0.31268111	1.96446049
-1.01109767	-0.31251714	1.96445358
-1.01254892	-0.31270808	1.96444762
-1.01352417	-0.31283695	1.96444368
-1.01513839	-0.31257674	1.96443522
-1.01651573	-0.31271505	1.96442938
-1.01725864	-0.31294510	1.96442688
-1.01777887	-0.31249329	1.96442270
-1.01885033	-0.31267995	1.96441853
-1.01980662	-0.31198278	1.96441138
-1.02197075	-0.31183743	1.96440089
-1.02435672	-0.31185001	1.96438992
-1.02546132	-0.31178233	1.96438456
-1.02665782	-0.31206942	1.96438015
-1.02795434	-0.31159338	1.96437228
-1.02957559	-0.31189483	1.96436608
-1.03031313	-0.31189859	1.96436262
-1.03090107	-0.31146145	1.96435821
-1.03223801	-0.31129250	1.96435142
-1.03303146	-0.31104660	1.96434677
-1.03436828	-0.31087771	1.96433997
-1.03476381	-0.31032521	1.96433604
-1.03552794	-0.31003660	1.96433139
-1.03711975	-0.30977145	1.96432304
-1.03898978	-0.30993858	1.96431506
-1.03956568	-0.30923730	1.96430969
-1.04045081	-0.30934668	1.96430600
-1.04213619	-0.30828002	1.96429420
-1.04354692	-0.30816382	1.96428716
-1.04603648	-0.30879578	1.96427822
-1.04676390	-0.30737892	1.96426928
-1.04784620	-0.30730611	1.96426404
-1.04914951	-0.30739176	1.96425843
-1.05153203	-0.30822539	1.96425068
-1.05218911	-0.30813864	1.96424735
-1.05399156	-0.30829093	1.96423960
-1.05460835	-0.30789676	1.96423519
-1.05580473	-0.30818403	1.96423078
-1.05767000	-0.30864865	1.96422398
-1.06384611	-0.31072366	1.96420360
-1.06598878	-0.31330073	1.96420372
-1.06774426	-0.31971937	1.96422052
-1.06901598	-0.32551441	1.96423709
-1.06896460	-0.32767034	1.96424568
-1.06770658	-0.33472973	1.96427882
-1.06600106	-0.33956638	1.96430552
-1.06538415	-0.33996063	1.96430981
-1.06432796	-0.34142104	1.96432030
-1.06279182	-0.34364054	1.96433604
-1.06200957	-0.34583065	1.96434808
-1.06072831	-0.34795389	1.96436226
-1.05982339	-0.34869879	1.96436930
-1.05813944	-0.35081288	1.96438527
-1.05675471	-0.35231671	1.96439743
-1.05624175	-0.35333017	1.96440375
-1.05569887	-0.35377699	1.96440804
-1.05377126	-0.35572776	1.96442449
-1.05206859	-0.35701579	1.96443725
-1.05128968	-0.35838494	1.96444619
-1.05047750	-0.36000851	1.96445620
-1.04899991	-0.36063376	1.96446550
-1.04720926	-0.36294934	1.96448267
-1.04498625	-0.36468920	1.96449971
-1.04476130	-0.36535200	1.96450329
-1.04325402	-0.36541057	1.96451044
-1.04270017	-0.36611694	1.96451569
-1.04147792	-0.36664569	1.96452343
-1.04095709	-0.36709771	1.96452761
-1.03986764	-0.36881259	1.96453917
-1.03831649	-0.36938500	1.96454859
-1.03764129	-0.37137336	1.96455944
-1.03627443	-0.37097585	1.96456420
-1.03582418	-0.37230149	1.96457136
-1.03470802	-0.37210488	1.96457577
-1.03423250	-0.37256670	1.96457970
-1.03373730	-0.37388241	1.96458709
-1.03314233	-0.37375778	1.96458936
-1.03256679	-0.37498295	1.96459675
-1.03190970	-0.37506977	1.96460009
-1.03125596	-0.37653956	1.96460879
-1.03042579	-0.37786087	1.96461785
-1.02904105	-0.37936464	1.96463001
-1.02839077	-0.38001341	1.96463549
-1.02816570	-0.38067624	1.96463907
-1.02568078	-0.38415432	1.96466410
-1.02442908	-0.38684422	1.96468019
-1.02298498	-0.38721493	1.96468830
-1.02228010	-0.38863671	1.96469712
-1.02143013	-0.38860837	1.96470094
-1.02038205	-0.39115411	1.96471560
-1.01932144	-0.39070812	1.96471870
-1.01847589	-0.39038247	1.96472132
-1.01676631	-0.39331251	1.96474063
-1.01639342	-0.39386988	1.96474445
-1.01534462	-0.39368811	1.96474862
-1.01352787	-0.39461604	1.96476054
-1.01143730	-0.39481437	1.96477103
-1.00970423	-0.39501202	1.96477973
-1.00890648	-0.39555520	1.96478558
-1.00794244	-0.39516672	1.96478844
-1.00735521	-0.39612758	1.96479487
-1.00660884	-0.39671865	1.96480060
-1.00609565	-0.39773199	1.96480691
-1.00449944	-0.39829460	1.96481645
-1.00371253	-0.39857838	1.96482122
-1.00301123	-0.39917913	1.96482670
-1.00239897	-0.39927587	1.96482992
-1.00174165	-0.39936286	1.96483326
-1.00060368	-0.40188891	1.96484828
-0.99903417	-0.40215921	1.96485662
-0.99844724	-0.40311983	1.96486306
-0.99814838	-0.40372995	1.96486676
-0.99702203	-0.40431651	1.96487427
-0.99617743	-0.40451443	1.96487892
-0.99541283	-0.40480331	1.96488357
-0.99454880	-0.40585518	1.96489155
-0.99402809	-0.40630719	1.96489573
-0.99340421	-0.40613964	1.96489799
-0.99287915	-0.40688890	1.96490324
-0.99214834	-0.40692297	1.96490681
-0.99117029	-0.40813884	1.96491599
-0.99065626	-0.40862867	1.96492028
-0.98910958	-0.41110742	1.96493697
-0.98834521	-0.41139609	1.96494162
-0.98751402	-0.41219378	1.96494853
-0.98660910	-0.41293865	1.96495557
-0.98522437	-0.41444248	1.96496785
-0.98308980	-0.41515458	1.96498048
-0.98190045	-0.41542906	1.96498692
-0.98046076	-0.41770619	1.96500242
-0.97904253	-0.41972047	1.96501672
-0.97702760	-0.42322251	1.96503961
-0.97490156	-0.42554384	1.96505845
-0.97405970	-0.42660081	1.96506643
-0.97291982	-0.42658779	1.96507156
-0.97162265	-0.42874396	1.96508598
-0.97118759	-0.42951286	1.96509087
-0.96961021	-0.43090150	1.96510351
-0.96822536	-0.43240538	1.96511579
-0.96565497	-0.43336269	1.96513128
-0.96472061	-0.43354088	1.96513629
-0.96398568	-0.43439615	1.96514297
-0.96205461	-0.43496412	1.96515417
-0.96119022	-0.43601623	1.96516216
-0.95976126	-0.43583032	1.96516800
-0.95768464	-0.43442428	1.96517217
-0.95551729	-0.43591455	1.96518791
-0.95478606	-0.43594888	1.96519136
-0.95375907	-0.43524829	1.96519339
-0.95238125	-0.43511024	1.96519923
-0.95057905	-0.43495765	1.96520698
-0.94989216	-0.43447796	1.96520829
-0.94848502	-0.43377316	1.96521199
-0.94408262	-0.43401128	1.96523321
-0.94127512	-0.43316349	1.96524286
-0.93935692	-0.43380737	1.96525419
-0.93795514	-0.43332884	1.96525884
-0.93561721	-0.43321711	1.96526921
-0.93448609	-0.43286529	1.96527302
-0.93364775	-0.43310127	1.96527779
-0.93311334	-0.43366554	1.96528244
-0.93039680	-0.43556488	1.96530235
-0.92790020	-0.43657482	1.96531773
-0.92697597	-0.43596989	1.96531963
-0.92627895	-0.43627331	1.96532404
-0.92395586	-0.43877658	1.96534443
-0.92228675	-0.43981013	1.96535611
-0.91982365	-0.44056556	1.96537042
-0.91794628	-0.43983683	1.96537626
-0.91629231	-0.44031364	1.96538568
-0.91483319	-0.44124088	1.96539605
-0.91248846	-0.44205916	1.96540999
-0.91051960	-0.44097519	1.96541488
-0.90979505	-0.44104737	1.96541846
-0.90933025	-0.44150552	1.96542239
-0.90847760	-0.44256607	1.96543038
-0.90786463	-0.44213906	1.96543157
-0.90715158	-0.44273144	1.96543717
-0.90561831	-0.44335026	1.96544659
-0.90514910	-0.44385010	1.96545076
-0.90233099	-0.44546524	1.96546996
-0.90001726	-0.44737357	1.96548808
-0.89949656	-0.44782555	1.96549213
-0.89737129	-0.44723076	1.96549964
-0.89600456	-0.44683322	1.96550441
-0.89484286	-0.44733900	1.96551180
-0.89320910	-0.44845325	1.96552360
-0.89253509	-0.44804952	1.96552515
-0.89186764	-0.44891965	1.96553159
-0.89137340	-0.44855532	1.96553242
-0.89032453	-0.44837359	1.96553659
-0.88899618	-0.45015171	1.96554959
-0.88805091	-0.45058927	1.96555567
-0.88700914	-0.45096937	1.96556187
-0.88588285	-0.45155594	1.96556938
-0.88519239	-0.45189729	1.96557391
-0.88323486	-0.45328158	1.96558821
-0.88253832	-0.45287293	1.96558988
-0.88149333	-0.45407379	1.96559930
-0.87977624	-0.45644227	1.96561646
-0.87667120	-0.45601600	1.96562910
-0.87558794	-0.45627710	1.96563506
-0.87421888	-0.45651206	1.96564233
-0.87298173	-0.45812154	1.96565425
-0.87141955	-0.45895338	1.96566463
-0.87017107	-0.45809451	1.96566713
-0.86936235	-0.45889711	1.96567392
-0.86754453	-0.45930147	1.96568382
-0.86602759	-0.46014306	1.96569407
-0.86507666	-0.46106642	1.96570206
-0.86432880	-0.46060994	1.96570373
-0.86288106	-0.46180171	1.96571505
-0.86243427	-0.46230635	1.96571910
-0.86158508	-0.46280169	1.96572495
-0.86068767	-0.46410814	1.96573412
-0.85949475	-0.46520364	1.96574378
-0.85887057	-0.46503630	1.96574605
-0.85811365	-0.46588650	1.96575284
-0.85669190	-0.46626213	1.96576083
-0.85579407	-0.46756876	1.96577001
-0.85356760	-0.46792579	1.96578169
-0.85296905	-0.46862218	1.96578717
-0.85169131	-0.46992439	1.96579814
-0.85024714	-0.47029519	1.96580613
-0.84879231	-0.47092515	1.96581531
-0.84658027	-0.47240552	1.96583128
-0.84505856	-0.47354463	1.96584272
-0.84423125	-0.47352111	1.96584642
-0.84262156	-0.47568771	1.96586215
-0.84186769	-0.47571713	1.96586585
-0.84122127	-0.47554475	1.96586812
-0.84067833	-0.47599164	1.96587229
-0.83933806	-0.47698149	1.96588230
-0.83820093	-0.47782752	1.96589088
-0.83755052	-0.47847626	1.96589637
-0.83648729	-0.47937495	1.96590471
-0.83555281	-0.47955313	1.96590972
-0.83393121	-0.48145565	1.96592462
-0.83251691	-0.48239291	1.96593475
-0.83033788	-0.48361894	1.96594954
-0.82949996	-0.48385474	1.96595430
-0.82684028	-0.48751980	1.96598077
-0.82503498	-0.48650846	1.96598518
-0.82445896	-0.48720974	1.96599054
-0.82359886	-0.48796451	1.96599746
-0.82307386	-0.48871377	1.96600270
-0.82119572	-0.49037710	1.96601784
-0.81986976	-0.49028656	1.96602356
-0.81862152	-0.49215543	1.96603656
-0.81690836	-0.49370268	1.96605051
-0.81527233	-0.49448180	1.96606112
-0.81389493	-0.49434352	1.96606684
-0.81313765	-0.49519390	1.96607363
-0.81205738	-0.49560195	1.96608019
-0.81071496	-0.49625662	1.96608889
-0.80985427	-0.49648768	1.96609378
-0.80897188	-0.49723741	1.96610081
-0.80778956	-0.49807364	1.96610951
-0.80705011	-0.49773461	1.96611154
-0.80590636	-0.49951047	1.96612370
-0.80529916	-0.49983370	1.96612775
-0.80439633	-0.50091386	1.96613610
-0.80295205	-0.50128454	1.96614420
-0.80232477	-0.50193799	1.96614957
-0.80060029	-0.50374496	1.96616459
-0.79849911	-0.50420249	1.96617603
-0.79771215	-0.50448626	1.96618068
-0.79641926	-0.50414139	1.96618533
-0.79532874	-0.50604457	1.96619773
-0.79419351	-0.50722599	1.96620762
-0.79337710	-0.50694311	1.96621025
-0.79190755	-0.50865364	1.96622360
-0.79116726	-0.50999463	1.96623230
-0.78964913	-0.51031274	1.96624053
-0.78831077	-0.51163793	1.96625173
-0.78579938	-0.51372862	1.96627140
-0.78458047	-0.51343632	1.96627593
-0.78329855	-0.51283205	1.96627951
-0.78228891	-0.51314598	1.96628535
-0.78183281	-0.51372147	1.96628964
-0.78143746	-0.51427400	1.96629369
-0.78073967	-0.51405370	1.96629608
-0.77983057	-0.51509583	1.96630430
-0.77922463	-0.51523066	1.96630752
-0.77803963	-0.51741159	1.96632147
-0.77712774	-0.51759470	1.96632636
-0.77627426	-0.51838732	1.96633339
-0.77477509	-0.51953125	1.96634471
-0.77357495	-0.52006513	1.96635234
-0.77262139	-0.52162129	1.96636271
-0.77157682	-0.52114224	1.96636569
-0.77123320	-0.52174234	1.96636963
-0.76949358	-0.52410597	1.96638680
-0.76912075	-0.52466333	1.96639073
-0.76847428	-0.52449083	1.96639299
-0.76738149	-0.52482289	1.96639931
-0.76636928	-0.52576953	1.96640766
-0.76565230	-0.52543545	1.96640968
-0.76503044	-0.52560318	1.96641314
-0.76462877	-0.52611762	1.96641695
-0.76301086	-0.52940273	1.96643722
-0.76164067	-0.52982616	1.96644509
-0.76134169	-0.53043622	1.96644890
-0.75946903	-0.52941000	1.96645355
-0.75872689	-0.52970374	1.96645808
-0.75820225	-0.53045285	1.96646345
-0.75661403	-0.53210074	1.96647716
-0.75594229	-0.53326821	1.96648479
-0.75438750	-0.53466159	1.96649730
-0.75370759	-0.53474367	1.96650076
-0.75300556	-0.53482074	1.96650434
-0.75157225	-0.53493202	1.96651137
-0.75090051	-0.53609943	1.96651900
-0.75010264	-0.53664261	1.96652472
-0.74923134	-0.53713292	1.96653068
-0.74752367	-0.53819448	1.96654260
-0.74606377	-0.53983408	1.96655571
-0.74523169	-0.54010808	1.96656060
-0.74451244	-0.54040658	1.96656501
-0.74377030	-0.54070026	1.96656966
-0.74268103	-0.54241502	1.96658134
-0.74181312	-0.54208434	1.96658397
-0.74051285	-0.54338169	1.96659505
-0.73970807	-0.54336309	1.96659863
-0.73927963	-0.54416990	1.96660376
-0.73791361	-0.54429609	1.96661055
-0.73745745	-0.54487163	1.96661484
-0.73666507	-0.54564106	1.96662152
-0.73576021	-0.54638588	1.96662855
-0.73390472	-0.54734206	1.96664083
-0.73271334	-0.54728121	1.96664608
-0.73144311	-0.54914504	1.96665919
-0.72967035	-0.54955918	1.96666896
-0.72897959	-0.54990065	1.96667337
-0.72818214	-0.55044365	1.96667922
-0.72738791	-0.55016589	1.96668184
-0.72434133	-0.55106109	1.96669924
-0.72319603	-0.55082178	1.96670365
-0.72227335	-0.55126423	1.96670961
-0.72160077	-0.55190790	1.96671522
-0.72053719	-0.55280685	1.96672356
-0.71988726	-0.55345535	1.96672904
-0.71831882	-0.55645299	1.96674800
-0.71682662	-0.55815864	1.96676147
-0.71560776	-0.55786651	1.96676588
-0.71505398	-0.55857283	1.96677125
-0.71407557	-0.55926478	1.96677840
-0.71235842	-0.56163329	1.96679544
-0.71119869	-0.56247437	1.96680403
-0.71054143	-0.56256133	1.96680748
-0.70990235	-0.56295049	1.96681190
-0.70946223	-0.56349307	1.96681607
-0.70891547	-0.56476116	1.96682346
-0.70613575	-0.57075584	1.96685946
-0.70558232	-0.57146198	1.96686482
-0.70496190	-0.57267725	1.96687233
-0.70404625	-0.57368147	1.96688044
-0.70342577	-0.57489669	1.96688807
-0.70202953	-0.57613623	1.96689928
-0.70097399	-0.57812047	1.96691179
-0.70009875	-0.57943201	1.96692097
-0.69950098	-0.58065212	1.96692848
-0.69865906	-0.58170903	1.96693635
-0.69830447	-0.58256859	1.96694136
-0.69765419	-0.58321738	1.96694684
-0.69712961	-0.58396637	1.96695220
-0.69667649	-0.58443308	1.96695614
-0.69580400	-0.58660364	1.96696854
-0.69535094	-0.58707023	1.96697247
-0.69490457	-0.58757472	1.96697640
-0.69402575	-0.58970726	1.96698880
-0.68932617	-0.60094202	1.96705389
-0.68902731	-0.60155213	1.96705770
-0.68782002	-0.60372794	1.96707165
-0.68726617	-0.60443425	1.96707702
-0.62515825	-0.76547587	1.96798730
-0.62452346	-0.76777154	1.96799910
-0.62515891	-0.76820338	1.96799791
-0.62519592	-0.76933163	1.96800208
-0.62504447	-0.77004725	1.96800554
-0.62427527	-0.77160126	1.96801507
-0.62460023	-0.77237880	1.96801662
-0.62469280	-0.77325761	1.96801960
-0.62492162	-0.77397746	1.96802139
-0.62563103	-0.77446198	1.96801996
-0.62530959	-0.77506715	1.96802378
-0.62633693	-0.77576762	1.96802175
-0.62626648	-0.77709770	1.96802723
-0.62748188	-0.77821088	1.96802592
-0.62742698	-0.77898407	1.96802926
-0.62682915	-0.78020424	1.96803665
-0.62764096	-0.78078461	1.96803522
-0.62824339	-0.78147072	1.96803510
-0.62906337	-0.78313643	1.96803772
-0.62888694	-0.78519171	1.96804655
-0.62779373	-0.78772783	1.96806145
-0.62723643	-0.78925514	1.96806991
-0.62831485	-0.79000354	1.96806777
-0.62752587	-0.79215574	1.96807981
-0.62813920	-0.79258257	1.96807861
-0.62802827	-0.79360545	1.96808314
-0.62786162	-0.79487771	1.96808875
-0.62826520	-0.79541057	1.96808898
-0.62854147	-0.79699945	1.96809387
-0.62827218	-0.79817617	1.96809971
-0.62870413	-0.79875207	1.96809995
-0.62920374	-0.79934269	1.96809995
-0.62867528	-0.80091292	1.96810842
-0.62951005	-0.80149806	1.96810687
-0.63123477	-0.80241883	1.96810246
-0.62991744	-0.80393755	1.96811450
-0.63052607	-0.80466181	1.96811450
-0.63086683	-0.80611849	1.96811855
-0.63122851	-0.80678844	1.96811950
-0.63179737	-0.80772918	1.96812046
-0.63117385	-0.80879754	1.96812749
-0.63199002	-0.81004828	1.96812856
-0.63224101	-0.81077313	1.96813023
-0.63288391	-0.81176668	1.96813118
-0.63228571	-0.81298691	1.96813858
-0.63279200	-0.81361550	1.96813869
-0.63315004	-0.81413865	1.96813905
-0.63285112	-0.81474876	1.96814287
-0.63262618	-0.81541151	1.96814644
-0.63232797	-0.81654531	1.96815217
-0.63253433	-0.81726027	1.96815407
-0.63350558	-0.81821024	1.96815324
-0.63401157	-0.81883895	1.96815336
-0.63353163	-0.81959790	1.96815848
-0.63312536	-0.82040983	1.96816349
-0.63363129	-0.82103848	1.96816361
-0.63346928	-0.82201338	1.96816814
-0.63443720	-0.82378447	1.96817052
-0.63358444	-0.82510078	1.96817958
-0.63429737	-0.82696813	1.96818352
-0.63402450	-0.82896590	1.96819258
-0.63386226	-0.82994097	1.96819711
-0.63403964	-0.83061302	1.96819890
-0.63362283	-0.83168411	1.96820498
-0.63396370	-0.83242881	1.96820629
-0.63412517	-0.83313376	1.96820819
-0.63452375	-0.83396429	1.96820962
-0.63443565	-0.83499181	1.96821404
-0.63430297	-0.83653355	1.96822059
-0.63471276	-0.83710438	1.96822095
-0.63425684	-0.83891577	1.96823001
-0.63500887	-0.84004289	1.96823096
-0.63426316	-0.84115762	1.96823871
-0.63462865	-0.84224248	1.96824121
-0.63501662	-0.84333223	1.96824360
-0.63473970	-0.84465933	1.96825004
-0.63510209	-0.84585297	1.96825302
-0.63468528	-0.84692419	1.96825910
-0.63503981	-0.84826839	1.96826267
-0.63521725	-0.84894043	1.96826446
-0.63586009	-0.84993386	1.96826530
-0.63532490	-0.85146630	1.96827376
-0.63600832	-0.85276699	1.96827567
-0.63563621	-0.85384810	1.96828151
-0.63660330	-0.85509545	1.96828198
-0.63757467	-0.85604542	1.96828115
-0.63675189	-0.85792834	1.96829224
-0.63787067	-0.85898399	1.96829116
-0.63723242	-0.85989684	1.96829760
-0.63788587	-0.86063105	1.96829748
-0.63766664	-0.86204398	1.96830392
-0.63801539	-0.86263812	1.96830463
-0.63790911	-0.86336350	1.96830797
-0.63810915	-0.86404037	1.96830964
-0.63830876	-0.86471748	1.96831131
-0.63867337	-0.86527860	1.96831191
-0.63889557	-0.86596060	1.96831346
-0.63912445	-0.86668050	1.96831524
-0.63934660	-0.86736244	1.96831679
-0.63904774	-0.86797255	1.96832061
-0.63884497	-0.86864030	1.96832407
-0.63986802	-0.86963803	1.96832323
-0.63993806	-0.87051189	1.96832633
-0.63979834	-0.87149185	1.96833074
-0.64035136	-0.87246561	1.96833193
-0.64056265	-0.87340701	1.96833467
-0.64076889	-0.87412196	1.96833646
-0.64051509	-0.87474173	1.96834004
-0.64064080	-0.87536621	1.96834195
-0.64056998	-0.87617236	1.96834528
-0.64051574	-0.87746930	1.96835065
-0.64061475	-0.87838614	1.96835375
-0.64048582	-0.87910658	1.96835709
-0.64055622	-0.87998033	1.96836019
-0.64009857	-0.88074440	1.96836519
-0.64022464	-0.88136864	1.96836710
-0.64084417	-0.88183355	1.96836603
-0.64108431	-0.88281780	1.96836877
-0.64064485	-0.88388407	1.96837485
-0.64029461	-0.88444632	1.96837866
-0.64067560	-0.88497436	1.96837902
-0.64047945	-0.88567996	1.96838260
-0.64080310	-0.88664597	1.96838486
-0.64115185	-0.88724005	1.96838558
-0.64071047	-0.88797104	1.96839046
-0.64126116	-0.88860959	1.96839035
-0.64168262	-0.88944489	1.96839166
-0.64183944	-0.89044726	1.96839488
-0.64205611	-0.89161503	1.96839833
-0.64258581	-0.89206016	1.96839762
-0.64211524	-0.89274830	1.96840250
-0.64264500	-0.89319342	1.96840179
-0.64322478	-0.89387470	1.96840167
-0.64287454	-0.89443696	1.96840549
-0.64363146	-0.89579058	1.96840727
-0.64338267	-0.89663678	1.96841168
-0.64441836	-0.89771050	1.96841109
-0.64461833	-0.89838755	1.96841276
-0.64537919	-0.89891982	1.96841133
-0.64491057	-0.89994335	1.96841753
-0.64499187	-0.90055770	1.96841943
-0.64579314	-0.90139723	1.96841908
-0.64560914	-0.90289122	1.96842563
-0.64622241	-0.90331799	1.96842456
-0.64734864	-0.90493518	1.96842563
-0.64706844	-0.90637130	1.96843243
-0.64758527	-0.90674055	1.96843147
-0.64737183	-0.90766758	1.96843612
-0.64811009	-0.90819514	1.96843469
-0.64790738	-0.90886283	1.96843827
-0.64857173	-0.90933770	1.96843708
-0.64906317	-0.91104674	1.96844137
-0.64959162	-0.91168028	1.96844137
-0.64987260	-0.91297162	1.96844506
-0.64981771	-0.91374487	1.96844840
-0.65087360	-0.91448838	1.96844637
-0.65102208	-0.91511744	1.96844816
-0.65190798	-0.91575062	1.96844649
-0.65258420	-0.91648948	1.96844625
-0.65343773	-0.91790056	1.96844780
-0.65313876	-0.91851068	1.96845150
-0.65364546	-0.91966301	1.96845365
-0.65380031	-0.92033017	1.96845555
-0.65456104	-0.92086256	1.96845412
-0.65462029	-0.92199588	1.96845818
-0.65601659	-0.92296010	1.96845555
-0.65661514	-0.92446756	1.96845865
-0.65644151	-0.92517811	1.96846211
-0.65824711	-0.92742532	1.96846259
-0.65822220	-0.92805296	1.96846509
-0.65851843	-0.92878771	1.96846664
-0.65920526	-0.92926741	1.96846533
-0.65930879	-0.92988670	1.96846724
-0.65975982	-0.93128860	1.96847057
-0.66061330	-0.93269968	1.96847212
-0.66132969	-0.93374610	1.96847284
-0.66197258	-0.93473953	1.96847379
-0.66195810	-0.93581998	1.96847796
-0.66192544	-0.93659824	1.96848118
-0.66256756	-0.93706793	1.96847999
-0.66276717	-0.93774509	1.96848178
-0.66327316	-0.93837368	1.96848178
-0.66378987	-0.93874294	1.96848083
-0.66401243	-0.93942469	1.96848249
-0.66403115	-0.94025081	1.96848559
-0.66461110	-0.94093215	1.96848559
-0.66517258	-0.94131130	1.96848452
-0.66537881	-0.94202626	1.96848631
-0.66688329	-0.94331241	1.96848428
-0.66660231	-0.94422489	1.96848917
-0.66705686	-0.94480562	1.96848929
-0.66762507	-0.94522274	1.96848834
-0.66818666	-0.94560182	1.96848726
-0.66848940	-0.94637442	1.96848881
-0.66898865	-0.94696516	1.96848881
-0.66967595	-0.94744468	1.96848750
-0.67030680	-0.94817400	1.96848738
-0.67094231	-0.94860584	1.96848619
-0.67097932	-0.94973409	1.96849036
-0.67219460	-0.95084733	1.96848905
-0.67297792	-0.95138454	1.96848750
-0.67372787	-0.95217633	1.96848714
-0.67388356	-0.95336729	1.96849108
-0.67436689	-0.95399100	1.96849120
-0.67510587	-0.95504224	1.96849191
-0.67551565	-0.95561308	1.96849227
-0.67636913	-0.95702422	1.96849382
-0.67779505	-0.95855510	1.96849310
-0.67807591	-0.95984644	1.96849680
-0.67882586	-0.96063828	1.96849644
-0.68000805	-0.96200585	1.96849632
-0.68057704	-0.96294659	1.96849740
-0.68105763	-0.96491504	1.96850276
-0.68115026	-0.96579385	1.96850574
-0.68220633	-0.96653718	1.96850371
-0.68309289	-0.96769398	1.96850419
-0.68294150	-0.96840966	1.96850765
-0.68435687	-0.97019976	1.96850801
-0.68395066	-0.97101164	1.96851301
-0.68485922	-0.97164941	1.96851134
-0.68501490	-0.97284019	1.96851528
-0.68560535	-0.97326237	1.96851420
-0.68621862	-0.97368914	1.96851301
-0.68632215	-0.97430855	1.96851492
-0.68707204	-0.97510028	1.96851456
-0.68744171	-0.97588789	1.96851587
-0.68764174	-0.97656482	1.96851754
-0.68874931	-0.97735590	1.96851552
-0.68888235	-0.97854191	1.96851957
-0.68989855	-0.97950196	1.96851861
-0.69121736	-0.98123443	1.96851921
-0.69123644	-0.98206037	1.96852231
-0.69216722	-0.98270327	1.96852052
-0.69294679	-0.98406172	1.96852219
-0.69302768	-0.98467606	1.96852422
-0.69293970	-0.98570365	1.96852863
-0.69370759	-0.98679787	1.96852934
-0.69429159	-0.98718190	1.96852815
-0.69516331	-0.98889518	1.96853077
-0.69567001	-0.99004757	1.96853280
-0.69572920	-0.99118084	1.96853697
-0.69668925	-0.99186647	1.96853518
-0.69647121	-0.99309093	1.96854091
-0.69720286	-0.99358058	1.96853948
-0.69828868	-0.99489045	1.96853960
-0.69830763	-0.99571645	1.96854270
-0.69822371	-0.99644691	1.96854591
-0.69931960	-0.99697375	1.96854293
-0.69877380	-0.99876535	1.96855235
-0.69982964	-0.99950880	1.96855032
-0.70044303	-0.99993563	1.96854913
-0.70021147	-1.00056064	1.96855271
-0.70083100	-1.00102532	1.96855164
-0.70115590	-1.00180292	1.96855319
-0.70153302	-1.00315225	1.96855664
-0.70203537	-1.00460184	1.96855998
-0.70225406	-1.00610483	1.96856475
-0.70313978	-1.00673783	1.96856308
-0.70343244	-1.00829363	1.96856785
-0.70387173	-1.00943112	1.96857023
-0.70438576	-1.01114511	1.96857452
-0.70493215	-1.01208091	1.96857560
-0.70470059	-1.01270580	1.96857905
-0.70490682	-1.01342082	1.96858084
-0.70542365	-1.01379001	1.96857989
-0.70572680	-1.01508653	1.96858358
-0.70541734	-1.01595581	1.96858835
-0.70600778	-1.01637793	1.96858728
-0.70662105	-1.01680458	1.96858609
-0.70734912	-1.01811540	1.96858788
-0.70712423	-1.01877809	1.96859145
-0.70730126	-1.01945031	1.96859324
-0.70820612	-1.02090919	1.96859467
-0.70859861	-1.02170146	1.96859598
-0.70900816	-1.02227247	1.96859634
-0.70911157	-1.02289200	1.96859825
-0.70965797	-1.02382779	1.96859932
-0.70962566	-1.02460587	1.96860254
-0.71047831	-1.02549314	1.96860206
-0.71129131	-1.02659714	1.96860254
-0.71139479	-1.02721655	1.96860445
-0.71214086	-1.02882957	1.96860731
-0.71227425	-1.03001535	1.96861124
-0.71299070	-1.03106165	1.96861207
-0.71398461	-1.03201663	1.96861112
-0.71565789	-1.03360164	1.96860957
-0.71552140	-1.03472841	1.96861458
-0.71590203	-1.03525662	1.96861482
-0.71837306	-1.03629839	1.96860754
-0.71796727	-1.03860188	1.96861827
-0.71920818	-1.03961122	1.96861649
-0.71940815	-1.04028821	1.96861815
-0.71987009	-1.04143047	1.96862054
-0.72044629	-1.04196513	1.96861994
-0.72115403	-1.04237020	1.96861827
-0.72258335	-1.04308009	1.96861446
-0.72448570	-1.04467297	1.96861184
-0.72417694	-1.04606593	1.96861863
-0.72427028	-1.04746842	1.96862364
-0.72505987	-1.04804373	1.96862221
-0.72577691	-1.04837787	1.96862018
-0.72566509	-1.04958892	1.96862543
-0.72766066	-1.05038071	1.96861935
-0.72971076	-1.05207896	1.96861649
-0.73012489	-1.05455613	1.96862411
-0.73020244	-1.05527973	1.96862662
-0.73084205	-1.05612636	1.96862698
-0.73120540	-1.05687582	1.96862817
-0.73178655	-1.05736876	1.96862733
-0.73216414	-1.05800569	1.96862817
-0.73240638	-1.05906951	1.96863115
-0.73283660	-1.05956578	1.96863103
-0.73280728	-1.06023514	1.96863377
-0.73286474	-1.06103289	1.96863663
-0.73337501	-1.06136429	1.96863556
-0.73352981	-1.06203151	1.96863747
-0.73373610	-1.06274641	1.96863925
-0.73456544	-1.06310523	1.96863687
-0.73537236	-1.06345904	1.96863449
-0.73536748	-1.06446850	1.96863842
-0.73595500	-1.06474352	1.96863675
-0.73572975	-1.06540644	1.96864033
-0.73640072	-1.06591904	1.96863925
-0.73660767	-1.06715775	1.96864307
-0.73719633	-1.06750035	1.96864176
-0.73724091	-1.06822217	1.96864438
-0.73777908	-1.06878483	1.96864402
-0.73774004	-1.06952500	1.96864712
-0.73801363	-1.07025480	1.96864867
-0.73902935	-1.07069099	1.96864569
-0.73918420	-1.07135808	1.96864748
-0.74048477	-1.07278848	1.96864712
-0.74026185	-1.07378650	1.96865201
-0.74003482	-1.07436991	1.96865523
-0.74064976	-1.07487631	1.96865439
-0.74047589	-1.07558703	1.96865797
-0.74122375	-1.07604361	1.96865630
-0.74176317	-1.07641757	1.96865523
-0.74174339	-1.07727182	1.96865869
-0.74221408	-1.07781947	1.96865857
-0.74293059	-1.07886589	1.96865940
-0.74347001	-1.07923985	1.96865833
-0.74346638	-1.08006084	1.96866155
-0.74390656	-1.08172226	1.96866596
-0.74431604	-1.08229315	1.96866632
-0.74426109	-1.08306646	1.96866953
-0.74459696	-1.08358455	1.96867001
-0.74491090	-1.08462167	1.96867251
-0.74495250	-1.08545256	1.96867561
-0.74531066	-1.08597565	1.96867597
-0.74512613	-1.08694565	1.96868062
-0.74592739	-1.08778524	1.96868014
-0.74634886	-1.08862054	1.96868145
-0.74671847	-1.08940804	1.96868277
-0.74689603	-1.09008002	1.96868455
-0.74679589	-1.09084344	1.96868801
-0.74735785	-1.09122252	1.96868682
-0.74757546	-1.09220195	1.96868968
-0.74787891	-1.09349835	1.96869326
-0.74851090	-1.09475124	1.96869528
-0.74934530	-1.09533644	1.96869361
-0.75029171	-1.09762609	1.96869814
-0.75021029	-1.09921551	1.96870470
-0.75099015	-1.10057378	1.96870637
-0.75083876	-1.10128951	1.96870983
-0.75103486	-1.10278773	1.96871471
-0.75092393	-1.10381043	1.96871924
-0.75127149	-1.10459292	1.96872067
-0.75144541	-1.10608602	1.96872568
-0.75135702	-1.10711372	1.96872997
-0.75135350	-1.10793471	1.96873319
-0.75192243	-1.10887551	1.96873426
-0.75166392	-1.10979271	1.96873903
-0.75255048	-1.11094952	1.96873939
-0.75270963	-1.11352324	1.96874869
-0.75278002	-1.11439693	1.96875167
-0.75237012	-1.11602998	1.96875989
-0.75340807	-1.11647105	1.96875679
-0.75361156	-1.11853075	1.96876395
-0.75421393	-1.11921692	1.96876383
-0.75394475	-1.12039375	1.96876955
-0.75390762	-1.12146926	1.96877396
-0.75469106	-1.12200642	1.96877241
-0.75435132	-1.12451327	1.96878362
-0.75573701	-1.12573671	1.96878207
-0.75625807	-1.12801242	1.96878850
-0.75584829	-1.12964547	1.96879661
-0.75587428	-1.13103294	1.96880198
-0.75582290	-1.13318908	1.96881056
-0.75539863	-1.13590240	1.96882296
-0.75531763	-1.13749170	1.96882951
-0.75530314	-1.13857210	1.96883380
-0.75511867	-1.13954222	1.96883833
-0.75521129	-1.14042091	1.96884131
-0.75460249	-1.14410436	1.96885848
-0.75488311	-1.14539587	1.96886218
-0.75479126	-1.14724457	1.96886981
-0.73429054	-1.20766211	1.96919835
-0.73397684	-1.20935273	1.96920633
-0.73491865	-1.20973611	1.96920347
-0.73454225	-1.21111441	1.96921062
-0.73554355	-1.21263099	1.96921182
-0.73585761	-1.21366811	1.96921444
-0.73619497	-1.21523368	1.96921897
-0.73570770	-1.21763492	1.96923053
-0.73650819	-1.21795082	1.96922803
-0.73635328	-1.21948743	1.96923470
-0.73605508	-1.22062111	1.96924043
-0.73650974	-1.22120202	1.96924067
-0.73665375	-1.22212863	1.96924353
-0.73714828	-1.22249281	1.96924269
-0.73706836	-1.22363794	1.96924746
-0.73854911	-1.22439575	1.96924365
-0.73854566	-1.22521663	1.96924686
-0.73838711	-1.22757435	1.96925664
-0.73909652	-1.22805882	1.96925533
-0.73900080	-1.23072886	1.96926606
-0.73971021	-1.23121345	1.96926463
-0.73946339	-1.23459876	1.96927893
-0.73937505	-1.23562646	1.96928334
-0.73924261	-1.23716795	1.96928990
-0.73989642	-1.23790193	1.96928978
-0.73991513	-1.23872817	1.96929288
-0.74026269	-1.23951066	1.96929431
-0.74177688	-1.24001372	1.96928930
-0.74190986	-1.24119973	1.96929324
-0.74190283	-1.24284184	1.96929967
-0.74142730	-1.24550736	1.96931219
-0.74139023	-1.24658287	1.96931648
-0.74176019	-1.24737036	1.96931791
-0.74235880	-1.24887764	1.96932089
-0.74228132	-1.24964595	1.96932423
-0.74206895	-1.25038481	1.96932817
-0.74237037	-1.25134587	1.96933043
-0.74218792	-1.25265121	1.96933639
-0.74315709	-1.25326598	1.96933424
-0.74324614	-1.25496566	1.96934044
-0.74298429	-1.25670409	1.96934843
-0.74283922	-1.25745773	1.96935201
-0.74273920	-1.25822103	1.96935546
-0.74297619	-1.26002610	1.96936131
-0.74327284	-1.26128459	1.96936488
-0.74330539	-1.26271033	1.96937025
-0.74300295	-1.26414132	1.96937716
-0.74269372	-1.26553476	1.96938396
-0.74347705	-1.26607192	1.96938241
-0.74368048	-1.26813173	1.96938944
-0.74345177	-1.26961553	1.96939623
-0.74379182	-1.27204037	1.96940410
-0.74363685	-1.27357697	1.96941078
-0.74425006	-1.27400386	1.96940958
-0.74205440	-1.28258634	1.96945298
-0.74076670	-1.28907931	1.96948409
-0.74046052	-1.29133141	1.96949422
-0.74044609	-1.29241180	1.96949852
-0.74024701	-1.29446232	1.96950734
-0.73912489	-1.29915941	1.96953070
-0.73581815	-1.31438315	1.96960497
-0.73293483	-1.32196212	1.96964765
-0.70923173	-1.32619750	1.96977329
-0.70315957	-1.32597756	1.96980035
-0.70111680	-1.32484102	1.96980536
-0.69958729	-1.32269073	1.96980405
-0.70796442	-1.31349373	1.96972990
-0.68965489	-1.28646564	1.96970940
-0.68917459	-1.28449702	1.96970403
-0.69063288	-1.28304601	1.96969163
-0.68752325	-1.26891458	1.96965122
-0.68553919	-1.26618361	1.96964979
-0.68493694	-1.26549733	1.96964991
-0.68181568	-1.26140857	1.96964848
-0.68184477	-1.25924778	1.96963990
-0.67887843	-1.25582600	1.96964037
-0.67837244	-1.25519729	1.96964025
-0.67913604	-1.25438499	1.96963358
-0.67441940	-1.24917865	1.96963513
-0.67384249	-1.24715257	1.96962988
-0.67414141	-1.24654245	1.96962619
-0.66556746	-1.23705518	1.96962893
-0.66428900	-1.23562968	1.96962929
-0.66370928	-1.23494840	1.96962929
-0.66246420	-1.23326862	1.96962857
-0.66167378	-1.23216963	1.96962798
-0.66026306	-1.23008204	1.96962631
