//X	Y	Z
-0.78038734	-0.44558787	4.22747469
-0.78116065	-0.44695160	4.22747421
-0.78470695	-0.46226060	4.22747278
-0.78465998	-0.46359482	4.22747278
-0.78410876	-0.46841294	4.22747278
-0.78381544	-0.47313207	4.22747231
-0.78278035	-0.47953057	4.22747183
-0.78170711	-0.48207363	4.22747183
-0.78030914	-0.48629272	4.22747135
-0.77962077	-0.48745024	4.22747135
-0.77714324	-0.49339998	4.22747087
-0.77691144	-0.49406862	4.22747087
-0.77647454	-0.49431479	4.22747087
-0.77394480	-0.49912518	4.22747087
-0.77164078	-0.50245440	4.22747087
-0.76985282	-0.50558543	4.22747040
-0.76764256	-0.50624633	4.22747040
-0.76662195	-0.50992858	4.22747040
-0.76325989	-0.51142359	4.22747040
-0.76226008	-0.51320195	4.22747040
-0.76085025	-0.51413524	4.22747040
-0.76069796	-0.51485181	4.22747040
-0.75844699	-0.51765925	4.22747040
-0.75734138	-0.51882029	4.22747040
-0.75618964	-0.51965439	4.22747040
-0.75329643	-0.52394623	4.22746992
-0.75242257	-0.52443856	4.22746992
-0.75032336	-0.52819043	4.22746992
-0.74758244	-0.53176582	4.22746992
-0.74471623	-0.53496623	4.22746944
-0.74364311	-0.53750932	4.22746944
-0.74313313	-0.53851998	4.22746944
-0.74298596	-0.54171008	4.22746897
-0.74201334	-0.54239708	4.22746897
-0.74090767	-0.54355800	4.22746897
-0.74017197	-0.54604989	4.22746897
-0.73994011	-0.54671866	4.22746897
-0.73933101	-0.54792410	4.22746897
-0.73804665	-0.54923213	4.22746897
-0.73235589	-0.71134359	4.22745705
-0.73561728	-0.74232054	4.22745466
-0.73721749	-0.74452621	4.22745419
-0.74040377	-0.75165349	4.22745371
-0.74248761	-0.75227898	4.22745323
-0.74411482	-0.75339323	4.22745323
-0.74417889	-0.75781846	4.22745275
-0.74495876	-0.75999451	4.22745275
-0.74637413	-0.76153457	4.22745275
-0.74666452	-0.76281774	4.22745228
-0.74908519	-0.76505291	4.22745228
-0.75116026	-0.77086776	4.22745180
-0.75307178	-0.77245259	4.22745132
-0.75524068	-0.77559924	4.22745085
-0.75701958	-0.77765793	4.22745085
-0.75879943	-0.77805549	4.22745085
-0.75885153	-0.77919483	4.22745037
-0.75998878	-0.78107703	4.22745037
-0.76228416	-0.78293729	4.22744989
-0.76545852	-0.78677893	4.22744989
-0.76693308	-0.78860986	4.22744942
-0.76771289	-0.79078597	4.22744942
-0.76793706	-0.82158196	4.22744703
-0.76784891	-0.82672358	4.22744656
-0.76837605	-0.83147228	4.22744608
-0.76901513	-0.83765090	4.22744560
-0.76940507	-0.83873892	4.22744560
-0.76953673	-0.83992612	4.22744560
-0.76949811	-0.85220921	4.22744465
-0.76970291	-0.85263187	4.22744465
-0.77004611	-0.85505390	4.22744417
-0.77035660	-0.85609424	4.22744417
-0.77048570	-0.86328340	4.22744370
-0.77056426	-0.86499232	4.22744370
-0.77100730	-0.86555868	4.22744370
-0.77109224	-0.86807990	4.22744322
-0.77184510	-0.87134743	4.22744322
-0.77193618	-0.87468123	4.22744274
-0.77217549	-0.88662243	4.22744179
-0.77388132	-0.88944560	4.22744131
-0.77515054	-0.89251471	4.22744131
-0.77561963	-0.89365077	4.22744131
-0.77583086	-0.89488590	4.22744083
-0.77621460	-0.89516127	4.22744083
-0.77821088	-0.89926755	4.22744036
-0.77834290	-0.90045464	4.22744036
-0.77842146	-0.90216351	4.22744036
-0.77935356	-0.90362310	4.22744036
-0.78002781	-0.90518165	4.22743988
-0.78080761	-0.90735781	4.22743988
-0.78101271	-0.90778023	4.22743988
-0.78199732	-0.91037905	4.22743940
-0.78391981	-0.91691071	4.22743893
-0.78430974	-0.91799879	4.22743893
-0.78555262	-0.92049837	4.22743845
-0.78768623	-0.92826498	4.22743797
-0.78818178	-0.92997062	4.22743797
-0.78849220	-0.93101084	4.22743750
-0.78883511	-0.93343312	4.22743750
-0.78945625	-0.93551332	4.22743750
-0.78998423	-0.93860102	4.22743702
-0.79022157	-0.94040573	4.22743702
-0.79035330	-0.94159293	4.22743654
-0.79048526	-0.94277990	4.22743654
-0.79157543	-0.94599628	4.22743654
-0.79202300	-0.95069718	4.22743607
-0.79233980	-0.95254970	4.22743607
-0.79270917	-0.95554149	4.22743559
-0.79286718	-0.95729816	4.22743559
-0.79295844	-0.96063203	4.22743511
-0.79341781	-0.96861863	4.22743464
-0.79166931	-1.00188005	4.22743225
-0.79032385	-1.00723839	4.22743177
-0.78834176	-1.01489377	4.22743130
-0.78538704	-1.02323604	4.22743082
-0.78181052	-1.03115892	4.22743034
-0.77419436	-1.04668140	4.22742987
-0.76779199	-1.05565846	4.22742939
-0.76535594	-1.05780053	4.22742939
-0.75655389	-1.06263852	4.22742939
-0.74984980	-1.06538582	4.22742939
-0.71999717	-1.07619357	4.22743034
-0.71521908	-1.07780945	4.22743034
-0.71183097	-1.07873487	4.22743034
-0.70740414	-1.07924414	4.22743082
-0.69972193	-1.08020520	4.22743130
-0.68797636	-1.08219385	4.22743130
-0.52799773	-1.12768865	4.22743654
-0.52604556	-1.12825036	4.22743654
-0.51785272	-1.13188291	4.22743654
-0.51546371	-1.13269091	4.22743654
-0.51122808	-1.13467801	4.22743654
-0.50742948	-1.13641906	4.22743702
-0.50650257	-1.13743317	4.22743654
-0.50200880	-1.13951957	4.22743702
-0.48785359	-1.14421976	4.22743702
-0.48734397	-1.14523041	4.22743702
-0.48559660	-1.14621472	4.22743702
-0.48009726	-1.14760625	4.22743750
-0.46863639	-1.15006542	4.22743797
-0.45002252	-1.15223217	4.22743845
-0.44236022	-1.15295005	4.22743893
-0.43896565	-1.15306330	4.22743893
-0.42258954	-1.15347767	4.22743988
-0.32028794	-1.15573013	4.22744513
-0.31820410	-1.15510464	4.22744513
-0.26011953	-1.13294768	4.22744989
-0.23086920	-1.11380148	4.22745275
-0.22903720	-1.11226451	4.22745275
-0.22524117	-1.10800362	4.22745371
-0.19880293	-1.07438099	4.22745752
-0.19324856	-1.06615770	4.22745848
-0.18872064	-1.05672538	4.22745943
-0.18853548	-1.05606008	4.22745943
-0.18775567	-1.05388391	4.22745943
-0.18107310	-1.03858888	4.22746086
-0.18070371	-1.03559697	4.22746134
-0.18044038	-1.03322268	4.22746134
-0.18032929	-1.03013158	4.22746181
-0.18029675	-1.02874970	4.22746181
-0.18031740	-1.02684593	4.22746181
-0.11912537	-0.86768836	4.22747707
-0.11724081	-0.86501217	4.22747707
-0.11605049	-0.86365181	4.22747755
-0.11519762	-0.86224020	4.22747755
-0.11357137	-0.85946488	4.22747803
-0.11235458	-0.85753495	4.22747803
-0.11111177	-0.85503531	4.22747850
-0.10849442	-0.84884882	4.22747898
-0.10460786	-0.83959323	4.22747993
-0.10440306	-0.83917046	4.22747993
-0.10238044	-0.83449471	4.22748041
-0.10119624	-0.83394682	4.22748041
-0.09845884	-0.82985914	4.22748089
-0.09597957	-0.82567221	4.22748137
-0.09561577	-0.82515389	4.22748137
-0.09375732	-0.82304740	4.22748184
-0.09326826	-0.82215416	4.22748184
-0.09225664	-0.82064670	4.22748184
-0.08773383	-0.81368792	4.22748280
-0.08497549	-0.81150413	4.22748280
-0.08301178	-0.80877995	4.22748327
-0.08234368	-0.80803388	4.22748327
-0.08115333	-0.80667347	4.22748327
-0.07948004	-0.80523241	4.22748375
-0.07893752	-0.80486095	4.22748375
-0.07780035	-0.80297887	4.22748375
-0.07539970	-0.80050087	4.22748423
-0.07397816	-0.79814827	4.22748470
-0.07312526	-0.79673660	4.22748470
-0.07180937	-0.79500157	4.22748470
-0.07160455	-0.79457891	4.22748470
-0.06956096	-0.79180706	4.22748518
-0.06850331	-0.78997272	4.22748518
-0.06813946	-0.78945434	4.22748566
-0.06607626	-0.78692520	4.22748566
-0.06294250	-0.78093708	4.22748661
-0.05613723	-0.75926507	4.22748852
-0.05998086	-0.74605334	4.22748899
-0.06273632	-0.73976171	4.22748947
-0.11638546	-0.57582289	4.22749901
-0.11617425	-0.57458782	4.22749901
-0.11557919	-0.57307732	4.22749901
-0.11497296	-0.56828058	4.22749949
-0.11390881	-0.56563395	4.22749996
-0.11395550	-0.56429994	4.22749996
-0.11295027	-0.56360483	4.22749996
-0.11090766	-0.55917192	4.22750044
-0.11088160	-0.55860227	4.22750044
-0.11064394	-0.55679768	4.22750092
-0.11035968	-0.55632716	4.22750092
-0.10929553	-0.55368054	4.22750092
-0.10655200	-0.54878020	4.22750139
-0.10387315	-0.54664421	4.22750187
-0.10384712	-0.54607457	4.22750187
-0.10193557	-0.54448974	4.22750187
-0.10036145	-0.54285383	4.22750235
-0.09749746	-0.54005241	4.22750282
-0.09729269	-0.53962970	4.22750282
-0.09646587	-0.53878784	4.22750282
-0.09272324	-0.53400505	4.22750330
-0.09279636	-0.53324044	4.22750330
-0.09269074	-0.53262299	4.22750330
-0.09230691	-0.53234744	4.22750330
-0.09173220	-0.53059387	4.22750378
-0.09088540	-0.52999485	4.22750378
-0.08951089	-0.52630794	4.22750425
-0.08808292	-0.52314293	4.22750425
-0.08803079	-0.52200365	4.22750425
-0.08668233	-0.51888639	4.22750473
-0.08522283	-0.51267838	4.22750521
-0.08467478	-0.50983357	4.22750568
-0.08474788	-0.50906903	4.22750568
-0.08446361	-0.50859857	4.22750568
-0.08441146	-0.50745916	4.22750568
-0.08432643	-0.50493795	4.22750616
-0.08321528	-0.50362551	4.22750616
-0.08421274	-0.49337137	4.22750664
-0.09872197	-0.34831980	4.22751713
-0.09904781	-0.34498274	4.22751713
-0.09888360	-0.34241343	4.22751760
-0.09886071	-0.33418086	4.22751808
-0.09767935	-0.32763070	4.22751856
-0.09795269	-0.32315445	4.22751904
-0.09838673	-0.31443292	4.22751951
-0.10530639	-0.25850299	4.22752333
-0.12981030	-0.22375599	4.22752476
-0.13247812	-0.22094512	4.22752476
-0.13632378	-0.21786985	4.22752476
-0.14551058	-0.21164635	4.22752476
-0.17173079	-0.21528548	4.22752333
-0.17613602	-0.21834090	4.22752285
-0.17588425	-0.21925247	4.22752285
-0.17681020	-0.21989948	4.22752237
-0.17974728	-0.22193635	4.22752237
-0.18192220	-0.22589558	4.22752190
-0.18546036	-0.23025548	4.22752142
-0.18585029	-0.23134354	4.22752142
-0.18759665	-0.23202011	4.22752094
-0.18942872	-0.23355713	4.22752094
-0.19033504	-0.23444685	4.22752094
-0.19190887	-0.23608303	4.22752047
-0.19211394	-0.23650545	4.22752047
-0.19366166	-0.23757192	4.22752047
-0.19536749	-0.24039510	4.22751999
-0.19815198	-0.24314865	4.22751951
-0.19932166	-0.24641272	4.22751951
-0.20017454	-0.24782431	4.22751904
-0.20464391	-0.25530496	4.22751856
-0.20694536	-0.25797778	4.22751808
-0.20699790	-0.25911701	4.22751808
-0.20690382	-0.26178542	4.22751808
-0.21138859	-0.26488870	4.22751760
-0.21381561	-0.26793629	4.22751713
-0.21297982	-0.27228403	4.22751665
-0.21443382	-0.27601871	4.22751617
-0.21487623	-0.27824596	4.22751617
-0.21518666	-0.27928618	4.22751617
-0.21707115	-0.28196231	4.22751570
-0.21926092	-0.28320512	4.22751570
-0.22073551	-0.28503612	4.22751522
-0.22641000	-0.29116067	4.22751474
-0.22634208	-0.29439878	4.22751427
-0.22822750	-0.29541394	4.22751427
-0.22866996	-0.29764116	4.22751427
-0.22821850	-0.30060354	4.22751379
-0.22827101	-0.30174279	4.22751379
-0.23090287	-0.30521303	4.22751331
-0.23027818	-0.31079584	4.22751284
-0.23083271	-0.31445298	4.22751284
-0.23193738	-0.31495303	4.22751236
-0.23240645	-0.31608909	4.22751236
-0.23292199	-0.31755179	4.22751236
-0.23359619	-0.31911033	4.22751236
-0.23188686	-0.32395032	4.22751188
-0.23447262	-0.32709375	4.22751141
-0.23523185	-0.33117348	4.22751141
-0.23515777	-0.33359909	4.22751093
-0.23634814	-0.33495954	4.22751093
-0.23820658	-0.33706602	4.22751045
-0.23786660	-0.34311923	4.22750998
-0.24316275	-0.35144165	4.22750902
-0.24400117	-0.35556951	4.22750902
-0.24383342	-0.36066332	4.22750854
-0.24603479	-0.36519209	4.22750807
-0.24739735	-0.36559311	4.22750807
-0.25028741	-0.36896420	4.22750759
-0.25006813	-0.37125781	4.22750759
-0.25091457	-0.37185699	4.22750711
-0.25076842	-0.37338603	4.22750711
-0.25099960	-0.37437823	4.22750711
-0.25352681	-0.37556991	4.22750711
-0.25348523	-0.37937748	4.22750664
-0.25352326	-0.38323295	4.22750616
-0.25558645	-0.38576210	4.22750616
-0.25675070	-0.38655290	4.22750616
-0.25677678	-0.38712257	4.22750568
-0.25742492	-0.38811144	4.22750568
-0.25913072	-0.39093456	4.22750568
-0.25993663	-0.39368045	4.22750521
-0.26289979	-0.39628696	4.22750473
-0.26530039	-0.39876503	4.22750473
-0.26741701	-0.40077227	4.22750425
-0.26968509	-0.40372413	4.22750378
-0.26945931	-0.40520537	4.22750378
-0.26982313	-0.40572375	4.22750378
-0.27150291	-0.40797722	4.22750378
-0.41955215	-0.44863296	4.22749281
-0.44897300	-0.45668307	4.22749090
-0.45147377	-0.45730525	4.22749043
-0.45175198	-0.45696318	4.22749043
-0.45921496	-0.45829594	4.22748995
-0.46559933	-0.45969823	4.22748947
-0.46865618	-0.45963654	4.22748947
-0.46909308	-0.45939034	4.22748947
-0.47326198	-0.45897999	4.22748947
-0.47382408	-0.45910868	4.22748947
-0.47426105	-0.45886254	4.22748947
-0.47979254	-0.45885333	4.22748899
-0.61527377	-0.47685412	4.22748041
-0.61807340	-0.47523046	4.22748041
-0.62594074	-0.47493497	4.22748041
-0.63039649	-0.46899313	4.22748041
-0.63111222	-0.46674410	4.22748041
-0.63785404	-0.46785241	4.22747993
-0.64007884	-0.46447521	4.22748041
-0.64301008	-0.46403882	4.22747993
-0.64537305	-0.46266127	4.22747993
-0.65173948	-0.45996526	4.22747993
-0.65404344	-0.45663610	4.22747993
-0.65651196	-0.45587599	4.22747993
-0.65766430	-0.45338097	4.22748041
-0.66127259	-0.44850096	4.22748041
-0.66383487	-0.44507262	4.22748041
-0.67079681	-0.44222635	4.22748041
-0.67255843	-0.43852580	4.22748041
-0.67486787	-0.43767005	4.22748041
-0.67597347	-0.43650904	4.22748041
-0.67816579	-0.43174979	4.22748089
-0.68356562	-0.43055332	4.22748041
-0.68742287	-0.43076402	4.22748041
-0.68832278	-0.43084136	4.22748041
-0.69071823	-0.43084583	4.22748041
-0.69412696	-0.42801672	4.22748041
-0.69721073	-0.42686364	4.22747993
-0.70255744	-0.42618883	4.22747993
-0.70422530	-0.42515650	4.22747993
-0.71098804	-0.42436093	4.22747946
-0.71394527	-0.42449424	4.22747946
-0.71772337	-0.42465690	4.22747946
-0.72367120	-0.42630520	4.22747898
-0.72449148	-0.42633474	4.22747898
-0.72601318	-0.42683151	4.22747850
-0.73104918	-0.42511669	4.22747850
-0.73410624	-0.42505476	4.22747850
-0.73578024	-0.42483506	4.22747850
-0.74092209	-0.42373753	4.22747803
-0.74858987	-0.42549288	4.22747755
-0.75257915	-0.42689058	4.22747707
-0.77532840	-0.43907014	4.22747517
-0.77842325	-0.44286388	4.22747469
