//X	Y	Z
-0.16476721	-0.23550732	4.44248152
-0.17346747	-0.23686644	4.44248104
-0.17691426	-0.23789267	4.44248056
-0.18006252	-0.24116458	4.44248056
-0.18181500	-0.24265365	4.44248056
-0.18514200	-0.24577852	4.44248009
-0.18596843	-0.24662070	4.44248009
-0.18831681	-0.24795945	4.44248009
-0.18842159	-0.25023779	4.44248009
-0.19087555	-0.25219423	4.44247961
-0.19388577	-0.25346634	4.44247961
-0.19368616	-0.25551724	4.44247961
-0.19577633	-0.25695524	4.44247961
-0.19590838	-0.25814226	4.44247961
-0.19869253	-0.26089585	4.44247913
-0.20125763	-0.26594311	4.44247913
-0.20236237	-0.26644304	4.44247913
-0.20349959	-0.26832512	4.44247866
-0.20301598	-0.26990530	4.44247913
-0.20461625	-0.27211091	4.44247866
-0.20647433	-0.27421758	4.44247866
-0.20893385	-0.27864724	4.44247866
-0.21112880	-0.28236353	4.44247818
-0.21294017	-0.28580421	4.44247818
-0.21384652	-0.28669414	4.44247818
-0.21469945	-0.28810567	4.44247818
-0.21529415	-0.28961635	4.44247818
-0.21690071	-0.29263446	4.44247770
-0.22126453	-0.29949734	4.44247770
-0.22472323	-0.30380937	4.44247723
-0.22596602	-0.30630907	4.44247723
-0.22718236	-0.30823931	4.44247723
-0.22810842	-0.30888629	4.44247723
-0.22935122	-0.31138596	4.44247723
-0.23110409	-0.31287488	4.44247675
-0.23229983	-0.31670871	4.44247675
-0.23343708	-0.31859085	4.44247675
-0.23805389	-0.32288110	4.44247627
-0.23853481	-0.32730314	4.44247627
-0.24047793	-0.33193108	4.44247627
-0.24313879	-0.34444633	4.44247627
-0.24667695	-0.34880635	4.44247580
-0.24760297	-0.34945330	4.44247580
-0.25007668	-0.35116681	4.44247580
-0.25034648	-0.35435373	4.44247580
-0.24954900	-0.36255673	4.44247580
-0.24962761	-0.36426538	4.44247580
-0.24971229	-0.36678687	4.44247580
-0.24980335	-0.37012082	4.44247580
-0.25223595	-0.37564164	4.44247580
-0.25286308	-0.37853450	4.44247532
-0.25439024	-0.38150465	4.44247532
-0.25726575	-0.38759208	4.44247532
-0.26352948	-0.39275387	4.44247484
-0.26546103	-0.39409584	4.44247484
-0.26880857	-0.39531702	4.44247437
-0.27092484	-0.39732456	4.44247437
-0.27297360	-0.40257001	4.44247389
-0.27326337	-0.40551388	4.44247389
-0.27494311	-0.40776730	4.44247389
-0.27788627	-0.41061687	4.44247389
-0.27811748	-0.41160887	4.44247389
-0.27969125	-0.41324496	4.44247341
-0.28000203	-0.41428500	4.44247341
-0.28088188	-0.41460544	4.44247341
-0.28100720	-0.41498008	4.44247341
-0.28197205	-0.41782176	4.44247341
-0.28261381	-0.41799816	4.44247341
-0.28261936	-0.42047146	4.44247341
-0.28427261	-0.42215556	4.44247341
-0.28569970	-0.42698148	4.44247341
-0.28632167	-0.42740086	4.44247293
-0.28634775	-0.42797047	4.44247293
-0.28802747	-0.43022397	4.44247293
-0.29050675	-0.43441075	4.44247293
-0.29274952	-0.43513203	4.44247246
-0.29399237	-0.43763164	4.44247246
-0.29418263	-0.44077072	4.44247246
-0.29733092	-0.44404256	4.44247246
-0.29966944	-0.45223182	4.44247246
-0.30091780	-0.45720482	4.44247198
-0.30110288	-0.45787030	4.44247198
-0.30323923	-0.45963478	4.44247198
-0.30494505	-0.46245795	4.44247198
-0.30675095	-0.46342537	4.44247150
-0.30735755	-0.46822184	4.44247150
-0.30780604	-0.47126174	4.44247150
-0.31026471	-0.47735217	4.44247150
-0.31122321	-0.47938129	4.44247150
-0.40400919	-0.47821394	4.44246435
-0.40583518	-0.47893822	4.44246387
-0.40663555	-0.47921073	4.44246387
-0.40825668	-0.47951245	4.44246387
-0.41268253	-0.48066416	4.44246340
-0.41875011	-0.48021388	4.44246292
-0.41934514	-0.48172438	4.44246292
-0.42197785	-0.48353374	4.44246292
-0.42306808	-0.48675004	4.44246292
-0.42479447	-0.48766956	4.44246244
-0.42636222	-0.48849294	4.44246244
-0.42857808	-0.49030536	4.44246244
-0.46268651	-0.49174514	4.44245958
-0.46693918	-0.49551713	4.44245958
-0.47652748	-0.49366772	4.44245863
-0.49086136	-0.48882031	4.44245768
-0.49645728	-0.49323606	4.44245720
-0.49836236	-0.49400845	4.44245720
-0.50477314	-0.49598032	4.44245672
-0.66303462	-0.42823821	4.44244385
-0.66562849	-0.42785284	4.44244385
-0.67480630	-0.42681906	4.44244289
-0.67605257	-0.42165565	4.44244289
-0.69368351	-0.42702663	4.44244146
-0.69553643	-0.42665985	4.44244146
-0.69774044	-0.42518640	4.44244099
-0.72276127	-0.43265471	4.44243908
-0.72605658	-0.43273664	4.44243908
-0.74848270	-0.44225106	4.44243717
-0.75268316	-0.44488382	4.44243717
-0.75716752	-0.44798735	4.44243670
-0.75921112	-0.45075929	4.44243670
-0.76357484	-0.45762217	4.44243622
-0.76541233	-0.46163249	4.44243622
-0.76599932	-0.46667194	4.44243622
-0.76594591	-0.46719363	4.44243622
-0.76611042	-0.46976280	4.44243622
-0.76594239	-0.47485662	4.44243622
-0.76480258	-0.47897673	4.44243622
-0.76478195	-0.48088047	4.44243622
-0.76406628	-0.48312932	4.44243622
-0.76385248	-0.48789647	4.44243622
-0.76297897	-0.48838854	4.44243622
-0.76201147	-0.49154907	4.44243622
-0.76178575	-0.49303037	4.44243670
-0.76086521	-0.49485675	4.44243670
-0.76053941	-0.49819374	4.44243670
-0.75936711	-0.50093174	4.44243670
-0.75924098	-0.50221777	4.44243670
-0.75845218	-0.50523138	4.44243670
-0.75845814	-0.50604403	4.44243670
-0.75764328	-0.50848800	4.44243670
-0.75700068	-0.50997227	4.44243670
-0.75595486	-0.51142389	4.44243717
-0.75480866	-0.51473153	4.44243717
-0.75372910	-0.51646197	4.44243717
-0.75237811	-0.51934701	4.44243717
-0.73717517	-0.69101876	4.44243908
-0.73772317	-0.69386345	4.44243908
-0.73866075	-0.69779646	4.44243908
-0.73867261	-0.70108229	4.44243908
-0.73921478	-0.70145392	4.44243908
-0.73916817	-0.70278794	4.44243908
-0.73862851	-0.71089208	4.44243908
-0.73930269	-0.71245068	4.44243908
-0.73930824	-0.71492398	4.44243908
-0.73971528	-0.72177142	4.44243908
-0.73974425	-0.73081654	4.44243908
-0.73985529	-0.73390734	4.44243908
-0.74058264	-0.73494458	4.44243908
-0.74087244	-0.73788834	4.44243908
-0.74116230	-0.74083209	4.44243908
-0.74127424	-0.74226230	4.44243908
-0.74147904	-0.74268484	4.44243908
-0.74189538	-0.74434239	4.44243908
-0.74324900	-0.74993306	4.44243908
-0.74335456	-0.75055069	4.44243908
-0.74366534	-0.75159061	4.44243908
-0.74380893	-0.75606364	4.44243908
-0.74452078	-0.76147789	4.44243908
-0.74516892	-0.76246691	4.44243908
-0.74690640	-0.76833296	4.44243908
-0.74763948	-0.77184319	4.44243908
-0.74931884	-0.77409691	4.44243860
-0.74970877	-0.77518499	4.44243860
-0.75048250	-0.77654845	4.44243860
-0.75079286	-0.77758855	4.44243860
-0.75193024	-0.77947068	4.44243860
-0.75312042	-0.78083128	4.44243860
-0.75368899	-0.78177232	4.44243860
-0.75564671	-0.78368384	4.44243813
-0.75717378	-0.78665400	4.44243813
-0.76004374	-0.79026806	4.44243813
-0.76280767	-0.79492521	4.44243765
-0.76391840	-0.79623789	4.44243765
-0.76639247	-0.79795110	4.44243765
-0.76899821	-0.80085164	4.44243717
-0.76982474	-0.80169380	4.44243717
-0.77124625	-0.80404645	4.44243717
-0.77543771	-0.81186885	4.44243670
-0.77705884	-0.81217062	4.44243670
-0.77745426	-0.81573200	4.44243670
-0.77809608	-0.81590843	4.44243670
-0.78042901	-0.82162440	4.44243670
-0.78326654	-0.82385635	4.44243622
-0.78384709	-0.82808316	4.44243622
-0.78556705	-0.82819021	4.44243622
-0.78760713	-0.83862513	4.44243622
-0.78921890	-0.84411675	4.44243574
-0.79064041	-0.84646934	4.44243574
-0.79144669	-0.84921497	4.44243574
-0.79173094	-0.84968549	4.44243574
-0.79619217	-0.86069494	4.44243574
-0.79802364	-0.86389250	4.44243526
-0.79956520	-0.87862426	4.44243526
-0.79997480	-0.87946945	4.44243526
-0.80142021	-0.88839370	4.44243526
-0.80287415	-0.89212847	4.44243526
-0.80481732	-0.89675641	4.44243479
-0.80691850	-0.90314096	4.44243479
-0.80802965	-0.90445340	4.44243479
-0.80940413	-0.90814024	4.44243479
-0.80963504	-0.90913248	4.44243479
-0.81176329	-0.91442585	4.44243431
-0.81272179	-0.91645497	4.44243431
-0.81324375	-0.91873002	4.44243431
-0.81405509	-0.92394912	4.44243431
-0.81446499	-0.93927217	4.44243431
-0.81430376	-0.94517833	4.44243431
-0.81066632	-0.99956536	4.44243479
-0.80859083	-1.00988877	4.44243526
-0.80719197	-1.01576877	4.44243526
-0.80246931	-1.02699924	4.44243574
-0.79341710	-1.04288554	4.44243670
-0.78473127	-1.05328798	4.44243717
-0.78306341	-1.05432034	4.44243765
-0.77939010	-1.05643606	4.44243765
-0.77831179	-1.05650556	4.44243765
-0.76193434	-1.05858111	4.44243908
-0.75774574	-1.05923414	4.44243956
-0.75435150	-1.05934703	4.44243956
-0.74582148	-1.06137002	4.44244051
-0.74281085	-1.06175840	4.44244051
-0.73972785	-1.06125057	4.44244099
-0.71541572	-1.06685936	4.44244289
-0.56595236	-1.10949075	4.44245434
-0.56548846	-1.11082816	4.44245481
-0.56433672	-1.11166239	4.44245481
-0.56254274	-1.11398077	4.44245481
-0.56139094	-1.11481512	4.44245481
-0.55969620	-1.11693859	4.44245529
-0.55818701	-1.11806703	4.44245529
-0.55754441	-1.11955130	4.44245529
-0.55729258	-1.12046289	4.44245529
-0.55544609	-1.12164223	4.44245529
-0.55365211	-1.12396073	4.44245577
-0.55355167	-1.12581682	4.44245577
-0.55088466	-1.12696671	4.44245577
-0.55036867	-1.12716460	4.44245577
-0.54880643	-1.12881434	4.44245577
-0.54767478	-1.12940574	4.44245625
-0.54559612	-1.13125384	4.44245625
-0.54374957	-1.13243318	4.44245625
-0.54200226	-1.13341749	4.44245672
-0.53899795	-1.13461852	4.44245672
-0.53686708	-1.13532734	4.44245672
-0.53473592	-1.13603640	4.44245720
-0.52705306	-1.13865793	4.44245768
-0.51585519	-1.14349174	4.44245863
-0.50039595	-1.14974284	4.44246006
-0.49448621	-1.15195000	4.44246054
-0.49281836	-1.15298223	4.44246054
-0.48999274	-1.15403616	4.44246054
-0.47002149	-1.15827525	4.44246244
-0.46076447	-1.15926111	4.44246292
-0.45395562	-1.15973008	4.44246340
-0.38583571	-1.16265762	4.44246864
-0.36454329	-1.16268826	4.44247055
-0.34486014	-1.15973473	4.44247198
-0.34025523	-1.15873027	4.44247246
-0.33549169	-1.15762985	4.44247293
-0.30077145	-1.14892006	4.44247532
-0.28094476	-1.14149356	4.44247675
-0.24800657	-1.12717962	4.44247961
-0.24303268	-1.12318325	4.44247961
-0.21931130	-1.09555209	4.44248152
-0.21322079	-1.08776987	4.44248199
-0.21277782	-1.08720338	4.44248199
-0.21001391	-1.08254623	4.44248199
-0.20801780	-1.07843983	4.44248247
-0.20778012	-1.07663524	4.44248247
-0.20698062	-1.07470191	4.44248247
-0.20503111	-1.06926155	4.44248247
-0.20402007	-1.06609333	4.44248247
-0.20339896	-1.06401324	4.44248247
-0.20234938	-1.05865014	4.44248247
-0.20097485	-1.05496335	4.44248247
-0.20084919	-1.05458879	4.44248247
-0.20066446	-1.05392313	4.44248295
-0.20096937	-1.05249000	4.44248247
-0.20060000	-1.04949808	4.44248247
-0.20041527	-1.04883242	4.44248295
-0.19966243	-1.04556525	4.44248295
-0.13902709	-0.88406289	4.44248676
-0.13744780	-0.87995344	4.44248676
-0.13615158	-0.87797552	4.44248676
-0.13517338	-0.87618923	4.44248676
-0.13310379	-0.87284768	4.44248724
-0.12969205	-0.86720139	4.44248724
-0.12643301	-0.86083841	4.44248772
-0.12598979	-0.86027205	4.44248772
-0.12472719	-0.85801530	4.44248772
-0.12399963	-0.85697836	4.44248772
-0.12185690	-0.85440129	4.44248772
-0.12157258	-0.85393083	4.44248772
-0.11973506	-0.84992051	4.44248819
-0.11953026	-0.84949791	4.44248819
-0.11828741	-0.84699821	4.44248819
-0.11533883	-0.84167540	4.44248819
-0.11383778	-0.83927494	4.44248867
-0.11326918	-0.83833385	4.44248867
-0.11231706	-0.83711725	4.44248867
-0.11156335	-0.83551067	4.44248867
-0.10921580	-0.83251107	4.44248867
-0.10836291	-0.83109951	4.44248867
-0.10712007	-0.82859987	4.44248915
-0.10592985	-0.82723927	4.44248915
-0.10464001	-0.82607383	4.44248915
-0.10415086	-0.82518071	4.44248915
-0.09870204	-0.81757510	4.44248962
-0.09815955	-0.81720358	4.44248962
-0.09505868	-0.81259727	4.44248962
-0.09174621	-0.80675596	4.44249010
-0.09099892	-0.80596197	4.44249010
-0.08869839	-0.80162817	4.44249010
-0.08670184	-0.79752195	4.44249058
-0.08533338	-0.79464781	4.44249058
-0.08391190	-0.79229522	4.44249058
-0.08235863	-0.78875542	4.44249058
-0.08122146	-0.78687328	4.44249058
-0.07942456	-0.78071624	4.44249105
-0.07851270	-0.77735305	4.44249105
-0.07669058	-0.76896548	4.44249105
-0.07510200	-0.75556797	4.44249105
-0.07820636	-0.75251132	4.44249105
-0.07843214	-0.75103009	4.44249105
-0.07945186	-0.74900877	4.44249058
-0.07968393	-0.74834007	4.44249058
-0.08101496	-0.74569815	4.44249058
-0.08147189	-0.74520892	4.44249058
-0.08345097	-0.74355596	4.44249058
-0.08404016	-0.74259335	4.44249058
-0.08560237	-0.74094349	4.44249010
-0.08757547	-0.73847783	4.44249010
-0.08811155	-0.73803669	4.44249010
-0.08934247	-0.73725051	4.44249010
-0.08987945	-0.73514867	4.44249010
-0.09176114	-0.72934926	4.44248962
-0.11985877	-0.56085652	4.44248676
-0.11858985	-0.55778730	4.44248676
-0.11670533	-0.55511117	4.44248676
-0.11548859	-0.55318111	4.44248724
-0.11453009	-0.55115211	4.44248724
-0.11439845	-0.54996479	4.44248724
-0.11444503	-0.54863077	4.44248724
-0.11348653	-0.54660165	4.44248724
-0.11198038	-0.54172766	4.44248724
-0.11045328	-0.53875744	4.44248724
-0.11018956	-0.53638321	4.44248724
-0.10965601	-0.53082210	4.44248724
-0.10928699	-0.52783018	4.44248724
-0.10910276	-0.52550387	4.44248724
-0.10852230	-0.52127701	4.44248724
-0.10807380	-0.51823717	4.44248724
-0.10806835	-0.51576382	4.44248724
-0.10761985	-0.51272398	4.44248724
-0.10709822	-0.51044863	4.44248772
-0.10660878	-0.50955576	4.44248772
-0.10702223	-0.50273776	4.44248724
-0.10696968	-0.50159866	4.44248724
-0.11182475	-0.40238687	4.44248676
-0.11197183	-0.39919692	4.44248676
-0.11137080	-0.39687365	4.44248676
-0.11081722	-0.39155564	4.44248676
-0.11011052	-0.38861492	4.44248676
-0.11057705	-0.38127542	4.44248676
-0.11182949	-0.36244684	4.44248629
-0.11065418	-0.35670924	4.44248629
-0.11013263	-0.35443395	4.44248676
-0.10945293	-0.35040206	4.44248676
-0.10909817	-0.34469396	4.44248676
-0.11820209	-0.28753343	4.44248581
-0.11909088	-0.28266412	4.44248533
-0.12009910	-0.27735683	4.44248533
-0.12875298	-0.26391160	4.44248486
-0.15136573	-0.24181433	4.44248295
-0.15811647	-0.23773299	4.44248247
-0.16281506	-0.23606916	4.44248199
