//X	Y	Z
-0.82776201	2.99775791	5.83199406
-0.82938200	2.99825096	5.83199167
-0.83533067	2.99476576	5.83198023
-0.84003597	2.99016786	5.83197021
-0.84228384	2.98962831	5.83196640
-0.84733325	2.98603630	5.83195639
-0.84899515	2.98646069	5.83195400
-0.85099190	2.98633385	5.83195114
-0.85355157	2.98686433	5.83194733
-0.85994810	2.98580050	5.83193731
-0.86448741	2.98147798	5.83192730
-0.86646247	2.97979879	5.83192301
-0.87188721	2.97876120	5.83191442
-0.87567294	2.97567868	5.83190632
-0.87716728	2.97637820	5.83190489
-0.88126498	2.97436547	5.83189726
-0.88447577	2.97224212	5.83189106
-0.88706630	2.97270870	5.83188725
-0.88904291	2.97102928	5.83188295
-0.89131248	2.96886802	5.83187819
-0.89362270	2.96663785	5.83187342
-0.89645678	2.96513391	5.83186769
-0.89923620	2.96370363	5.83186293
-0.90223783	2.96192431	5.83185673
-0.90528870	2.96480751	5.83185434
-0.90794283	2.96358371	5.83184958
-0.90998143	2.96338820	5.83184624
-0.91293967	2.96167731	5.83184052
-0.91865861	2.96015811	5.83183098
-0.92036086	2.96051335	5.83182859
-0.92597461	2.95757914	5.83181810
-0.92892325	2.95587325	5.83181286
-0.93037587	2.95664191	5.83181095
-0.93169367	2.95605969	5.83180857
-0.93522692	2.95339012	5.83180141
-0.93938649	2.95286107	5.83179474
-0.94256455	2.95236373	5.83178997
-0.94689316	2.94838572	5.83178043
-0.94884807	2.94832730	5.83177757
-0.95476073	2.95281649	5.83177185
-0.96625954	2.94808745	5.83175135
-0.97019118	2.94635034	5.83174419
-0.97593045	2.94320965	5.83173323
-1.00174773	2.91799903	5.83167696
-1.03177083	2.86524153	5.83159494
-1.03677380	2.85063982	5.83157682
-1.03902471	2.84375191	5.83156872
-1.04173756	2.83293271	5.83155727
-1.04306149	2.81965494	5.83154583
-1.04430318	2.80334044	5.83153248
-1.04539752	2.78885412	5.83152056
-1.04426265	2.77963448	5.83151579
-1.04029071	2.76083922	5.83150864
-1.03726435	2.75316072	5.83150768
-1.03564584	2.74949360	5.83150768
-1.03411102	2.74568892	5.83150721
-1.03257465	2.74505806	5.83150911
-1.02788794	2.73378181	5.83150816
-1.02334702	2.72385097	5.83150816
-1.02156091	2.72045946	5.83150816
-1.01967096	2.71882701	5.83151007
-1.01670527	2.71263218	5.83151007
-1.01519191	2.71037984	5.83151054
-1.01165903	2.70987582	5.83151579
-1.00852859	2.70078301	5.83151388
-1.00333667	2.69668031	5.83151913
-0.99954331	2.69503212	5.83152342
-0.99611706	2.69276881	5.83152676
-0.99519753	2.69110990	5.83152723
-0.99263650	2.69057894	5.83153057
-0.99160385	2.68912196	5.83153105
-0.99082100	2.68725157	5.83153105
-0.98832351	2.68503070	5.83153343
-0.98572052	2.68456864	5.83153677
-0.98265219	2.67695928	5.83153629
-0.97966474	2.67556000	5.83153963
-0.97833771	2.67458487	5.83154106
-0.97609138	2.67195082	5.83154249
-0.97130722	2.66877651	5.83154726
-0.96934271	2.66566491	5.83154821
-0.96722174	2.66599822	5.83155155
-0.96418178	2.66311049	5.83155394
-0.96100509	2.66360831	5.83155918
-0.95903158	2.65893936	5.83155870
-0.95556200	2.65991902	5.83156490
-0.95391232	2.65470409	5.83156347
-0.95057911	2.65547252	5.83156919
-0.94852948	2.65567303	5.83157206
-0.94678545	2.65221214	5.83157253
-0.94142431	2.65155935	5.83158016
-0.93891609	2.65095496	5.83158350
-0.93697190	2.64939618	5.83158541
-0.93548989	2.64869189	5.83158684
-0.93332565	2.64909363	5.83159065
-0.93210542	2.64635968	5.83159018
-0.92853045	2.64592457	5.83159542
-0.92686868	2.64550018	5.83159781
-0.92536306	2.64480519	5.83159924
-0.92338032	2.64175320	5.83160019
-0.91627514	2.63764000	5.83160782
-0.91280544	2.63861942	5.83161402
-0.90804124	2.63221169	5.83161640
-0.90108180	2.62944436	5.83162498
-0.89929587	2.62922668	5.83162737
-0.89532697	2.62151074	5.83162785
-0.88809621	2.61760426	5.83163595
-0.87741607	2.61622953	5.83165121
-0.87016225	2.61711812	5.83166265
-0.86440265	2.61870623	5.83167267
-0.85881382	2.61845732	5.83168077
-0.85800767	2.61659622	5.83168077
-0.85487282	2.61702490	5.83168554
-0.85104823	2.61382890	5.83168888
-0.84797704	2.61256719	5.83169270
-0.84023178	2.61427736	5.83170557
-0.83720255	2.61294723	5.83170938
-0.83317775	2.61165261	5.83171415
-0.82918555	2.61190581	5.83172035
-0.82575786	2.60964251	5.83172417
-0.82380438	2.60970044	5.83172703
-0.82180750	2.60982704	5.83172989
-0.81867278	2.61025572	5.83173513
-0.81619537	2.60958743	5.83173847
-0.81095994	2.60872793	5.83174562
-0.80946553	2.60802841	5.83174753
-0.80746871	2.60815477	5.83175039
-0.80356026	2.60827065	5.83175659
-0.79949540	2.60865688	5.83176279
-0.79531419	2.60763359	5.83176851
-0.79238868	2.60771751	5.83177280
-0.78643405	2.60329771	5.83177853
-0.77693367	2.60155177	5.83179140
-0.77538013	2.59619474	5.83178997
-0.76825333	2.59370279	5.83179903
-0.75896078	2.59478688	5.83181381
-0.75185567	2.59067345	5.83182144
-0.74628532	2.59036469	5.83182955
-0.74294275	2.58796406	5.83183289
-0.73394322	2.58856583	5.83184719
-0.73265958	2.58434796	5.83184576
-0.72349542	2.58205175	5.83185816
-0.71731746	2.58432865	5.83186913
-0.71425396	2.58462429	5.83187389
-0.70911479	2.58044815	5.83187866
-0.70706499	2.58064890	5.83188152
-0.70590556	2.57939816	5.83188248
-0.70031506	2.57753682	5.83188963
-0.69873822	2.57697511	5.83189154
-0.69535244	2.57464290	5.83189487
-0.69156951	2.57455182	5.83190060
-0.68658686	2.57010531	5.83190489
-0.67837012	2.57257771	5.83191919
-0.67552698	2.57252455	5.83192348
-0.67353308	2.56947708	5.83192396
-0.67159981	2.56791353	5.83192587
-0.66327012	2.56741381	5.83193827
-0.66114914	2.56774735	5.83194160
-0.65826368	2.56615067	5.83194494
-0.65328139	2.56331611	5.83195019
-0.64952165	2.55842972	5.83195257
-0.64653283	2.55703044	5.83195591
-0.64327693	2.54814339	5.83195448
-0.64113438	2.54692459	5.83195686
-0.63619494	2.53923488	5.83195877
-0.62387156	2.54216242	5.83197927
-0.61775696	2.54274940	5.83198881
-0.61287826	2.53971720	5.83199406
-0.60539472	2.53939772	5.83200502
-0.52412486	2.45492983	5.83206797
-0.48342869	2.41121221	5.83209801
-0.48122546	2.40850949	5.83209944
-0.47979459	2.40611959	5.83209991
-0.48031858	2.40367174	5.83209753
-0.47840706	2.40048671	5.83209801
-0.47901484	2.39790130	5.83209515
-0.47529694	2.39294577	5.83209753
-0.47607371	2.38691092	5.83209181
-0.47481173	2.38107157	5.83208990
-0.47302577	2.37768006	5.83208990
-0.46842122	2.36943984	5.83209133
-0.46861038	2.36754274	5.83208942
-0.46346167	2.36019778	5.83209229
-0.46201062	2.35625529	5.83209133
-0.46199036	2.35470271	5.83209038
-0.46093911	2.34851885	5.83208752
-0.45793313	2.33921909	5.83208561
-0.45621061	2.33413744	5.83208466
-0.45642143	2.33061886	5.83208179
-0.45667410	2.32703185	5.83207893
-0.45703074	2.32485962	5.83207703
-0.45721987	2.32296252	5.83207512
-0.45949090	2.31762743	5.83206797
-0.45787403	2.31078625	5.83206558
-0.46010172	2.30869389	5.83206081
-0.46041644	2.30659056	5.83205891
-0.46089864	2.30421162	5.83205652
-0.46069086	2.30138183	5.83205509
-0.46092176	2.29941654	5.83205318
-0.45913580	2.29602480	5.83205366
-0.46123791	2.29413915	5.83204889
-0.45985055	2.28850627	5.83204699
-0.46050015	2.28585172	5.83204412
-0.45861167	2.28104568	5.83204365
-0.45936662	2.27663207	5.83203936
-0.45857432	2.27159238	5.83203697
-0.45812634	2.26917100	5.83203602
-0.45735425	2.26568413	5.83203506
-0.45758522	2.26371837	5.83203316
-0.45688611	2.26171041	5.83203268
-0.45580077	2.25715303	5.83203125
-0.45632473	2.25470495	5.83202887
-0.45562699	2.25269699	5.83202839
-0.45489672	2.24914122	5.83202696
-0.45502377	2.24576068	5.83202457
-0.45523459	2.24224234	5.83202171
-0.45661426	2.23835778	5.83201694
-0.45529026	2.23103476	5.83201361
-0.45560500	2.22893143	5.83201170
-0.45490715	2.22692370	5.83201122
-0.45421880	2.22329831	5.83200979
-0.45459750	2.22111702	5.83200788
-0.45602989	2.22033286	5.83200502
-0.45365936	2.21473145	5.83200455
-0.45648384	2.21005821	5.83199692
-0.45935827	2.20848513	5.83199167
-0.46484950	2.19940996	5.83197689
-0.46452999	2.19360805	5.83197355
-0.47500396	2.18897915	5.83195448
-0.47402394	2.18266225	5.83195162
-0.47779909	2.18119621	5.83194494
-0.48124859	2.17866373	5.83193779
-0.48173070	2.17628527	5.83193541
-0.48414612	2.17546988	5.83193111
-0.48993784	2.17064333	5.83191919
-0.49946004	2.16759348	5.83190298
-0.50139475	2.16598320	5.83189869
-0.50715578	2.16122103	5.83188677
-0.50936329	2.15757585	5.83188105
-0.51346242	2.15238929	5.83187103
-0.51531339	2.15091681	5.83186722
-0.51934898	2.14742064	5.83185863
-0.52515316	2.14258957	5.83184671
-0.53374529	2.13949752	5.83183146
-0.53588927	2.13754249	5.83182716
-0.53784561	2.13431120	5.83182192
-0.54190141	2.13236713	5.83181429
-0.54190290	2.12919331	5.83181190
-0.54816628	2.12360454	5.83179903
-0.54993349	2.12226987	5.83179522
-0.55037379	2.11995983	5.83179283
-0.55214113	2.11862469	5.83178949
-0.55222636	2.11531329	5.83178711
-0.55131942	2.11047554	5.83178473
-0.55321229	2.10893393	5.83178091
-0.55321383	2.10575986	5.83177853
-0.55477178	2.10476947	5.83177567
-0.55878568	2.10289454	5.83176851
-0.56467223	2.09792566	5.83175611
-0.56505054	2.09413195	5.83175278
-0.56729996	2.09041810	5.83174658
-0.56675720	2.08813953	5.83174610
-0.57241279	2.08513618	5.83173561
-0.57802653	2.08220196	5.83172512
-0.58946323	2.07598948	5.83170319
-0.59579146	2.06871057	5.83168888
-0.60016334	2.06148934	5.83167696
-0.60075092	2.05735135	5.83167315
-0.60243446	2.05615425	5.83166981
-0.60667938	2.05231380	5.83166075
-0.60857224	2.05077219	5.83165693
-0.61008847	2.04985046	5.83165407
-0.61063403	2.04578137	5.83165026
-0.61065567	2.04416013	5.83164930
-0.61311305	2.04010153	5.83164263
-0.61298901	2.03713417	5.83164072
-0.61305267	2.03544378	5.83163929
-0.61948186	2.03275371	5.83162785
-0.61859798	2.02629495	5.83162498
-0.62194359	2.02234793	5.83161688
-0.62250948	2.01983142	5.83161449
-0.62593865	2.01892090	5.83160877
-0.62596023	2.01729918	5.83160734
-0.62831229	2.01500010	5.83160210
-0.63188875	2.01226163	5.83159494
-0.63207787	2.01036477	5.83159351
-0.63781708	2.00722384	5.83158255
-0.64071625	2.00085568	5.83157349
-0.64073783	1.99923432	5.83157253
-0.64105409	1.99395680	5.83156824
-0.64162147	1.98826623	5.83156347
-0.64128816	1.98564315	5.83156204
-0.64126784	1.98409057	5.83156109
-0.64218885	1.98257565	5.83155870
-0.64435619	1.97265148	5.83154821
-0.64652348	1.96590149	5.83154058
-0.64711249	1.95858955	5.83153439
-0.64687389	1.95582390	5.83153296
-0.64992785	1.95235908	5.83152580
-0.65083015	1.94611788	5.83152008
-0.65440524	1.94337881	5.83151293
-0.66275203	1.93117797	5.83149147
-0.66153204	1.92526960	5.83148956
-0.66119850	1.92264676	5.83148813
-0.66367757	1.92014122	5.83148241
-0.66319835	1.91617215	5.83148050
-0.66351306	1.91406870	5.83147860
-0.66825867	1.91257572	5.83147049
-0.66380298	1.89933348	5.83146763
-0.66510981	1.89875603	5.83146524
-0.66407728	1.89412487	5.83146381
-0.66451764	1.89181471	5.83146143
-0.66595000	1.89103079	5.83145857
-0.66574228	1.88820112	5.83145714
-0.66531599	1.88415837	5.83145475
-0.66660261	1.88202858	5.83145142
-0.66656226	1.87892342	5.83144903
-0.66839314	1.87589836	5.83144426
-0.66887683	1.87034535	5.83143997
-0.66942394	1.86310220	5.83143377
-0.66839302	1.85529733	5.83142996
-0.66883481	1.84981322	5.83142519
-0.66935885	1.84736538	5.83142281
-0.66954947	1.84229469	5.83141899
-0.67310286	1.84117711	5.83141279
-0.67411208	1.83000255	5.83140373
-0.67297709	1.82395673	5.83140087
-0.67651033	1.82128680	5.83139372
-0.67368704	1.80535901	5.83138704
-0.67445129	1.80250287	5.83138371
-0.67470390	1.79891574	5.83138084
-0.67520773	1.79491532	5.83137703
-0.67556429	1.79274333	5.83137512
-0.67531466	1.78998220	5.83137369
-0.67598593	1.78570664	5.83136940
-0.67613316	1.78387845	5.83136797
-0.67819363	1.77888751	5.83136129
-0.67834091	1.77705956	5.83135986
-0.67916101	1.76778185	5.83135223
-0.67947721	1.76250434	5.83134794
-0.67863375	1.75915051	5.83134699
-0.67993915	1.75857294	5.83134460
-0.68033928	1.75315762	5.83134031
-0.68057013	1.75119197	5.83133841
-0.68111581	1.74712300	5.83133459
-0.67941648	1.74041963	5.83133268
-0.67815453	1.73458028	5.83133030
-0.67870027	1.73051107	5.83132696
-0.67884755	1.72868311	5.83132505
-0.67975432	1.71291971	5.83131266
-0.68009067	1.70919490	5.83130980
-0.67903799	1.70301116	5.83130693
-0.67703807	1.69205880	5.83130217
-0.67851222	1.69120610	5.83129930
-0.68061298	1.68931985	5.83129501
-0.68229973	1.68177485	5.83128691
-0.68141592	1.67214179	5.83128166
-0.68385297	1.66970491	5.83127642
-0.68261290	1.66224408	5.83127308
-0.68305457	1.65676010	5.83126831
-0.67870575	1.63858485	5.83126211
-0.67601573	1.62718153	5.83125830
-0.67332435	1.61577833	5.83125401
-0.66716802	1.59583282	5.83124924
-0.66262078	1.58117080	5.83124590
-0.66006410	1.57111824	5.83124256
-0.65192926	1.53859890	5.83123207
-0.65041614	1.53317273	5.83123064
-0.64766127	1.52345967	5.83122778
-0.64608765	1.51654959	5.83122540
-0.61892104	1.46317625	5.83122826
-0.61779225	1.46186161	5.83122921
-0.61575508	1.45888305	5.83123016
-0.61266536	1.45289493	5.83123064
-0.60775858	1.44357955	5.83123159
-0.59977889	1.43139040	5.83123493
-0.59811699	1.43096602	5.83123684
-0.59108937	1.42198360	5.83124113
-0.59005529	1.42052650	5.83124161
-0.58366495	1.40889454	5.83124304
-0.57658303	1.39998579	5.83124781
-0.57477671	1.39821577	5.83124924
-0.57078475	1.39529490	5.83125305
-0.56883132	1.39217877	5.83125353
-0.56671035	1.39251208	5.83125734
-0.55380511	1.36628091	5.83125782
-0.55210155	1.36592531	5.83126020
-0.55052471	1.36536348	5.83126211
-0.54848748	1.36238527	5.83126307
-0.54699326	1.36168551	5.83126497
-0.53387880	1.33579862	5.83126640
-0.47029275	1.19360065	5.83126211
-0.46869606	1.18831193	5.83126068
-0.46917817	1.18593335	5.83125830
-0.46764630	1.17895460	5.83125544
-0.46817034	1.17650676	5.83125305
-0.46228516	1.15770078	5.83124876
-0.46226496	1.15614820	5.83124781
-0.45936280	1.14826274	5.83124638
-0.45810223	1.14242375	5.83124447
-0.45530409	1.13595343	5.83124399
-0.45534724	1.13271093	5.83124161
-0.45244664	1.12482560	5.83124018
-0.45246822	1.12320423	5.83123922
-0.45020318	1.11584353	5.83123732
-0.45049775	1.11218739	5.83123446
-0.43967164	1.08886600	5.83123446
-0.43893063	1.08692682	5.83123398
-0.43743914	1.08305311	5.83123350
-0.43550891	1.07514155	5.83123064
-0.43416321	1.06943989	5.83122873
-0.42918342	1.05864537	5.83122873
-0.42464411	1.04554057	5.83122635
-0.41030663	1.02009344	5.83123016
-0.40692204	1.01776147	5.83123350
-0.40345556	1.01239300	5.83123493
-0.40229595	1.01114237	5.83123589
-0.40017503	1.00830185	5.83123684
-0.39847291	1.00477242	5.83123684
-0.39677042	1.00441718	5.83123922
-0.39407623	0.99936163	5.83123970
-0.39214432	0.99779809	5.83124161
-0.38861418	0.99094617	5.83124208
-0.38753831	0.98955786	5.83124256
-0.38388413	0.98291254	5.83124352
-0.38050121	0.97740638	5.83124447
-0.37541336	0.97154456	5.83124828
-0.37369066	0.96963716	5.83124924
-0.37266767	0.96817499	5.83124971
-0.37052643	0.96695572	5.83125210
-0.36400896	0.95870441	5.83125639
-0.36226469	0.95524377	5.83125639
-0.36060292	0.95481956	5.83125877
-0.35707277	0.95114160	5.83126116
-0.35574573	0.95016670	5.83126259
-0.35280937	0.94708163	5.83126497
-0.35172260	0.94569784	5.83126545
-0.34824669	0.93877256	5.83126593
-0.34471649	0.93509448	5.83126879
-0.34251195	0.93239135	5.83127022
-0.34045315	0.93103433	5.83127213
-0.33824086	0.92677402	5.83127260
-0.33528429	0.92213666	5.83127356
-0.33238059	0.92059964	5.83127689
-0.33067816	0.91707021	5.83127689
-0.32901639	0.91664600	5.83127928
-0.32735586	0.91622180	5.83128119
-0.32340568	0.91323209	5.83128500
-0.32031572	0.90724444	5.83128548
-0.31829894	0.90581822	5.83128786
-0.31331611	0.90137160	5.83129215
-0.31161231	0.90101624	5.83129406
-0.30912864	0.89561695	5.83129406
-0.30650383	0.89677656	5.83129883
-0.30193985	0.89164102	5.83130217
-0.29933679	0.89117932	5.83130598
-0.29097104	0.88122672	5.83131123
-0.28947657	0.88052696	5.83131313
-0.28762716	0.87882555	5.83131456
-0.28428465	0.87642467	5.83131790
-0.28233111	0.87330836	5.83131886
-0.28090018	0.87091827	5.83131933
-0.27923971	0.87049401	5.83132124
-0.27576870	0.87147355	5.83132744
-0.27306157	0.87277091	5.83133221
-0.27146327	0.87065673	5.83133316
-0.26994878	0.86840463	5.83133364
-0.26368380	0.85656583	5.83133507
-0.25842977	0.85097992	5.83133888
-0.25163925	0.84476298	5.83134460
-0.18017304	0.70131290	5.83135128
-0.17758846	0.68815047	5.83134556
-0.17485517	0.67681634	5.83134174
-0.16799802	0.66121042	5.83134127
-0.16712046	0.65948248	5.83134127
-0.16642147	0.65747452	5.83134079
-0.16733122	0.65596414	5.83133841
-0.16377044	0.64917606	5.83133888
-0.16445088	0.64645767	5.83133602
-0.16266489	0.64306605	5.83133650
-0.16190523	0.63957435	5.83133507
-0.16221982	0.63747084	5.83133316
-0.16186619	0.63329542	5.83133078
-0.16075009	0.62880200	5.83132935
-0.16104460	0.62514591	5.83132601
-0.16100430	0.62204099	5.83132410
-0.15961677	0.61640811	5.83132219
-0.15837783	0.60894752	5.83131886
-0.15697008	0.60176206	5.83131599
-0.15591604	0.59875214	5.83131552
-0.15589583	0.59719956	5.83131409
-0.15587550	0.59564745	5.83131313
-0.15505248	0.59067160	5.83131075
-0.15024030	0.57960188	5.83131027
-0.14814234	0.57513952	5.83131027
-0.14738119	0.57164776	5.83130932
-0.14588827	0.56777442	5.83130884
-0.14591002	0.56615299	5.83130741
-0.14538914	0.56225264	5.83130550
-0.14324009	0.55630207	5.83130455
-0.14429593	0.55296397	5.83130074
-0.14452708	0.55099815	5.83129883
-0.14221072	0.54532278	5.83129835
-0.14137512	0.54352617	5.83129835
-0.14148057	0.54176748	5.83129692
-0.14059371	0.53848207	5.83129597
-0.14061546	0.53686064	5.83129501
-0.13989902	0.53012609	5.83129120
-0.13746655	0.52304077	5.83128977
-0.13620460	0.51720136	5.83128738
-0.12493062	0.49145851	5.83128643
-0.12337697	0.48610154	5.83128500
-0.12418157	0.48317611	5.83128166
-0.12136453	0.47515377	5.83128023
-0.11991352	0.47121111	5.83127975
-0.11858928	0.46706194	5.83127880
-0.11560345	0.45931482	5.83127785
-0.11539567	0.45648494	5.83127594
-0.11224377	0.44901296	5.83127546
-0.11154467	0.44700506	5.83127546
-0.11083460	0.44500187	5.83127499
-0.11274910	0.44183910	5.83126974
-0.08981633	0.38462955	5.83126402
-0.07934684	0.35913569	5.83126163
-0.07960105	0.35237470	5.83125687
-0.07821369	0.34674180	5.83125496
-0.04330111	0.25543842	5.83124304
0.01371413	0.13884526	5.83124638
0.08470207	0.10236928	5.83132744
0.19335836	0.04410720	5.83144951
0.25178367	0.04710960	5.83153915
0.38624275	0.09011012	5.83177090
0.41503942	0.11709040	5.83183336
0.46951592	0.18009907	5.83195925
0.52865362	0.27146226	5.83211231
0.53737867	0.28745693	5.83213663
0.53586411	0.28970927	5.83213568
0.53977686	0.29617262	5.83214617
0.53866225	0.30384025	5.83214998
0.53889334	0.30580583	5.83215141
0.54080784	0.30896890	5.83215666
0.53979552	0.31204718	5.83215714
0.53971326	0.31508344	5.83215952
0.54049003	0.32111859	5.83216476
0.54051179	0.32273996	5.83216572
0.54082644	0.32484329	5.83216810
0.54299212	0.32841921	5.83217382
0.54318124	0.33031628	5.83217525
0.54566163	0.33599597	5.83218288
0.54520261	0.33841226	5.83218384
0.54612362	0.33992714	5.83218622
0.54835308	0.34836775	5.83219576
0.54841661	0.35005772	5.83219719
0.55104280	0.35439140	5.83220387
0.54948634	0.35657483	5.83220339
0.55119157	0.35939354	5.83220768
0.55156982	0.36318702	5.83221102
0.55273092	0.36511040	5.83221388
0.55207360	0.36718732	5.83221436
0.55238843	0.36929083	5.83221626
0.55274498	0.37146315	5.83221865
0.55461764	0.37455744	5.83222342
0.55790269	0.38316196	5.83223438
0.56017387	0.38849699	5.83224154
0.55741602	0.39186215	5.83223963
0.55918467	0.39637119	5.83224583
0.55941576	0.39833695	5.83224726
0.56349605	0.40507573	5.83225822
0.56564021	0.41020474	5.83226490
0.56280148	0.41660571	5.83226538
0.56490517	0.42166561	5.83227205
0.57140243	0.43556774	5.83229160
0.57356679	0.43914372	5.83229733
0.57043350	0.44188905	5.83229446
0.56896079	0.44421029	5.83229399
0.57495427	0.45411211	5.83230972
0.57686877	0.45727515	5.83231497
0.57705796	0.45917198	5.83231640
0.57772923	0.46344781	5.83232069
0.57943439	0.46626616	5.83232498
0.58025301	0.47237015	5.83233070
0.58031654	0.47406030	5.83233213
0.58439553	0.48079932	5.83234262
0.58128387	0.48516613	5.83234119
0.58155680	0.48720062	5.83234310
0.58353478	0.49205360	5.83234930
0.58031642	0.49466151	5.83234644
0.58433473	0.50288427	5.83235836
0.57983124	0.50653547	5.83235407
0.58328354	0.51224172	5.83236313
0.58761364	0.51939404	5.83237457
0.58452529	0.52855629	5.83237648
0.58694363	0.53571928	5.83238506
0.58452070	0.53963530	5.83238459
0.58714837	0.54714274	5.83239365
0.58843654	0.55244678	5.83239937
0.58675444	0.55442351	5.83239794
0.58730167	0.56166643	5.83240414
0.58784884	0.56890959	5.83240986
0.58799613	0.57073766	5.83241129
0.58875263	0.57832533	5.83241796
0.58603668	0.58175921	5.83241606
0.58751237	0.58578610	5.83242130
0.58803642	0.58823371	5.83242369
0.58820683	0.59485734	5.83242893
0.58727831	0.59807348	5.83242941
0.58769846	0.60193610	5.83243275
0.58896482	0.60561866	5.83243752
0.59293205	0.61532956	5.83245039
0.59176153	0.61657560	5.83244944
0.59216142	0.62199038	5.83245373
0.59110731	0.62500024	5.83245420
0.59150726	0.63041550	5.83245850
0.59282815	0.63734531	5.83246565
0.59037238	0.63963538	5.83246326
0.58965451	0.64319599	5.83246469
0.59179872	0.64832485	5.83247185
0.59305751	0.65673846	5.83247948
0.59159541	0.66067618	5.83247995
0.58995652	0.66272175	5.83247900
0.58896601	0.66742170	5.83248091
0.58822656	0.67253494	5.83248329
0.58831179	0.67584687	5.83248568
0.58700788	0.67844307	5.83248568
0.58835661	0.68226349	5.83249044
0.58991611	0.68642831	5.83249569
0.59292054	0.69455534	5.83250570
0.59285855	0.69603914	5.83250666
0.59355152	0.70193589	5.83251190
0.59199500	0.70411932	5.83251143
0.58833921	0.70759100	5.83250809
0.58686650	0.70991224	5.83250761
0.58522630	0.71195775	5.83250666
0.58545727	0.71392363	5.83250809
0.58541691	0.71702850	5.83251047
0.58417672	0.72448957	5.83251381
0.58249593	0.72646636	5.83251286
0.58524644	0.73100626	5.83252001
0.58522618	0.73255897	5.83252096
0.57969928	0.73611045	5.83251524
0.58001399	0.73821384	5.83251715
0.57991153	0.74280238	5.83252048
0.57936114	0.74663842	5.83252192
0.58140135	0.75318229	5.83253002
0.57549775	0.75611365	5.83252287
0.57389939	0.75822824	5.83252192
0.57238603	0.76048034	5.83252144
0.57457364	0.76885176	5.83253050
0.56828690	0.77589500	5.83252621
0.56645912	0.77921778	5.83252573
0.56502819	0.78160793	5.83252525
0.56303287	0.78465492	5.83252430
0.56166542	0.78556120	5.83252287
0.56189644	0.78752679	5.83252478
0.56422973	0.79455274	5.83253288
0.56065768	0.79816163	5.83253050
0.55918491	0.80048269	5.83252954
0.56181270	0.80799037	5.83253908
0.55830276	0.81328982	5.83253717
0.55155402	0.81640136	5.83252954
0.54974794	0.82134581	5.83253002
0.54989517	0.82317364	5.83253193
0.55239725	0.83047462	5.83254051
0.54516804	0.83755517	5.83253479
0.54420066	0.84705091	5.83254004
0.53898835	0.85270542	5.83253622
0.53440261	0.85621929	5.83253193
0.53591883	0.86031532	5.83253670
0.53374684	0.86147046	5.83253431
0.53202295	0.86337829	5.83253336
0.53305990	0.86826903	5.83253813
0.53121036	0.86997032	5.83253670
0.53049248	0.87353086	5.83253813
0.52868485	0.87530118	5.83253670
0.52828944	0.87940776	5.83253908
0.52782130	0.88338166	5.83254099
0.52704924	0.88686866	5.83254242
0.52412528	0.88995838	5.83254004
0.52215022	0.89145291	5.83253813
0.52069902	0.89539552	5.83253860
0.52063704	0.89687920	5.83253956
0.52126646	0.90108627	5.83254337
0.51582319	0.90477508	5.83253813
0.51422489	0.90688962	5.83253717
0.51279533	0.90927958	5.83253670
0.50982821	0.91230029	5.83253431
0.50962031	0.91513014	5.83253574
0.50575519	0.91825712	5.83253241
0.50632107	0.92077380	5.83253479
0.50625908	0.92225748	5.83253574
0.50150573	0.92549598	5.83253098
0.50138170	0.92846340	5.83253288
0.49772453	0.93193471	5.83253002
0.49631524	0.93277192	5.83252859
0.49494636	0.93367839	5.83252716
0.49461299	0.93630135	5.83252811
0.49278519	0.93962431	5.83252811
0.49280685	0.94124579	5.83252907
0.49116662	0.94329154	5.83252811
0.48642573	0.94653445	5.83252335
0.48650005	0.95301563	5.83252811
0.48419333	0.95552111	5.83252621
0.48134986	0.95718664	5.83252335
0.47938719	0.95868599	5.83252144
0.47983676	0.96261263	5.83252478
0.47657791	0.96515155	5.83252144
0.47448957	0.96644413	5.83251953
0.47152245	0.96946508	5.83251715
0.47320750	0.97383636	5.83252239
0.47191125	0.97487527	5.83252144
0.47052231	0.97733420	5.83252096
0.46780762	0.98076814	5.83251953
0.46869606	0.98383105	5.83252287
0.46995482	0.99224472	5.83253050
0.45935071	0.99848849	5.83251905
0.45771188	1.00053406	5.83251810
0.45985764	1.00883663	5.83252716
0.45496768	1.01186383	5.83252192
0.45137545	1.01702523	5.83252001
0.45169011	1.01912880	5.83252239
0.44855696	1.02504826	5.83252144
0.44685480	1.02857745	5.83252144
0.44376338	1.03139138	5.83251905
0.44544843	1.03576279	5.83252430
0.44376633	1.03773975	5.83252335
0.44378808	1.03936112	5.83252430
0.44420815	1.04322362	5.83252764
0.44458804	1.05019140	5.83253336
0.44290590	1.05216837	5.83253241
0.44340968	1.05616820	5.83253574
0.44147781	1.05773187	5.83253384
0.44013071	1.06025958	5.83253384
0.44084534	1.06777835	5.83254004
0.43939427	1.07172060	5.83254051
0.43229067	1.07900810	5.83253527
0.43698019	1.09150648	5.83255100
0.42697293	1.10350490	5.83254433
0.42718378	1.10702324	5.83254719
0.42228460	1.11160731	5.83254290
0.42264128	1.11377966	5.83254528
0.42119157	1.11772215	5.83254576
0.42119300	1.12089634	5.83254814
0.41988766	1.12349260	5.83254766
0.41868630	1.12467420	5.83254671
0.41929400	1.12725985	5.83254957
0.42012015	1.12863255	5.83255196
0.42033246	1.13532448	5.83255672
0.42043787	1.13708365	5.83255816
0.42142236	1.14028895	5.83256197
0.42302376	1.14452255	5.83256721
0.41852033	1.14817417	5.83256292
0.42197263	1.15388000	5.83257246
0.42218345	1.15739834	5.83257532
0.42445457	1.16273355	5.83258247
0.42708245	1.17341542	5.83259392
0.42737699	1.17707098	5.83259678
0.43000615	1.18775237	5.83260822
0.43278116	1.19708836	5.83261871
0.43112075	1.20068634	5.83261871
0.42649451	1.20730531	5.83261681
0.42872381	1.21257174	5.83262348
0.43063855	1.21890855	5.83263111
0.43324602	1.22796845	5.83264112
0.43372965	1.23352158	5.83264589
0.43391883	1.23541856	5.83264732
0.43273911	1.23822165	5.83264780
0.43654799	1.24609995	5.83265877
0.43890154	1.25157297	5.83266640
0.44733202	1.26391184	5.83268785
0.44781423	1.26629031	5.83269024
0.44947761	1.26904011	5.83269453
0.45174876	1.27437544	5.83270168
0.45218897	1.27668560	5.83270407
0.44936907	1.28153396	5.83270311
0.45328191	1.28799784	5.83271360
0.45752826	1.29501224	5.83272505
0.46167055	1.30026746	5.83273458
0.46186119	1.30533838	5.83273840
0.46385810	1.30863905	5.83274412
0.47466367	1.32489812	5.83277130
0.47472876	1.32976210	5.83277512
0.47512716	1.33200336	5.83277702
0.47897512	1.33677697	5.83278656
0.49745613	1.36096096	5.83283091
0.50256449	1.37732220	5.83285046
0.50908190	1.38967192	5.83286858
0.50918728	1.39143074	5.83287001
0.51160419	1.39542007	5.83287668
0.51362419	1.40034235	5.83288288
0.51587230	1.40405607	5.83288908
0.51812321	1.41094375	5.83289719
0.51696521	1.41536820	5.83289862
0.51715428	1.41726518	5.83290005
0.52125478	1.42245150	5.83291006
0.52493525	1.42694938	5.83291864
0.52918291	1.43396389	5.83293009
0.52981240	1.43817067	5.83293390
0.53378588	1.44315076	5.83294344
0.54021966	1.45536280	5.83296156
0.53870642	1.45761502	5.83296108
0.54255438	1.46238828	5.83297014
0.54108155	1.46470928	5.83296919
0.54233736	1.46677506	5.83297253
0.54501456	1.46962035	5.83297873
0.54532921	1.47172356	5.83298063
0.54616642	1.47310102	5.83298302
0.54747349	1.47685230	5.83298731
0.54795712	1.48240542	5.83299208
0.54856640	1.48816466	5.83299732
0.55052280	1.49139655	5.83300257
0.55098480	1.49532795	5.83300591
0.55125916	1.50053644	5.83300972
0.55357212	1.50594056	5.83301735
0.55617809	1.51182675	5.83302498
0.55687261	1.52089787	5.83303261
0.55558896	1.52511561	5.83303356
0.55573624	1.52694380	5.83303499
0.55752528	1.52989995	5.83303976
0.55617797	1.53242779	5.83303976
0.55161542	1.54073691	5.83303881
0.55729419	1.54853559	5.83305264
0.55577952	1.55078769	5.83305216
0.55769414	1.55395055	5.83305693
0.55823976	1.55801976	5.83306074
0.55986136	1.56070065	5.83306503
0.55859786	1.56336594	5.83306503
0.55901796	1.56722867	5.83306837
0.56095415	1.57201290	5.83307457
0.56288767	1.57362342	5.83307886
0.56169051	1.58115304	5.83308220
0.56377119	1.58459139	5.83308792
0.56627327	1.59189236	5.83309650
0.57186681	1.59637904	5.83310795
0.57224512	1.60017288	5.83311129
0.57247609	1.60213852	5.83311319
0.57859361	1.60907316	5.83312702
0.58479494	1.61614549	5.83314133
0.59055722	1.62090755	5.83315325
0.58431095	1.62801969	5.83314896
0.59032464	1.63636899	5.83316374
0.59436166	1.64303923	5.83317471
0.59493059	1.65190363	5.83318186
0.59732729	1.65744555	5.83318901
0.59547776	1.65914679	5.83318758
0.59829462	1.66855133	5.83319855
0.59833801	1.67179406	5.83320093
0.60069281	1.67726707	5.83320808
0.60313153	1.68605161	5.83321810
0.60529721	1.68962777	5.83322382
0.60369891	1.69174230	5.83322287
0.61177289	1.70190847	5.83324194
0.73871231	1.81331086	5.83351088
0.77155077	1.85169733	5.83358717
0.77558637	1.85519361	5.83359575
0.77949631	1.85848331	5.83360386
0.78332400	1.86163509	5.83361197
0.78557187	1.86217487	5.83361530
0.79183519	1.86776352	5.83362865
0.79524124	1.86705279	5.83363342
0.79742718	1.86907625	5.83363819
0.80020541	1.86733270	5.83364105
0.80669820	1.87171304	5.83365393
0.80804682	1.87235940	5.83365631
0.81212562	1.87592447	5.83366489
0.81807423	1.87940943	5.83367634
0.82516062	1.88002276	5.83368731
0.83718342	1.88719964	5.83371067
0.84063148	1.88655782	5.83371496
0.84264988	1.88830578	5.83371925
0.85208976	1.89121795	5.83373547
0.85791266	1.89449644	5.83374691
0.86520845	1.89545393	5.83375835
0.86691082	1.89509869	5.83376074
0.87121761	1.89428139	5.83376646
0.87329674	1.89454591	5.83376980
0.87880635	1.89572108	5.83377886
0.88099086	1.89774466	5.83378363
0.88356125	1.89565659	5.83378601
0.89301980	1.89701617	5.83380127
0.89560258	1.89810681	5.83380556
0.89905214	1.90063906	5.83381271
0.90161324	1.90010846	5.83381605
0.90306592	1.89933991	5.83381796
0.90547967	1.89698124	5.83381987
0.90829980	1.89530647	5.83382273
0.91458941	1.89143717	5.83382940
0.92791742	1.89601755	5.83385277
0.93564439	1.90084243	5.83386755
0.93754494	1.90082657	5.83387041
0.94168425	1.89973402	5.83387613
0.94328421	1.90079331	5.83387899
0.94638807	1.90115809	5.83388424
0.94944060	1.90144885	5.83388901
0.95170730	1.90043640	5.83389139
0.96254092	1.89298439	5.83390236
0.96989870	1.89245820	5.83391333
0.98280513	1.89000189	5.83393097
0.99586046	1.89254773	5.83395243
1.00670779	1.88827443	5.83396530
1.01202703	1.88755250	5.83397293
1.01631379	1.89146221	5.83398199
1.02157092	1.89222419	5.83399057
1.02699399	1.89008749	5.83399725
1.03590822	1.88737774	5.83400869
1.04593265	1.88808000	5.83402443
1.04942250	1.88750720	5.83402920
1.05146265	1.89087677	5.83403444
1.05350113	1.89107227	5.83403778
1.05634296	1.89101887	5.83404207
1.06210089	1.88943315	5.83404922
1.06376278	1.88900900	5.83405161
1.06910205	1.88673460	5.83405781
1.07784903	1.88374949	5.83406925
1.08520544	1.88322341	5.83407974
1.08951366	1.88558018	5.83408785
1.09100819	1.88488042	5.83408976
1.09987915	1.88210201	5.83410072
1.10568047	1.88375926	5.83411074
1.10824311	1.88640261	5.83411646
1.10998869	1.88611603	5.83411884
1.11156559	1.88555431	5.83412075
1.11545372	1.88404846	5.83412552
1.11694813	1.88334870	5.83412743
1.12031388	1.88574290	5.83413410
1.12441003	1.88458169	5.83413935
1.12632453	1.88774443	5.83414459
1.12964833	1.88689601	5.83414888
1.13336766	1.88511491	5.83415318
1.13756907	1.88571239	5.83415985
1.14066339	1.88607216	5.83416510
1.14694524	1.88693428	5.83417511
1.14997470	1.88560390	5.83417845
1.15174198	1.88693881	5.83418226
1.15569377	1.88712335	5.83418798
1.15821314	1.88969767	5.83419371
1.16174614	1.88919342	5.83419847
1.16321921	1.89004648	5.83420134
1.16405630	1.89142382	5.83420372
1.16559267	1.89079297	5.83420563
1.16931319	1.88901162	5.83420992
1.17757809	1.88682175	5.83422089
1.18371272	1.88585579	5.83422947
1.18978858	1.89272165	5.83424330
1.19464850	1.89124238	5.83424950
1.19676948	1.89157557	5.83425283
1.20246553	1.89147353	5.83426142
1.20396137	1.89394796	5.83426523
1.20616913	1.89759278	5.83427143
1.21146655	1.89524972	5.83427763
1.21897161	1.89655161	5.83428955
1.22834659	1.89777315	5.83430481
1.23585153	1.89907503	5.83431673
1.24180007	1.90256011	5.83432817
1.24720585	1.90515006	5.83433819
1.24932694	1.90548337	5.83434153
1.25556993	1.91262460	5.83435583
1.26109982	1.91224718	5.83436394
1.26538801	1.91933048	5.83437538
1.26912904	1.91917086	5.83438063
1.27571177	1.91578352	5.83438826
1.28342760	1.92060363	5.83440304
1.28777909	1.92620313	5.83441353
1.29044437	1.92743170	5.83441877
1.29204416	1.92849112	5.83442163
1.29458523	1.92951286	5.83442640
1.29620385	1.92901993	5.83442831
1.30276632	1.92718530	5.83443689
1.31042027	1.93348908	5.83445263
1.31204021	1.93299603	5.83445501
1.31405866	1.93474412	5.83445930
1.31682777	1.93455768	5.83446312
1.31983972	1.93795371	5.83447027
1.32782388	1.93528640	5.83448029
1.32986116	1.93548226	5.83448315
1.33764374	1.94834042	5.83450413
1.33913803	1.94764066	5.83450603
1.34001708	1.94908655	5.83450794
1.34294271	1.94917107	5.83451271
1.34537971	1.95160794	5.83451796
1.34710503	1.95287395	5.83452129
1.34798431	1.95431995	5.83452368
1.35319948	1.95501304	5.83453226
1.35486150	1.95458889	5.83453417
1.35824728	1.95543063	5.83453989
1.36080992	1.95807409	5.83454561
1.36789632	1.95868707	5.83455658
1.36955690	1.95826292	5.83455896
1.37153363	1.95994210	5.83456326
1.37344646	1.95993114	5.83456612
1.37506533	1.95943809	5.83456802
1.37727141	1.95990920	5.83457184
1.38057494	1.96061313	5.83457708
1.38275945	1.96263659	5.83458185
1.38990796	1.96176612	5.83459187
1.39432311	1.96905589	5.83460379
1.39646578	1.97101068	5.83460808
1.39900827	1.97520673	5.83461523
1.40062833	1.97471356	5.83461714
1.40752566	1.97342992	5.83462667
1.41706944	1.97810125	5.83464432
1.42289090	1.97820592	5.83465290
1.42635441	1.98391640	5.83466196
1.42797446	1.98342347	5.83466434
1.43161297	1.98785245	5.83467293
1.43470728	1.98821223	5.83467770
1.43964219	1.99160194	5.83468723
1.44215035	1.99099755	5.83469057
1.44414580	1.99112439	5.83469391
1.44664633	1.99525130	5.83470058
1.44814086	1.99455178	5.83470249
1.44982302	1.99574912	5.83470583
1.45345998	1.99382985	5.83470964
1.45639944	1.99709296	5.83471632
1.45953405	1.99752152	5.83472157
1.46350765	2.00250149	5.83473110
1.46516943	2.00207710	5.83473301
1.46745944	2.00268579	5.83473682
1.47105455	2.00387216	5.83474302
1.47319865	2.00582695	5.83474779
1.47530079	2.00771284	5.83475208
1.47744358	2.00966716	5.83475685
1.48259664	2.00867009	5.83476400
1.49228621	2.01199555	5.83478069
1.49609363	2.01669979	5.83478975
1.49775410	2.01627541	5.83479214
1.49941587	2.01585126	5.83479404
1.50355697	2.02110672	5.83480406
1.50555384	2.02123356	5.83480692
1.51368833	2.02674222	5.83482313
1.51503682	2.02738833	5.83482552
1.51867247	2.02546978	5.83482981
1.52316999	2.02972341	5.83483934
1.52464271	2.03057599	5.83484221
1.53048754	2.03547621	5.83485460
1.53629017	2.03713322	5.83486462
1.53849494	2.03760409	5.83486795
1.54246807	2.03941011	5.83487511
1.54751766	2.04300165	5.83488560
1.55361199	2.04514074	5.83489609
1.55972946	2.05207539	5.83490992
1.56773686	2.05420327	5.83492374
1.57093573	2.05632234	5.83492994
1.57547450	2.06064487	5.83493996
1.57747054	2.06077170	5.83494282
1.58071136	2.06295943	5.83494902
1.58327341	2.06560302	5.83495474
1.58535385	2.06586742	5.83495808
1.58850956	2.06474352	5.83496237
1.59655976	2.07011437	5.83497810
1.59992599	2.07250857	5.83498478
1.60566592	2.07564950	5.83499575
1.60741091	2.07536292	5.83499813
1.61176038	2.07778883	5.83500624
1.61552513	2.08242416	5.83501530
1.61706078	2.08179331	5.83501673
1.61912107	2.08361030	5.83502150
1.62185049	2.08652925	5.83502769
1.62494409	2.08688903	5.83503246
1.62755966	2.08960581	5.83503819
1.62941909	2.08952093	5.83504105
1.63890016	2.09250236	5.83505726
1.64646101	2.10022545	5.83507395
1.65268254	2.10574532	5.83508730
1.65573442	2.10603619	5.83509207
1.65866041	2.10612059	5.83509636
1.66769421	2.11152291	5.83511400
1.66996324	2.11368418	5.83511877
1.67391574	2.11704254	5.83512688
1.67734563	2.12112713	5.83513498
1.68102527	2.12245083	5.83514166
1.68710852	2.12458539	5.83515215
1.69246960	2.12393260	5.83515978
1.69413090	2.12350845	5.83516169
1.70043826	2.13233995	5.83517742
1.70228863	2.13381243	5.83518124
1.71021366	2.13897681	5.83519697
1.71389341	2.14030075	5.83520317
1.72190309	2.14877653	5.83522129
1.72846162	2.15802121	5.83523750
1.73447537	2.16637063	5.83525229
1.74216056	2.17112660	5.83526754
1.75988865	2.19724536	5.83531237
1.76423967	2.20284510	5.83532286
1.76594281	2.20248985	5.83532524
1.82388854	2.28869128	5.83547258
1.82534111	2.28792262	5.83547401
1.84293771	2.32173991	5.83552456
1.86318541	2.36786008	5.83558702
1.89726710	2.46693730	5.83570814
1.90222859	2.48147011	5.83572578
1.90422773	2.48794460	5.83573294
1.90531909	2.49608302	5.83574057
1.91103935	2.54197884	5.83578110
1.91238332	2.55370426	5.83579159
1.90322518	2.60989857	5.83581734
1.89912760	2.62848711	5.83582449
1.89620590	2.63792491	5.83582640
1.88987899	2.65124702	5.83582640
1.87217188	2.68537903	5.83582401
1.85747850	2.70865393	5.83581829
1.81771016	2.74915552	5.83578682
1.81419945	2.75128078	5.83578300
1.81047940	2.75306201	5.83577871
1.76578271	2.78065658	5.83573103
1.75569022	2.78616905	5.83572006
1.74803174	2.79094458	5.83571196
1.73090196	2.79118156	5.83568621
1.72743165	2.79020190	5.83568048
1.71557164	2.79437971	5.83566570
1.70867443	2.79566336	5.83565617
1.70468163	2.79541016	5.83564997
1.70110738	2.79584551	5.83564472
1.69948792	2.79633856	5.83564281
1.69406497	2.79847503	5.83563614
1.69044864	2.79884171	5.83563089
1.68330026	2.79971218	5.83562088
1.67839849	2.80273461	5.83561563
1.67573321	2.79989409	5.83560991
1.67411387	2.80038691	5.83560753
1.66690326	2.80274105	5.83559847
1.66499102	2.80275249	5.83559561
1.65862608	2.80492663	5.83558750
1.65521991	2.80563712	5.83558273
1.65135109	2.80241656	5.83557510
1.64850867	2.80246973	5.83557081
1.64399338	2.80294275	5.83556414
1.64212286	2.80302262	5.83556128
1.63884151	2.80393982	5.83555698
1.63551867	2.80478859	5.83555269
1.63181889	2.80501699	5.83554745
1.62582982	2.80463696	5.83553839
1.62376940	2.80281997	5.83553362
1.62090695	2.80442595	5.83553076
1.61868131	2.80550742	5.83552790
1.61706185	2.80600047	5.83552599
1.61354971	2.80495214	5.83551979
1.60453010	2.80590272	5.83550692
1.60219979	2.80522490	5.83550310
1.59816432	2.80490303	5.83549690
1.59671175	2.80567145	5.83549500
1.59505141	2.80609560	5.83549309
1.59334755	2.80645108	5.83549070
1.59153831	2.80504727	5.83548689
1.58916616	2.80430055	5.83548307
1.58729506	2.80438042	5.83548021
1.58330154	2.80412722	5.83547401
1.58138978	2.80413818	5.83547115
1.57972789	2.80456233	5.83546877
1.57297635	2.80450010	5.83545876
1.57097948	2.80437374	5.83545589
1.56923532	2.80465984	5.83545351
1.56702936	2.80418921	5.83544970
1.56288981	2.80210757	5.83544207
1.56143737	2.80287600	5.83544016
1.55977535	2.80330038	5.83543825
1.55081904	2.80276728	5.83542442
1.54700053	2.79805779	5.83541536
1.54085684	2.80058098	5.83540773
1.53932035	2.80121207	5.83540583
1.53776383	2.80022144	5.83540297
1.53349757	2.79793358	5.83539486
1.53200293	2.79863310	5.83539343
1.52952528	2.79612732	5.83538771
1.52814531	2.79702902	5.83538628
1.52452874	2.79739547	5.83538103
1.52286828	2.79781961	5.83537912
1.52133203	2.79845047	5.83537722
1.51796472	2.79605627	5.83537054
1.51214480	2.79912543	5.83536386
1.50983453	2.79689550	5.83535862
1.50844419	2.79618025	5.83535624
1.50083518	2.79629326	5.83534479
1.49652672	2.79076266	5.83533430
1.49486482	2.79118681	5.83533239
1.49316108	2.79154205	5.83533001
1.48946047	2.78859663	5.83532238
1.48693061	2.78757954	5.83531809
1.48482966	2.78569388	5.83531332
1.47406447	2.78693080	5.83529806
1.46586657	2.77973175	5.83528090
1.46069455	2.78228140	5.83527470
1.45892715	2.78094673	5.83527136
1.45508087	2.77934742	5.83526421
1.44757581	2.77804542	5.83525229
1.44559920	2.77636623	5.83524799
1.43416393	2.77332735	5.83522892
1.43014860	2.76827860	5.83521891
1.42394876	2.76438022	5.83520699
1.42224503	2.76473570	5.83520460
1.42062521	2.76522875	5.83520269
1.41831338	2.76299882	5.83519745
1.41615069	2.76259661	5.83519411
1.41322374	2.76251221	5.83518982
1.40952468	2.76274085	5.83518410
1.40679479	2.75982237	5.83517838
1.40542579	2.76072860	5.83517694
1.40363967	2.76094580	5.83517408
1.39796388	2.75949550	5.83516455
1.38698781	2.75721407	5.83514643
1.38492906	2.75539708	5.83514214
1.38051522	2.75128126	5.83513260
1.36947680	2.74730945	5.83511353
1.36350811	2.74537706	5.83510303
1.35949302	2.74350238	5.83509588
1.35767269	2.74209404	5.83509207
1.35045147	2.73965740	5.83507967
1.34484076	2.74307084	5.83507347
1.34105504	2.73998785	5.83506584
1.33390653	2.74085855	5.83505535
1.32453156	2.73963642	5.83504057
1.31818461	2.73391032	5.83502722
1.31389666	2.73000097	5.83501768
1.30975699	2.72791958	5.83501005
1.30813706	2.72841263	5.83500814
1.30296516	2.73096251	5.83500195
1.29579186	2.72386360	5.83498621
1.29314554	2.72108245	5.83498049
1.27773368	2.72731686	5.83496189
1.26550019	2.71662140	5.83493567
1.25538754	2.70625997	5.83491325
1.24731374	2.69609380	5.83489418
1.24380362	2.69821930	5.83489037
1.23654974	2.69733071	5.83487892
1.23022294	2.69005156	5.83486414
1.22799516	2.68795943	5.83485937
1.22128689	2.69113994	5.83485174
1.21941566	2.69121981	5.83484888
1.21125925	2.68091559	5.83482933
1.20930445	2.68085790	5.83482647
1.20768440	2.68135095	5.83482456
1.20028484	2.68180823	5.83481359
1.18670392	2.67364073	5.83478737
1.17745471	2.67262554	5.83477306
1.16892171	2.66487575	5.83475447
1.16755307	2.66578174	5.83475304
1.16532516	2.66368985	5.83474827
1.16143847	2.66519523	5.83474350
1.15796876	2.66421604	5.83473778
1.15466666	2.66668558	5.83473444
1.14829791	2.65933800	5.83471966
1.14588273	2.65852284	5.83471584
1.14243448	2.65916443	5.83471107
1.13875425	2.65784073	5.83470440
1.13690472	2.65636778	5.83470058
1.13486600	2.65617228	5.83469725
1.13301492	2.65469980	5.83469343
1.12826920	2.65320683	5.83468533
1.12591588	2.65090799	5.83468008
1.12063718	2.64852428	5.83467054
1.11700010	2.64726949	5.83466434
1.11195230	2.65002584	5.83465862
1.09966922	2.64399314	5.83463621
1.09756851	2.64210725	5.83463144
1.09201694	2.64086318	5.83462238
1.08987427	2.63890839	5.83461761
1.08825421	2.63940167	5.83461571
1.08405280	2.63880396	5.83460903
1.08243275	2.63929701	5.83460712
1.08081269	2.63979006	5.83460474
1.07854307	2.63762903	5.83459997
1.07633841	2.63715792	5.83459616
1.07242846	2.63704252	5.83459044
1.07109058	2.63801289	5.83458900
1.06958687	2.63709569	5.83458614
1.06679463	2.63566065	5.83458090
1.06550956	2.63670468	5.83457994
1.06201971	2.63727760	5.83457470
1.05062795	2.63748145	5.83455801
1.04665446	2.63567567	5.83455086
1.04503584	2.63616896	5.83454847
1.03935874	2.63471842	5.83453894
1.02922726	2.62590885	5.83451796
1.02338266	2.62100887	5.83450556
1.01779222	2.62286997	5.83449841
1.00814140	2.61643958	5.83447933
1.00221312	2.61140203	5.83446693
0.99784279	2.61052871	5.83445978
0.99518865	2.60930490	5.83445501
0.98993152	2.60854316	5.83444643
0.98766190	2.60638189	5.83444166
0.98520625	2.60867167	5.83443975
0.97866380	2.60577965	5.83442783
0.97300839	2.60595083	5.83441925
0.97090757	2.60406446	5.83441496
0.96298087	2.59572649	5.83439732
0.95194405	2.59492874	5.83438015
0.93350637	2.57398725	5.83433771
0.92974365	2.57252598	5.83433104
0.92795622	2.57274318	5.83432865
0.92558265	2.57199693	5.83432436
0.92225868	2.56967139	5.83431768
0.91883099	2.57193470	5.83431435
0.91151649	2.57252979	5.83430386
0.90735406	2.56882691	5.83429480
0.90550309	2.56735468	5.83429098
0.89669544	2.57182312	5.83428097
0.89238733	2.56946611	5.83427286
0.88107610	2.56346011	5.83425140
0.87153226	2.55878878	5.83423424
0.86972314	2.55738497	5.83423042
0.86757910	2.55543041	5.83422565
0.86591727	2.55585456	5.83422375
0.86385822	2.55403781	5.83421898
0.85637480	2.55435729	5.83420801
0.84479088	2.54631639	5.83418512
0.83705795	2.53196955	5.83416367
0.83487356	2.52994633	5.83415890
0.83246922	2.52913547	5.83415461
0.83055747	2.52914643	5.83415174
0.81698126	2.53050089	5.83413219
0.81044227	2.51970410	5.83411503
0.80812126	2.52064323	5.83411217
0.80083632	2.51651621	5.83409834
0.79578859	2.51609874	5.83409023
0.78822136	2.51628065	5.83407927
0.78560591	2.51356363	5.83407354
0.78254569	2.51483011	5.83406973
0.77478802	2.50994134	5.83405447
0.77018523	2.50392866	5.83404350
0.76248151	2.50389910	5.83403206
0.75790018	2.49633384	5.83401966
0.75624788	2.49358845	5.83401537
0.75336421	2.49357295	5.83401108
0.74997658	2.49434304	5.83400631
0.74471939	2.49358130	5.83399820
0.74077857	2.49022746	5.83398962
0.73870921	2.48996782	5.83398628
0.73696494	2.49025416	5.83398390
0.73032796	2.49356818	5.83397627
0.72656536	2.49210620	5.83396959
0.72261202	2.48557377	5.83395910
0.72084469	2.48423886	5.83395576
0.71737367	2.48325920	5.83394957
0.71485573	2.48385882	5.83394623
0.71319234	2.48110938	5.83394194
0.71113205	2.47929215	5.83393764
0.70791352	2.47872567	5.83393240
0.70625168	2.47915030	5.83393002
0.70387667	2.47522974	5.83392382
0.70061469	2.47142053	5.83391619
0.69649565	2.47096062	5.83390999
0.69528168	2.46896362	5.83390665
0.69451720	2.46771908	5.83390474
0.68890500	2.46795917	5.83389616
0.68016899	2.46777487	5.83388281
0.67065650	2.46472979	5.83386660
0.66868126	2.46305037	5.83386230
0.66300547	2.46159959	5.83385277
0.66110164	2.46005321	5.83384895
0.65754533	2.45576215	5.83384085
0.65388805	2.45605993	5.83383560
0.65163100	2.45707726	5.83383274
0.64802325	2.45271230	5.83382416
0.64590085	2.45237923	5.83382082
0.64451033	2.45166397	5.83381844
0.64233506	2.45125723	5.83381462
0.64077711	2.45026660	5.83381176
0.63609499	2.45046377	5.83380461
0.63419437	2.45047975	5.83380175
0.63281441	2.45138121	5.83380032
0.62865520	2.44924045	5.83379269
0.62662715	2.45066166	5.83379078
0.62277019	2.44744539	5.83378267
0.62033463	2.44818306	5.83377934
0.61821228	2.44784951	5.83377600
0.61684340	2.44875598	5.83377457
0.61493170	2.44876695	5.83377171
0.61297679	2.44870925	5.83376884
0.60946679	2.45083475	5.83376503
0.60438633	2.45196509	5.83375835
0.59714329	2.44790673	5.83374453
0.59333748	2.44637656	5.83373785
0.59029418	2.44452858	5.83373213
0.58672059	2.44496346	5.83372688
0.58476567	2.44490600	5.83372402
0.58304155	2.44363976	5.83372021
0.58133781	2.44399524	5.83371830
0.57278013	2.44887686	5.83370876
0.56201321	2.44376588	5.83368874
0.55852330	2.44433904	5.83368397
0.55318266	2.44661307	5.83367777
0.54561687	2.44679523	5.83366632
0.54014909	2.44568896	5.83365774
0.53302366	2.44818068	5.83364868
0.52156532	2.44352055	5.83362818
0.51917148	2.44115257	5.83362293
0.51742595	2.44143915	5.83362055
0.51576412	2.44186330	5.83361816
0.51362002	2.43990898	5.83361387
0.51212692	2.44060850	5.83361197
0.50458002	2.43923783	5.83359957
0.50107777	2.43980622	5.83359480
0.49877870	2.43758059	5.83358955
0.49537122	2.43829131	5.83358526
0.49295720	2.43747592	5.83358097
0.48809713	2.43895531	5.83357477
0.48249257	2.43446374	5.83356333
0.47986013	2.43486142	5.83355951
0.47689289	2.43788242	5.83355713
0.47506356	2.43803120	5.83355427
0.47084954	2.43425441	5.83354568
0.46794289	2.43261766	5.83353996
0.46370104	2.43512511	5.83353519
0.46203920	2.43554926	5.83353329
0.45799601	2.43678451	5.83352804
0.45389840	2.43477178	5.83352041
0.45025992	2.43351698	5.83351421
0.44414693	2.43610430	5.83350658
0.44248506	2.43652844	5.83350468
0.44028035	2.43605733	5.83350086
0.43449154	2.43757892	5.83349323
0.43306977	2.43841195	5.83349180
0.43159553	2.43755889	5.83348894
0.42982829	2.43622398	5.83348560
0.42731035	2.43682337	5.83348227
0.42379746	2.43577504	5.83347607
0.42242858	2.43668151	5.83347464
0.42001453	2.43586588	5.83347034
0.41843644	2.43642783	5.83346844
0.41671246	2.43833590	5.83346701
0.41212362	2.43550181	5.83345842
0.41082743	2.43654084	5.83345699
0.40871572	2.43782425	5.83345461
0.40661508	2.43911266	5.83345270
0.40144315	2.44166231	5.83344650
0.40013769	2.44108486	5.83344412
0.39664650	2.44165754	5.83343935
0.39403421	2.44050288	5.83343458
0.39287466	2.44175363	5.83343363
0.39089960	2.44324827	5.83343172
0.38875839	2.44446754	5.83342981
0.38519412	2.44651937	5.83342552
0.38373092	2.44567156	5.83342266
0.38170290	2.44709253	5.83342075
0.37971851	2.44697046	5.83341789
0.37452647	2.45107269	5.83341265
0.37236226	2.45067072	5.83340931
0.37061661	2.45095730	5.83340693
0.36572826	2.45715833	5.83340406
