//X	Y	Z
-0.33163726	-0.74529576	2.36309719
-0.33194697	-0.74410945	2.36309814
-0.33256572	-0.74362254	2.36309981
-0.33326614	-0.74317616	2.36310172
-0.33293498	-0.74148214	2.36310077
-0.33486825	-0.74012369	2.36310625
-0.33494812	-0.73703706	2.36310625
-0.33533782	-0.73552340	2.36310720
-0.33628881	-0.73346579	2.36310983
-0.33613306	-0.73042589	2.36310935
-0.33729243	-0.73014742	2.36311245
-0.33616447	-0.72490543	2.36310911
-0.33969033	-0.72287101	2.36311889
-0.34000033	-0.72168505	2.36311984
-0.33987164	-0.71957827	2.36311936
-0.34110618	-0.71903419	2.36312270
-0.34196043	-0.71850044	2.36312509
-0.34291065	-0.71694863	2.36312771
-0.34440690	-0.71641713	2.36313200
-0.34425128	-0.71475685	2.36313152
-0.34500456	-0.71442968	2.36313367
-0.34577483	-0.71239942	2.36313581
-0.34642011	-0.71197200	2.36313748
-0.34714770	-0.71107936	2.36313963
-0.34789586	-0.71081352	2.36314154
-0.34837133	-0.70978487	2.36314297
-0.34885675	-0.70863259	2.36314416
-0.34908652	-0.70777375	2.36314487
-0.35021877	-0.70656186	2.36314797
-0.35038441	-0.70533985	2.36314845
-0.35125697	-0.70397717	2.36315084
-0.35081291	-0.70086521	2.36314940
-0.35151833	-0.70035714	2.36315131
-0.35393262	-0.69878173	2.36315823
-0.35480350	-0.69843090	2.36316061
-0.35540169	-0.69731700	2.36316228
-0.35622996	-0.69672394	2.36316466
-0.35704732	-0.69538051	2.36316681
-0.35834926	-0.69477028	2.36317039
-0.35963631	-0.69296539	2.36317396
-0.36004752	-0.69157302	2.36317515
-0.36256415	-0.69066536	2.36318231
-0.36323154	-0.68985325	2.36318398
-0.36409748	-0.68956417	2.36318660
-0.36541182	-0.68869251	2.36319017
-0.36722797	-0.68685162	2.36319518
-0.36818546	-0.68647951	2.36319804
-0.36843526	-0.68537414	2.36319852
-0.36962742	-0.68408167	2.36320186
-0.37044817	-0.68368834	2.36320424
-0.37068552	-0.68262970	2.36320496
-0.37059325	-0.68183899	2.36320448
-0.37200874	-0.68076116	2.36320853
-0.37191254	-0.67952615	2.36320806
-0.37322676	-0.67865467	2.36321187
-0.37466878	-0.67625654	2.36321592
-0.37623364	-0.66687584	2.36321974
-0.37590742	-0.66512007	2.36321878
-0.37756860	-0.66249239	2.36322331
-0.39863592	-0.65269822	2.36328268
-0.39955461	-0.65114844	2.36328506
-0.40015775	-0.64859325	2.36328673
-0.39980352	-0.64757538	2.36328554
-0.40022540	-0.64693338	2.36328673
-0.40056664	-0.64298588	2.36328769
-0.40268755	-0.64139992	2.36329341
-0.40507549	-0.63976502	2.36330009
-0.41127533	-0.63492656	2.36331749
-0.41633046	-0.63134658	2.36333179
-0.41656059	-0.63048804	2.36333227
-0.41759217	-0.62897658	2.36333513
-0.41723287	-0.62823451	2.36333418
-0.41833949	-0.62645745	2.36333704
-0.41891634	-0.62522256	2.36333871
-0.42243159	-0.62243760	2.36334848
-0.42244065	-0.62144047	2.36334848
-0.42190659	-0.62015867	2.36334705
-0.42238230	-0.61913007	2.36334825
-0.42257416	-0.61796719	2.36334872
-0.42229074	-0.61645353	2.36334777
-0.42248285	-0.61529100	2.36334825
-0.31315434	-0.48120344	2.36303115
-0.25131273	-0.34561756	2.36284852
-0.25032800	-0.34367678	2.36284566
-0.24521768	-0.34175748	2.36283112
-0.24331605	-0.34035465	2.36282563
-0.24291891	-0.33379045	2.36282420
-0.23795509	-0.33314863	2.36281013
-0.23588371	-0.32838514	2.36280394
-0.23489249	-0.32475865	2.36280107
-0.22786057	-0.32030350	2.36278081
-0.22744215	-0.31223854	2.36277914
-0.22711581	-0.31048271	2.36277819
-0.22522235	-0.29755199	2.36277223
-0.22474289	-0.29537755	2.36277056
-0.22260547	-0.29402137	2.36276460
-0.21760792	-0.29351988	2.36275029
-0.21276116	-0.29336074	2.36273646
-0.21219927	-0.29027209	2.36273479
-0.21057808	-0.25791672	2.36272860
-0.20986199	-0.25767437	2.36272645
-0.20761257	-0.25715372	2.36272001
-0.20579416	-0.24671653	2.36271429
-0.20479465	-0.24496076	2.36271143
-0.20140797	-0.24316876	2.36270165
-0.20094252	-0.23993559	2.36270022
-0.19930762	-0.23986340	2.36269569
-0.19917917	-0.23913634	2.36269522
-0.19798762	-0.23854338	2.36269188
-0.19554043	-0.23699391	2.36268473
-0.19438601	-0.23583116	2.36268139
-0.19241416	-0.23463236	2.36267567
-0.19018120	-0.23291488	2.36266923
-0.18833220	-0.23163110	2.36266398
-0.18811548	-0.23034297	2.36266327
-0.18780732	-0.22659305	2.36266232
-0.18522823	-0.22612557	2.36265492
-0.18459207	-0.22417632	2.36265302
-0.18405247	-0.22346213	2.36265135
-0.18321276	-0.22243114	2.36264896
-0.18250751	-0.22155970	2.36264706
-0.18096823	-0.22046921	2.36264253
-0.17971164	-0.21725945	2.36263871
-0.17724305	-0.21558876	2.36263180
-0.17623281	-0.21308257	2.36262870
-0.17468297	-0.21124184	2.36262417
-0.17416954	-0.20920746	2.36262274
-0.17295092	-0.20768134	2.36261916
-0.17149168	-0.20488386	2.36261487
-0.16761804	-0.20504144	2.36260390
-0.16646367	-0.20387869	2.36260056
-0.16442764	-0.20231646	2.36259460
-0.16365802	-0.20108141	2.36259246
-0.16257858	-0.20103253	2.36258936
-0.16174465	-0.19943404	2.36258698
-0.15978366	-0.19760601	2.36258125
-0.15927041	-0.19557181	2.36257958
-0.15827090	-0.19381602	2.36257672
-0.15782183	-0.19214520	2.36257529
-0.15582770	-0.19133106	2.36256981
-0.15138227	-0.19128233	2.36255717
-0.15049487	-0.18731157	2.36255431
-0.14905202	-0.18607655	2.36255026
-0.14811110	-0.18387234	2.36254740
-0.14758217	-0.18252894	2.36254573
-0.14653492	-0.18197206	2.36254287
-0.14629918	-0.18063912	2.36254215
-0.14481348	-0.17916183	2.36253786
-0.14389402	-0.17845824	2.36253524
-0.14318365	-0.17764838	2.36253309
-0.14219081	-0.17619887	2.36253023
-0.14151096	-0.17589259	2.36252832
-0.14046949	-0.17476821	2.36252522
-0.14004683	-0.17315695	2.36252403
-0.13883960	-0.17325477	2.36252046
-0.13802230	-0.17321873	2.36251831
-0.13687277	-0.17061467	2.36251473
-0.13635945	-0.16996002	2.36251330
-0.13579839	-0.16912466	2.36251163
-0.13383734	-0.16729669	2.36250615
-0.13310474	-0.16549194	2.36250377
-0.13214314	-0.16541974	2.36250114
-0.13123429	-0.16408698	2.36249852
-0.12820035	-0.16389583	2.36248994
-0.12764329	-0.16074550	2.36248803
-0.12726343	-0.15937653	2.36248708
-0.12662238	-0.15886852	2.36248517
-0.12567651	-0.15810542	2.36248231
-0.12464577	-0.15497226	2.36247945
-0.12306941	-0.15445144	2.36247492
-0.12174863	-0.15363741	2.36247110
-0.12047791	-0.15286574	2.36246729
-0.11975616	-0.15181145	2.36246538
-0.11927009	-0.15071042	2.36246395
-0.11815274	-0.14897801	2.36246061
-0.11667198	-0.14881852	2.36245632
-0.11581755	-0.14797258	2.36245394
-0.11428905	-0.14625303	2.36244941
-0.11189538	-0.14569622	2.36244273
-0.11009908	-0.14039253	2.36243725
-0.10903537	-0.13827328	2.36243415
-0.10835648	-0.13608178	2.36243224
-0.10742545	-0.13099495	2.36242914
-0.10639876	-0.12692629	2.36242604
-0.10573620	-0.12629716	2.36242414
-0.10537285	-0.12511100	2.36242318
-0.10398775	-0.12531298	2.36241913
-0.10314983	-0.12327029	2.36241674
-0.10238510	-0.12197356	2.36241436
-0.10086167	-0.11743316	2.36240983
-0.09978712	-0.11594300	2.36240673
-0.09946078	-0.11418719	2.36240578
-0.09867394	-0.11327524	2.36240339
-0.09789938	-0.11072229	2.36240125
-0.09601331	-0.11000818	2.36239576
-0.09541428	-0.10748925	2.36239386
-0.09439343	-0.10561229	2.36239100
-0.09375823	-0.10315716	2.36238909
-0.09266138	-0.10205178	2.36238575
-0.09135711	-0.10142054	2.36238217
-0.09006500	-0.09776855	2.36237812
-0.08926338	-0.09704168	2.36237597
-0.08844018	-0.09481397	2.36237359
-0.08649880	-0.09135962	2.36236787
-0.08572352	-0.09069227	2.36236548
-0.08350623	-0.08552484	2.36235905
-0.08221757	-0.08420267	2.36235523
-0.08078539	-0.08371802	2.36235118
-0.08010077	-0.08071442	2.36234903
-0.07786196	-0.07956452	2.36234260
-0.07626426	-0.07892263	2.36233807
-0.07485276	-0.07492638	2.36233377
-0.07401311	-0.07113623	2.36233139
-0.07283169	-0.06628112	2.36232781
-0.06906432	-0.06479122	2.36231685
-0.06726229	-0.05729593	2.36231136
-0.06381643	-0.05348485	2.36230135
-0.06583399	-0.02072727	2.36230540
-0.06861520	-0.00749241	2.36231279
-0.07403564	0.00673524	2.36232734
-0.09199071	0.02154392	2.36237741
-0.10297954	0.03041922	2.36240816
-0.10369557	0.03017698	2.36241031
-0.10609430	0.03106129	2.36241698
-0.11630940	0.03471812	2.36244583
-0.11790711	0.03407626	2.36245036
-0.11906648	0.03435473	2.36245370
-0.12071198	0.03491182	2.36245823
-0.12421161	0.03562613	2.36246824
-0.12464988	0.03470577	2.36246943
-0.12583071	0.03486307	2.36247277
-0.12717706	0.03486311	2.36247659
-0.12900966	0.03514173	2.36248183
-0.13122702	0.03549255	2.36248803
-0.13204437	0.03545656	2.36249042
-0.13278186	0.03509298	2.36249256
-0.13609433	0.03608591	2.36250186
-0.13655418	0.03504430	2.36250329
-0.13973308	0.03532301	2.36251235
-0.14052916	0.03540799	2.36251450
-0.14156574	0.03560154	2.36251736
-0.14493167	0.03560167	2.36252689
-0.14697284	0.03548060	2.36253285
-0.14783883	0.03439005	2.36253524
-0.14947355	0.03431788	2.36254001
-0.15082002	0.03431794	2.36254382
-0.15258330	0.03351884	2.36254883
-0.15443730	0.03367618	2.36255407
-0.15547389	0.03386969	2.36255693
-0.15751499	0.03374862	2.36256289
-0.15944391	0.03279208	2.36256838
-0.16030425	0.03251365	2.36257076
-0.16133577	0.03126604	2.36257386
-0.16282636	0.03122989	2.36257792
-0.16358531	0.03074528	2.36258030
-0.16507095	0.03064760	2.36258435
-0.16561562	0.02999498	2.36258602
-0.16618335	0.02885349	2.36258769
-0.16700071	0.02881731	2.36259007
-0.16792935	0.02911092	2.36259270
-0.16836774	0.02819037	2.36259389
-0.16984349	0.02796931	2.36259818
-0.17060244	0.02748466	2.36260033
-0.17146260	0.02720625	2.36260271
-0.17289972	0.02678332	2.36260676
-0.17381352	0.02689185	2.36260939
-0.17494643	0.02585030	2.36261272
-0.17539966	0.02511480	2.36261392
-0.17618090	0.02501495	2.36261630
-0.17682689	0.02456850	2.36261797
-0.17761290	0.02453031	2.36262035
-0.17845172	0.02437312	2.36262274
-0.17953110	0.02432423	2.36262584
-0.18008566	0.02379493	2.36262727
-0.18048114	0.02311695	2.36262846
-0.18124086	0.02313818	2.36263061
-0.18206906	0.02235173	2.36263299
-0.18288642	0.02231558	2.36263537
-0.18538731	0.02253249	2.36264253
-0.18673939	0.02034101	2.36264634
-0.18742335	0.01959065	2.36264849
-0.18812948	0.01922503	2.36265039
-0.18878049	0.01884032	2.36265230
-0.18994647	0.01881276	2.36265564
-0.19120216	0.01785617	2.36265922
-0.19238216	0.01750767	2.36266255
-0.19316316	0.01602820	2.36266494
-0.19355375	0.01528836	2.36266613
-0.19457310	0.01515882	2.36266899
-0.19538474	0.01455524	2.36267114
-0.19600099	0.01373892	2.36267304
-0.19689846	0.01403014	2.36267567
-0.19763583	0.01366669	2.36267757
-0.19891220	0.01346274	2.36268139
-0.20038301	0.01180043	2.36268568
-0.20149875	0.01181538	2.36268878
-0.20209771	0.01067603	2.36269045
-0.20302153	0.00952821	2.36269307
-0.20388746	0.00981741	2.36269569
-0.20475841	0.00878858	2.36269808
-0.20538461	0.00809559	2.36269999
-0.20602566	0.00758755	2.36270189
-0.20690084	0.00749404	2.36270428
-0.20772886	0.00670765	2.36270666
-0.20857930	0.00630588	2.36270905
-0.20932662	0.00606579	2.36271119
-0.21016550	0.00590839	2.36271358
-0.21118641	0.00541105	2.36271667
-0.21243149	0.00520491	2.36272001
-0.21371931	0.00475647	2.36272383
-0.21636933	0.00499892	2.36273122
-0.21785909	0.00445708	2.36273551
-0.21969330	0.00436773	2.36274076
-0.22061616	0.00409360	2.36274338
-0.22115749	0.00301159	2.36274505
-0.22217685	0.00288202	2.36274791
-0.22331631	0.00291401	2.36275101
-0.22405875	0.00261212	2.36275315
-0.22480035	0.00180450	2.36275530
-0.22613275	0.00074595	2.36275911
-0.22692376	-0.00061034	2.36276150
-0.22798175	-0.00053798	2.36276460
-0.22995359	-0.00173678	2.36277008
-0.23114008	-0.00377105	2.36277366
-0.23197311	-0.00449594	2.36277604
-0.23256725	-0.00569691	2.36277771
-0.23384446	-0.00539507	2.36278152
-0.23449135	-0.00671510	2.36278343
-0.23549575	-0.00702959	2.36278629
-0.23625207	-0.00765228	2.36278844
-0.23792988	-0.00796690	2.36279321
-0.25001287	-0.00425909	2.36282730
-0.25141281	-0.00525168	2.36283135
-0.25351816	-0.00435682	2.36283708
-0.25391364	-0.00503477	2.36283827
-0.25559133	-0.00534935	2.36284304
-0.25894165	-0.00604008	2.36285257
-0.26113760	-0.00556803	2.36285877
-0.26499063	-0.00754264	2.36286998
-0.26653469	-0.00719184	2.36287427
-0.29005092	-0.00207396	2.36294079
-0.29121590	-0.00398700	2.36294413
-0.29388237	-0.00530693	2.36295176
-0.29688996	-0.00681824	2.36296034
-0.29708362	-0.01016198	2.36296105
-0.29899687	-0.01456846	2.36296678
-0.30027974	-0.01783777	2.36297059
-0.30336392	-0.02221027	2.36297965
-0.46645492	-0.07881472	2.36344528
-0.46797767	-0.07834274	2.36344957
-0.47014156	-0.07837885	2.36345577
-0.47132236	-0.07822151	2.36345911
-0.47211820	-0.07813632	2.36346126
-0.47367314	-0.07715632	2.36346555
-0.47684142	-0.07750687	2.36347461
-0.47731683	-0.07647800	2.36347604
-0.47917092	-0.07632064	2.36348128
-0.48081064	-0.07633113	2.36348581
-0.48120117	-0.07569134	2.36348701
-0.48286238	-0.07582308	2.36349177
-0.48354137	-0.07525548	2.36349344
-0.48460430	-0.07512153	2.36349654
-0.48607346	-0.07503645	2.36350083
-0.48699802	-0.07429872	2.36350322
-0.48839223	-0.07447939	2.36350727
-0.48931098	-0.07430919	2.36350989
-0.48956233	-0.07357166	2.36351061
-0.49057743	-0.07325692	2.36351347
-0.49144271	-0.07347371	2.36351585
-0.49313688	-0.07259151	2.36352062
-0.49513999	-0.07240861	2.36352634
-0.49584535	-0.07190054	2.36352825
-0.49669483	-0.07142859	2.36353064
-0.49746937	-0.07122229	2.36353278
-0.49838316	-0.07111379	2.36353540
-0.49921137	-0.07052077	2.36353779
-0.50100029	-0.07050578	2.36354280
-0.50206411	-0.06986596	2.36354589
-0.50343680	-0.06992526	2.36354971
-0.50400287	-0.06931949	2.36355138
-0.50486398	-0.06909194	2.36355376
-0.50592691	-0.06895793	2.36355686
-0.50701708	-0.06837763	2.36355972
-0.50822431	-0.06827986	2.36356330
-0.50929308	-0.06757837	2.36356616
-0.51097059	-0.06651314	2.36357093
-0.51282465	-0.06635581	2.36357617
-0.51357782	-0.06602838	2.36357832
-0.51512194	-0.06567755	2.36358261
-0.51576304	-0.06480600	2.36358452
-0.51841295	-0.06456352	2.36359191
-0.52101445	-0.06464639	2.36359930
-0.52123940	-0.06384922	2.36360002
-0.52274072	-0.06325613	2.36360407
-0.52450323	-0.06318160	2.36360908
-0.52489376	-0.06254167	2.36361027
-0.52605307	-0.06226314	2.36361361
-0.52696037	-0.06184852	2.36361599
-0.52866024	-0.06177834	2.36362100
-0.52909195	-0.06101299	2.36362195
-0.52990943	-0.06104917	2.36362433
-0.53061485	-0.06054113	2.36362624
-0.53120232	-0.06005646	2.36362791
-0.53270358	-0.05946319	2.36363220
-0.53346336	-0.05944205	2.36363435
-0.53440350	-0.05939303	2.36363697
-0.53527451	-0.05904227	2.36363959
-0.53712857	-0.05888490	2.36364484
-0.53859770	-0.05879983	2.36364889
-0.53932941	-0.05835120	2.36365104
-0.54079366	-0.05832778	2.36365509
-0.54147756	-0.05769852	2.36365700
-0.54241771	-0.05764956	2.36365962
-0.54345924	-0.05739436	2.36366272
-0.54459226	-0.05705647	2.36366582
-0.54648912	-0.05714136	2.36367130
-0.54785693	-0.05726241	2.36367512
-0.54799533	-0.05648648	2.36367536
-0.55035698	-0.05617183	2.36368227
-0.55216318	-0.05583379	2.36368728
-0.55295908	-0.05574871	2.36368942
-0.55373371	-0.05554245	2.36369181
-0.55448198	-0.05527676	2.36369371
-0.55598319	-0.05468349	2.36369801
-0.55732960	-0.05468343	2.36370182
-0.55942929	-0.05435606	2.36370778
-0.56013453	-0.05384790	2.36370969
-0.56280595	-0.05372667	2.36371732
-0.56346846	-0.05297631	2.36371922
-0.56483626	-0.05309738	2.36372304
-0.56577647	-0.05304836	2.36372566
-0.56662595	-0.05257641	2.36372805
-0.56858134	-0.05221283	2.36373377
-0.56935096	-0.05206827	2.36373591
-0.57127416	-0.05221274	2.36374140
-0.57236433	-0.05163240	2.36374426
-0.57650483	-0.05142599	2.36375618
-0.57723165	-0.05103907	2.36375809
-0.57853526	-0.05079669	2.36376190
-0.57957184	-0.05060321	2.36376476
-0.58054405	-0.05004621	2.36376739
-0.58191198	-0.05016731	2.36377144
-0.58357882	-0.04973138	2.36377597
-0.58711058	-0.04988862	2.36378622
-0.58831275	-0.04985232	2.36378956
-0.58932781	-0.04953765	2.36379242
-0.59149170	-0.04957373	2.36379862
-0.59213281	-0.04870212	2.36380029
-0.59535468	-0.04866588	2.36380935
-0.59750777	-0.04795157	2.36381555
-0.60102868	-0.04735824	2.36382556
-0.60492373	-0.04732203	2.36383653
-0.60828972	-0.04732188	2.36384606
-0.61273515	-0.04737044	2.36385870
-0.61421508	-0.04665613	2.36386275
-0.61688650	-0.04653479	2.36387038
-0.61861777	-0.04646249	2.36387539
-0.61959004	-0.04590546	2.36387801
-0.62038600	-0.04582045	2.36388040
-0.62599093	-0.04559063	2.36389613
-0.62681895	-0.04499746	2.36389852
-0.63157427	-0.04523962	2.36391211
-0.63317204	-0.04588155	2.36391664
-0.63334823	-0.04678918	2.36391711
-0.63457191	-0.04687411	2.36392069
-0.63718480	-0.04720138	2.36392808
-0.63857400	-0.04744358	2.36393189
-0.63994187	-0.04756472	2.36393595
-0.65135920	-0.04801067	2.36396837
-0.65285552	-0.04885871	2.36397266
-0.65454966	-0.04935601	2.36397743
-0.65847683	-0.05019124	2.36398864
-0.66100973	-0.05084579	2.36399579
-0.66169369	-0.05159615	2.36399794
-0.66265035	-0.05173007	2.36400056
-0.66430652	-0.05192343	2.36400533
-0.66594702	-0.05280755	2.36400986
-0.66819662	-0.05332831	2.36401629
-0.66973007	-0.05360675	2.36402082
-0.67048895	-0.05409136	2.36402297
-0.67091084	-0.05482888	2.36402416
-0.67188889	-0.05508399	2.36402702
-0.67321968	-0.05577478	2.36403084
-0.67418122	-0.05584701	2.36403346
-0.67626506	-0.05621037	2.36403942
-0.67768651	-0.05732419	2.36404347
-0.67906511	-0.05819574	2.36404753
-0.68016589	-0.05836568	2.36405063
-0.68100977	-0.05846136	2.36405301
-0.68294442	-0.05885020	2.36405849
-0.68370330	-0.05933487	2.36406064
-0.68841565	-0.05933462	2.36407399
-0.68950582	-0.06013377	2.36407709
-0.69163257	-0.06073957	2.36408329
-0.69219375	-0.06157495	2.36408496
-0.69499367	-0.06218066	2.36409283
-0.69747311	-0.06322215	2.36409998
-0.69896364	-0.06325812	2.36410427
-0.70015520	-0.06385123	2.36410761
-0.70215911	-0.06454199	2.36411333
-0.70441931	-0.06581305	2.36411977
-0.70580852	-0.06605525	2.36412382
-0.70951164	-0.06718182	2.36413431
-0.70958662	-0.06829569	2.36413455
-0.71141416	-0.06945825	2.36413980
-0.71343374	-0.06945819	2.36414552
-0.71439040	-0.07097167	2.36414838
-0.71509576	-0.07184325	2.36415052
-0.71581173	-0.07208548	2.36415243
-0.71689117	-0.07213438	2.36415553
-0.72129381	-0.07194068	2.36416793
-0.72246963	-0.07460412	2.36417150
-0.72425443	-0.07552442	2.36417651
-0.72616190	-0.07635973	2.36418200
-0.72968858	-0.07795814	2.36419225
-0.73076314	-0.07944831	2.36419535
-0.73260635	-0.07992014	2.36420059
-0.73327458	-0.08136126	2.36420250
-0.73442322	-0.08171193	2.36420584
-0.73605233	-0.08235180	2.36421037
-0.73786426	-0.08282562	2.36421561
-0.73876238	-0.08478760	2.36421824
-0.74154091	-0.08527218	2.36422610
-0.74345911	-0.08547827	2.36423159
-0.74412739	-0.08691954	2.36423349
-0.74495542	-0.08908555	2.36423612
-0.74577212	-0.09100713	2.36423850
-0.74633312	-0.09184253	2.36424017
-0.74745709	-0.09250146	2.36424327
-0.74923027	-0.09317737	2.36424828
-0.75183821	-0.09356621	2.36425591
-0.75323319	-0.09600006	2.36425996
-0.75456977	-0.09888261	2.36426377
-0.75723612	-0.10020251	2.36427140
-0.75896239	-0.10295096	2.36427641
-0.76037306	-0.10331434	2.36428046
-0.76272964	-0.10582045	2.36428738
-0.76358497	-0.10754016	2.36428976
-0.76418650	-0.10875600	2.36429167
-0.76445919	-0.10951912	2.36429238
-0.76477480	-0.11052455	2.36429334
-0.76590449	-0.11061595	2.36429667
-0.76651919	-0.11244413	2.36429834
-0.76787126	-0.11463560	2.36430240
-0.76926064	-0.11487792	2.36430645
-0.77042562	-0.11679097	2.36430979
-0.77092820	-0.11807482	2.36431122
-0.77225327	-0.11795372	2.36431503
-0.77349830	-0.11953929	2.36431861
-0.77427363	-0.12158644	2.36432099
-0.77581537	-0.12137366	2.36432528
-0.77727634	-0.12177972	2.36432934
-0.77839857	-0.12345050	2.36433268
-0.78009266	-0.12532744	2.36433768
-0.78107655	-0.12639448	2.36434054
-0.78227293	-0.12692590	2.36434388
-0.78332603	-0.12691514	2.36434698
-0.78589606	-0.12700015	2.36435413
-0.78819335	-0.12770146	2.36436081
-0.78952903	-0.12833059	2.36436462
-0.79018658	-0.12902147	2.36436653
-0.79228610	-0.12869397	2.36437249
-0.94892699	-0.05768307	2.36481309
-0.95085192	-0.04991776	2.36481833
-0.95149797	-0.04760499	2.36482000
-0.95237714	-0.04538342	2.36482239
-0.95283049	-0.04060067	2.36482334
-0.95382345	-0.03515245	2.36482596
-0.95396191	-0.03299696	2.36482620
-0.95553249	-0.03132602	2.36483049
-0.95670336	-0.02853277	2.36483383
-0.95783973	-0.02776525	2.36483693
-0.95836794	-0.01995747	2.36483788
-0.95975649	-0.01656700	2.36484170
-0.96071237	-0.01306792	2.36484432
-0.96096855	-0.00950953	2.36484480
-0.96191299	-0.00714563	2.36484742
-0.96227717	-0.00644631	2.36484838
-0.96315229	-0.00102136	2.36485052
-0.96562600	0.00012867	2.36485744
-0.96779972	0.00021594	2.36486363
-0.96831226	0.00181453	2.36486506
-0.96856850	0.00261382	2.36486578
-0.96917748	0.00435701	2.36486745
-0.96976584	0.00534756	2.36486912
-0.97024542	0.00731174	2.36487031
-0.97089148	0.00962462	2.36487198
-0.97260618	0.01125938	2.36487675
-0.97398978	0.01320867	2.36488056
-0.97440094	0.01460102	2.36488175
-0.97617000	0.01574911	2.36488676
-0.97701389	0.01841261	2.36488891
-0.97792685	0.02077428	2.36489129
-0.97891486	0.02340178	2.36489415
-0.97981220	0.02507263	2.36489654
-0.98078454	0.02562960	2.36489916
-0.98249435	0.02582302	2.36490417
-0.98249930	0.02726433	2.36490393
-0.98310912	0.02929883	2.36490560
-0.98531497	0.03010865	2.36491179
-0.98529273	0.03110354	2.36491179
-0.98604083	0.03136925	2.36491394
-0.98586380	0.03453012	2.36491323
-0.98658478	0.03572925	2.36491513
-0.98722589	0.03660066	2.36491704
-0.98786700	0.03747230	2.36491871
-0.98796833	0.03905804	2.36491895
-0.98953897	0.04072892	2.36492324
-0.99111515	0.04158787	2.36492777
-0.99122155	0.04302076	2.36492801
-0.99298489	0.04381566	2.36493301
-0.99293625	0.04624971	2.36493254
-0.99446392	0.04816284	2.36493683
-0.99534488	0.04863694	2.36493945
-0.99598598	0.04950843	2.36494112
-0.99589533	0.05131105	2.36494088
-0.99643922	0.05291177	2.36494231
-0.99814898	0.05310535	2.36494708
-0.99807400	0.05421916	2.36494684
-0.99826598	0.05538197	2.36494732
-0.99889642	0.05700389	2.36494899
-0.99990582	0.05813055	2.36495185
-1.00047183	0.05873653	2.36495328
-1.00110233	0.06035836	2.36495519
-1.00249648	0.06155737	2.36495900
-1.00244296	0.06255015	2.36495876
-1.00320685	0.06350669	2.36496091
-1.00373495	0.06420203	2.36496234
-1.00479877	0.06505647	2.36496544
-1.00595236	0.06614695	2.36496854
-1.00580812	0.06756274	2.36496806
-1.00658774	0.06783049	2.36497021
-1.00669479	0.06860439	2.36497045
-1.00693464	0.06958649	2.36497116
-1.00744808	0.07031129	2.36497259
-1.00828600	0.07102771	2.36497498
-1.00834954	0.07291748	2.36497498
-1.00950408	0.07451393	2.36497808
-1.01075804	0.07530490	2.36498165
-1.01081240	0.07619774	2.36498189
-1.01103747	0.07699470	2.36498237
-1.01156402	0.07827237	2.36498380
-1.01308262	0.07918866	2.36498809
-1.01373529	0.07981575	2.36499000
-1.01381266	0.08138455	2.36499000
-1.01520944	0.08272158	2.36499405
-1.01600957	0.08374206	2.36499619
-1.01665056	0.08461358	2.36499786
-1.01707244	0.08525565	2.36499906
-1.01744008	0.08638445	2.36500001
-1.01813126	0.08721344	2.36500192
-1.01856148	0.08834650	2.36500311
-1.01986003	0.08852731	2.36500692
-1.01981807	0.08927542	2.36500669
-1.02020705	0.09028315	2.36500764
-1.02127242	0.09055520	2.36501074
-1.02132022	0.09175409	2.36501074
-1.02169192	0.09243870	2.36501193
-1.02299047	0.09261937	2.36501551
-1.02301598	0.09343358	2.36501551
-1.02411115	0.09407554	2.36501861
-1.02426040	0.09686032	2.36501884
-1.02521133	0.09753848	2.36502147
-1.02511489	0.09877355	2.36502123
-1.02537107	0.09957278	2.36502194
-1.02576089	0.10108635	2.36502290
-1.02611268	0.10428345	2.36502385
-1.02828252	0.10619448	2.36502981
-1.03006148	0.10746584	2.36503482
-1.03106022	0.10934281	2.36503744
-1.03252351	0.11023996	2.36504173
-1.03374231	0.11147294	2.36504507
-1.03440964	0.11228499	2.36504698
-1.03484142	0.11305036	2.36504817
-1.03514147	0.11411317	2.36504889
-1.03503358	0.11835183	2.36504841
-1.03595245	0.11852192	2.36505103
-1.03626716	0.12114930	2.36505175
-1.03681183	0.12187630	2.36505318
-1.03697157	0.12391075	2.36505365
-1.03693962	0.12478218	2.36505342
-1.03828013	0.12697394	2.36505723
-1.04223382	0.12883827	2.36506820
-1.04238868	0.13197608	2.36506844
-1.04395938	0.13364695	2.36507297
-1.04596817	0.13439743	2.36507845
-1.04749846	0.13506918	2.36508274
-1.04812300	0.13750316	2.36508441
-1.04917526	0.13838741	2.36508751
-1.04960048	0.13945888	2.36508870
-1.04989636	0.14096595	2.36508942
-1.05110669	0.14149335	2.36509275
-1.05189204	0.14232886	2.36509490
-1.05261886	0.14271562	2.36509705
-1.05249023	0.14344271	2.36509657
-1.05360758	0.14446951	2.36509967
-1.05330276	0.14610405	2.36509871
-1.05387962	0.14733917	2.36510038
-1.05485189	0.14789613	2.36510301
-1.05510819	0.14869542	2.36510372
-1.05689716	0.15008996	2.36510873
-1.05769873	0.15074268	2.36511087
-1.05734622	0.15255806	2.36510992
-1.05760252	0.15335722	2.36511064
-1.05798149	0.15424156	2.36511159
-1.05868697	0.15474966	2.36511350
-1.05865967	0.15568286	2.36511350
-1.05881965	0.15771720	2.36511374
-1.05935347	0.15919459	2.36511517
-1.06089771	0.15954538	2.36511970
-1.06166649	0.16194314	2.36512160
-1.06280446	0.16234285	2.36512494
-1.06353784	0.16380318	2.36512685
-1.06410229	0.16477685	2.36512852
-1.06568861	0.16575907	2.36513281
-1.06565142	0.16656891	2.36513281
-1.06541586	0.16928142	2.36513186
-1.06525505	0.17087997	2.36513138
-1.06597042	0.17427045	2.36513329
-1.06717753	0.17574799	2.36513662
-1.06788790	0.17769724	2.36513853
-1.07253611	0.17944057	2.36515164
-1.07326782	0.17988910	2.36515355
-1.07373750	0.18173006	2.36515498
-1.07411170	0.18255253	2.36515594
-1.07395101	0.18415114	2.36515546
-1.07562292	0.18602826	2.36515999
-1.07754612	0.18726344	2.36516547
-1.07720828	0.19202285	2.36516428
-1.08110833	0.19487998	2.36517501
-1.08097982	0.19560707	2.36517477
-1.08157885	0.19998609	2.36517620
-1.08449578	0.20165703	2.36518431
-1.08391833	0.20405477	2.36518264
-1.08573437	0.20589575	2.36518764
-1.08553660	0.20692448	2.36518717
-1.08561075	0.20806405	2.36518717
-1.08826089	0.20968597	2.36519456
-1.08853269	0.21117602	2.36519527
-1.08961713	0.21256846	2.36519837
-1.09223509	0.21368255	2.36520576
-1.09709573	0.21596158	2.36521935
-1.09853280	0.21691822	2.36522341
-1.09902978	0.21782598	2.36522484
-1.09928596	0.21862514	2.36522555
-1.10151410	0.21960540	2.36523175
-1.10174310	0.22133778	2.36523223
-1.10377359	0.22196695	2.36523795
-1.10450029	0.22235398	2.36524010
-1.10487449	0.22317658	2.36524105
-1.10560131	0.22356349	2.36524320
-1.10581458	0.22460510	2.36524367
-1.10597944	0.22532164	2.36524415
-1.10707450	0.22596368	2.36524725
-1.10787129	0.22655448	2.36524940
-1.10887575	0.22761966	2.36525226
-1.10852730	0.22899067	2.36525106
-1.11077189	0.22978795	2.36525750
-1.11074960	0.23078270	2.36525726
-1.11181259	0.23229639	2.36526036
-1.11238945	0.23353128	2.36526179
-1.11406696	0.23459645	2.36526656
-1.11515713	0.23517674	2.36526966
-1.11527419	0.23607387	2.36526990
-1.11614525	0.23642462	2.36527228
-1.11645997	0.23767248	2.36527324
-1.11725593	0.23913714	2.36527538
-1.11885870	0.23993650	2.36527991
-1.11949968	0.24080805	2.36528158
-1.12123585	0.24232171	2.36528659
-1.12216544	0.24312097	2.36528921
-1.12333548	0.24402870	2.36529231
-1.12357044	0.24494901	2.36529303
-1.12597966	0.24646276	2.36529970
-1.12690914	0.24726214	2.36530232
-1.12800431	0.24790412	2.36530542
-1.12865615	0.24940488	2.36530709
-1.12989545	0.25001079	2.36531067
-1.13029587	0.25077394	2.36531186
-1.13093686	0.25164559	2.36531353
-1.13182354	0.25268725	2.36531591
-1.13392305	0.25439417	2.36532187
-1.13439858	0.25542307	2.36532331
-1.13539243	0.25585887	2.36532593
-1.13595831	0.25646475	2.36532760
-1.13688803	0.25726408	2.36533022
-1.13799953	0.25772330	2.36533332
-1.13924956	0.25895840	2.36533666
-1.13979423	0.25968534	2.36533833
-1.14101195	0.26041254	2.36534166
-1.14124191	0.26127136	2.36534238
-1.14239061	0.26230022	2.36534548
-1.14467144	0.26316121	2.36535192
-1.14516330	0.26400724	2.36535335
-1.14672327	0.26504892	2.36535764
-1.14714515	0.26569086	2.36535883
-1.14797819	0.26634574	2.36536121
-1.14849639	0.26713225	2.36536264
-1.14975727	0.26761690	2.36536622
-1.14960241	0.26840344	2.36536574
-1.15082002	0.26913053	2.36536908
-1.15133846	0.26991698	2.36537051
-1.15236938	0.27092254	2.36537337
-1.15303183	0.27167290	2.36537528
-1.15322375	0.27283576	2.36537576
-1.15458095	0.27346498	2.36537957
-1.15530193	0.27466395	2.36538148
-1.15586805	0.27526987	2.36538315
-1.15711808	0.27650496	2.36538649
-1.15876377	0.27844149	2.36539102
-1.16022205	0.27927691	2.36539531
-1.16093230	0.27984682	2.36539721
-1.16168070	0.28011242	2.36539936
-1.16241229	0.28056112	2.36540127
-1.16328323	0.28091189	2.36540389
-1.16302121	0.28230420	2.36540294
-1.16535568	0.28355208	2.36540961
-1.16669631	0.28574374	2.36541319
-1.16845393	0.28713623	2.36541820
-1.16905224	0.28825009	2.36541986
-1.17048931	0.28920674	2.36542392
-1.17222536	0.29072040	2.36542869
-1.17432010	0.29236570	2.36543465
-1.17527092	0.29304394	2.36543727
-1.17569780	0.29374751	2.36543846
-1.17647815	0.29452124	2.36544061
-1.17724693	0.29553971	2.36544275
-1.17814994	0.29639837	2.36544514
-1.17917585	0.29734224	2.36544800
-1.18020678	0.29834780	2.36545086
-1.18093348	0.29873478	2.36545300
-1.18163800	0.30011657	2.36545491
-1.18227422	0.30092627	2.36545658
-1.18313932	0.30208921	2.36545897
-1.18378556	0.30302238	2.36546087
-1.18500912	0.30431706	2.36546421
-1.18541443	0.30514190	2.36546540
-1.18586349	0.30623034	2.36546659
-1.18698490	0.30681282	2.36546969
-1.18692648	0.30774373	2.36546946
-1.18751407	0.30822852	2.36547112
-1.18819797	0.30885771	2.36547303
-1.18925023	0.30974212	2.36547613
-1.18993413	0.31037137	2.36547804
-1.19152617	0.31192112	2.36548233
-1.19191015	0.31286708	2.36548328
-1.19293118	0.31374931	2.36548615
-1.19376421	0.31440410	2.36548853
-1.19413817	0.31522673	2.36548948
-1.19519055	0.31611100	2.36549258
-1.19513690	0.31710377	2.36549234
-1.19625843	0.31768623	2.36549544
-1.19620001	0.31861728	2.36549520
-1.19779766	0.31935507	2.36549973
-1.19864726	0.31982696	2.36550212
-1.19949102	0.32111099	2.36550450
-1.20023930	0.32137671	2.36550665
-1.20088017	0.32224825	2.36550832
-1.20063972	0.32351938	2.36550760
-1.20272851	0.32459724	2.36551356
-1.20346022	0.32504588	2.36551547
-1.20340669	0.32603854	2.36551523
-1.20493352	0.32744578	2.36551952
-1.20546758	0.32892323	2.36552095
-1.20684612	0.32943135	2.36552501
-1.20755231	0.33044529	2.36552691
-1.20880151	0.33117461	2.36553049
-1.20958662	0.33200997	2.36553264
-1.20943189	0.33279651	2.36553216
-1.21048403	0.33368087	2.36553502
-1.21085811	0.33450353	2.36553597
-1.21140778	0.33529222	2.36553764
-1.21192122	0.33601704	2.36553907
-1.21294129	0.33639339	2.36554193
-1.21290421	0.33720323	2.36554170
-1.21299982	0.33822149	2.36554193
-1.21435702	0.33885068	2.36554575
-1.21397209	0.34015808	2.36554456
-1.21660972	0.34173325	2.36555195
-1.21616077	0.34340408	2.36555052
-1.21731091	0.34385055	2.36555386
-1.21736789	0.34488145	2.36555386
-1.21869445	0.34579998	2.36555767
-1.21927702	0.34760261	2.36555934
-1.21959031	0.35059780	2.36556005
-1.22153497	0.35171178	2.36556554
-1.22185135	0.35259166	2.36556625
-1.22307336	0.35425413	2.36556959
-1.22289705	0.35516176	2.36556911
-1.22300160	0.35739166	2.36556935
-1.22503376	0.35881814	2.36557508
-1.22666359	0.36006394	2.36557961
-1.22670889	0.36133921	2.36557961
-1.22728753	0.36337146	2.36558127
-1.22857034	0.36424100	2.36558485
-1.22839820	0.36608407	2.36558414
-1.22984588	0.36766994	2.36558819
-1.23027861	0.37032071	2.36558938
-1.23150730	0.37167686	2.36559272
-1.23231387	0.37239119	2.36559486
-1.23243093	0.37328833	2.36559534
-1.23351038	0.37461907	2.36559820
-1.23391080	0.37538216	2.36559939
-1.23495567	0.37628132	2.36560225
-1.23578048	0.37761012	2.36560464
-1.23608780	0.37887266	2.36560535
-1.23682702	0.37930644	2.36560750
-1.23868108	0.38084334	2.36561251
-1.23858464	0.38207844	2.36561227
-1.23803174	0.38361949	2.36561060
-1.23963118	0.38515443	2.36561513
-1.24091911	0.38608551	2.36561871
-1.24086308	0.38715479	2.36561847
-1.24094558	0.38878512	2.36561871
-1.24218225	0.38946751	2.36562204
-1.24192190	0.39027756	2.36562133
-1.24261737	0.39066231	2.36562324
-1.24277639	0.39219061	2.36562371
-1.24366963	0.39292622	2.36562610
-1.24465692	0.39366800	2.36562896
-1.24583352	0.39426973	2.36563230
-1.24566209	0.39523908	2.36563158
-1.24628341	0.39586404	2.36563349
-1.24568772	0.39743286	2.36563158
-1.24699783	0.39874861	2.36563516
-1.24770248	0.40013048	2.36563706
-1.24733901	0.40131655	2.36563611
-1.24905372	0.40295139	2.36564088
-1.24936771	0.40369317	2.36564183
-1.24989748	0.40423530	2.36564326
-1.25035071	0.40487942	2.36564445
-1.25111961	0.40589771	2.36564660
-1.25140953	0.40683722	2.36564732
-1.25223780	0.40743035	2.36564970
-1.25188923	0.40880150	2.36564851
-1.25241899	0.40934363	2.36565018
-1.25193787	0.41050622	2.36564875
-1.25341773	0.41122046	2.36565280
-1.25355601	0.41199651	2.36565328
-1.25264645	0.41420293	2.36565042
-1.25330901	0.41495341	2.36565232
-1.25404084	0.41540188	2.36565447
-1.25416362	0.41686651	2.36565471
-1.25386941	0.41775087	2.36565375
-1.25348961	0.42049947	2.36565256
-1.25573325	0.42217031	2.36565876
-1.25783288	0.42387739	2.36566472
-1.25846827	0.42556089	2.36566639
-1.25864625	0.42704472	2.36566687
-1.25852835	0.42840084	2.36566639
-1.25984263	0.42927247	2.36567020
-1.26051915	0.42970192	2.36567211
-1.26052415	0.43114308	2.36567187
-1.26207328	0.43293515	2.36567616
-1.26387382	0.43408540	2.36568141
-1.26602113	0.43561175	2.36568737
-1.26586604	0.43639818	2.36568689
-1.26659799	0.43684676	2.36568880
-1.26728177	0.43747601	2.36569071
-1.26704621	0.44018841	2.36568999
-1.26817334	0.44133851	2.36569309
-1.26888394	0.44328788	2.36569500
-1.27005291	0.44644880	2.36569810
-1.27262807	0.44780526	2.36570549
-1.27244687	0.44865113	2.36570477
-1.27317846	0.44909966	2.36570692
-1.27495182	0.45118308	2.36571193
-1.27518666	0.45348313	2.36571240
-1.27645802	0.45459700	2.36571598
-1.27570987	0.45709041	2.36571360
-1.28344572	0.46040913	2.36573553
-1.28486133	0.46148682	2.36573935
-1.28687501	0.46367866	2.36574507
-1.28781033	0.46504536	2.36574769
-1.29029393	0.46631902	2.36575460
-1.29234004	0.46901855	2.36576033
-1.29370201	0.46970955	2.36576414
-1.29403329	0.47077459	2.36576509
-1.29441237	0.47165886	2.36576605
-1.29754269	0.47299188	2.36577487
-1.29839730	0.47490504	2.36577725
-1.30580747	0.47772625	2.36579800
-1.30618143	0.47854885	2.36579895
-1.30763423	0.48019648	2.36580300
-1.30859578	0.48150381	2.36580563
-1.31009734	0.48209694	2.36580992
-1.31572270	0.48445886	2.36582589
-1.31921148	0.48592374	2.36583567
-1.32263601	0.48775184	2.36584520
-1.32404101	0.48958018	2.36584926
-1.33650649	0.48908344	2.36588454
-1.34342551	0.48880526	2.36590409
-1.35228419	0.48819983	2.36592937
-1.35822606	0.48592347	2.36594629
-1.36912668	0.48156416	2.36597753
-1.38891888	0.47209501	2.36603403
-1.40338409	0.46445367	2.36607552
-1.40445280	0.46377563	2.36607862
-1.40537715	0.46313369	2.36608124
-1.41737938	0.45359194	2.36611581
-1.43450415	0.42445767	2.36616588
-1.43503320	0.42311421	2.36616755
-1.43526888	0.42178133	2.36616826
-1.43550920	0.42051023	2.36616898
-1.43916047	0.41035169	2.36617994
-1.43983436	0.40671891	2.36618209
-1.43842447	0.40344942	2.36617827
-1.43917823	0.40014398	2.36618042
-1.43913054	0.39894497	2.36618042
-1.43837833	0.39774394	2.36617827
-1.43924415	0.39527401	2.36618090
-1.43942642	0.39355421	2.36618161
-1.43964052	0.39096302	2.36618233
-1.44008374	0.38734505	2.36618376
-1.43866825	0.38626724	2.36617970
-1.43939006	0.38383332	2.36618185
-1.43831635	0.38307005	2.36617899
-1.43955219	0.37772828	2.36618280
-1.43888962	0.37697786	2.36618090
-1.43838787	0.37600851	2.36617947
-1.43951583	0.37214616	2.36618280
-1.43978357	0.36856219	2.36618376
-1.43892896	0.36664906	2.36618161
-1.43820226	0.36626205	2.36617947
-1.43856645	0.36282274	2.36618066
-1.43859863	0.36195108	2.36618090
-1.43817663	0.36130914	2.36617970
-1.43872714	0.35984460	2.36618137
-1.43888772	0.35824606	2.36618185
-1.43857789	0.35705987	2.36618114
-1.43870652	0.35633278	2.36618137
-1.43913412	0.35478315	2.36618280
-1.43939114	0.35194954	2.36618352
-1.43902278	0.35031500	2.36618257
-1.43865442	0.34868026	2.36618161
-1.43858516	0.34760252	2.36618161
-1.43832898	0.34680328	2.36618090
-1.43838263	0.34581050	2.36618114
-1.43869817	0.34480506	2.36618209
-1.43795574	0.34372720	2.36617994
-1.43784356	0.34289190	2.36617970
-1.43767309	0.34160790	2.36617923
-1.43696761	0.34109998	2.36617732
-1.43732607	0.33985209	2.36617827
-1.43664217	0.33922288	2.36617637
-1.43686128	0.33807275	2.36617708
-1.43591046	0.33739462	2.36617446
-1.43591619	0.33658260	2.36617446
-1.43577194	0.33523923	2.36617422
-1.43574560	0.33391914	2.36617422
-1.43582046	0.33280537	2.36617446
-1.43568206	0.33202925	2.36617422
-1.43545222	0.33117050	2.36617351
-1.43562853	0.33026284	2.36617398
-1.43534017	0.32895553	2.36617327
-1.43546867	0.32822862	2.36617374
-1.43521237	0.32742926	2.36617303
-1.43448567	0.32704243	2.36617088
-1.43449140	0.32623029	2.36617112
-1.43427789	0.32380903	2.36617064
-1.43342352	0.32327557	2.36616826
-1.43393099	0.32205322	2.36616969
-1.43381882	0.32121792	2.36616945
-1.43304420	0.31963199	2.36616731
-1.43319416	0.31878382	2.36616778
-1.43267584	0.31799746	2.36616635
-1.43270314	0.31706423	2.36616635
-1.43251598	0.31596300	2.36616588
-1.43300307	0.31398815	2.36616755
-1.43234062	0.31323791	2.36616564
-1.43233550	0.31179664	2.36616564
-1.43168378	0.31029576	2.36616397
-1.43163598	0.30909699	2.36616373
-1.43125701	0.30821252	2.36616278
-1.43126762	0.30746219	2.36616278
-1.43117702	0.30650568	2.36616254
-1.43079793	0.30562130	2.36616158
-1.43023682	0.30507699	2.36616015
-1.43055224	0.30407172	2.36616111
-1.43082500	0.30330855	2.36616182
-1.43031168	0.30258378	2.36616039
-1.42935586	0.30184379	2.36615777
-1.42964423	0.30039197	2.36615872
-1.42890167	0.29931429	2.36615658
-1.42870975	0.29815149	2.36615610
-1.42814374	0.29754555	2.36615443
-1.42825091	0.29556018	2.36615491
-1.42740130	0.29508829	2.36615252
-1.42755115	0.29424015	2.36615300
-1.42637610	0.29327074	2.36614966
-1.42688370	0.29204845	2.36615109
-1.42681456	0.29097074	2.36615109
-1.42631269	0.29000136	2.36614966
-1.42626977	0.28886408	2.36614966
-1.42622209	0.28766519	2.36614966
-1.42569876	0.28681690	2.36614823
-1.42544746	0.28607947	2.36614752
-1.42556524	0.28472316	2.36614776
-1.42551744	0.28352422	2.36614776
-1.42466295	0.28161100	2.36614537
-1.42420888	0.28046101	2.36614418
-1.42348790	0.27926210	2.36614227
-1.42336023	0.27773583	2.36614203
-1.42341363	0.27674302	2.36614227
-1.42331803	0.27434528	2.36614203
-1.42195606	0.27227470	2.36613822
-1.42066896	0.27046990	2.36613464
-1.42019331	0.26944119	2.36613345
-1.41984069	0.26849723	2.36613250
-1.41924334	0.26788923	2.36613083
-1.42008710	0.26503444	2.36613321
-1.41943049	0.26347205	2.36613154
-1.41960168	0.26112312	2.36613226
-1.41865659	0.25825337	2.36612964
-1.41784990	0.25753909	2.36612725
-1.41761494	0.25661856	2.36612678
-1.41697383	0.25574699	2.36612487
-1.41635513	0.25526017	2.36612320
-1.41556478	0.25436300	2.36612105
-1.41602957	0.25338322	2.36612248
-1.41545272	0.25214803	2.36612082
-1.41438413	0.25144655	2.36611795
-1.41490817	0.25004151	2.36611938
-1.41448617	0.24939954	2.36611819
-1.41425133	0.24847919	2.36611772
-1.41426206	0.24772874	2.36611772
-1.41362095	0.24685700	2.36611581
-1.41373384	0.24543922	2.36611629
-1.41364813	0.24454433	2.36611605
-1.41360033	0.24334550	2.36611605
-1.41342974	0.24206144	2.36611557
-1.41301847	0.24066903	2.36611462
-1.41203630	0.23998885	2.36611176
-1.41221189	0.23857516	2.36611247
-1.41142154	0.23767824	2.36611009
-1.41078055	0.23680663	2.36610842
-1.41106987	0.23586059	2.36610937
-1.41032076	0.23508891	2.36610723
-1.41060996	0.23414311	2.36610794
-1.41040146	0.23316318	2.36610746
-1.41023660	0.23244664	2.36610699
-1.40953124	0.23193860	2.36610508
-1.40920496	0.23093536	2.36610413
-1.40935981	0.23014870	2.36610460
-1.40890586	0.22899880	2.36610341
-1.40831828	0.22851412	2.36610174
-1.40860248	0.22750640	2.36610270
-1.40837276	0.22664765	2.36610198
-1.40821290	0.22461326	2.36610174
-1.40782213	0.22397354	2.36610055
-1.40754533	0.22242169	2.36610007
-1.40714490	0.22165842	2.36609888
-1.40661013	0.22105484	2.36609745
-1.40695596	0.21976027	2.36609840
-1.40606534	0.21894813	2.36609602
-1.40605867	0.21808943	2.36609602
-1.40552890	0.21754728	2.36609459
-1.40522742	0.21685210	2.36609364
-1.40510535	0.21589354	2.36609340
-1.40541017	0.21425883	2.36609435
-1.40430200	0.21306396	2.36609125
-1.40433657	0.21211594	2.36609149
-1.40375805	0.21146344	2.36608982
-1.40367985	0.21055357	2.36608958
-1.40305853	0.21014333	2.36608791
-1.40364265	0.20860429	2.36608958
-1.40262425	0.20786020	2.36608672
-1.40286803	0.20701844	2.36608744
-1.40281606	0.20626393	2.36608744
-1.40232170	0.20549428	2.36608601
-1.40195525	0.20465663	2.36608505
-1.40230358	0.20328575	2.36608601
-1.40200853	0.20228446	2.36608529
-1.40118051	0.20169142	2.36608291
-1.40164518	0.20071152	2.36608434
-1.40085506	0.19981438	2.36608219
-1.40043306	0.19917248	2.36608100
-1.40033257	0.19809249	2.36608076
-1.40073371	0.19660240	2.36608195
-1.40044534	0.19529499	2.36608124
-1.40002346	0.19465309	2.36608005
-1.39910388	0.19397701	2.36607742
-1.39946818	0.19329672	2.36607862
-1.39870179	0.19241671	2.36607647
-1.39860213	0.19162810	2.36607623
-1.39870739	0.19022511	2.36607647
-1.39935422	0.18890506	2.36607838
-1.39816773	0.18818015	2.36607504
-1.39737022	0.18708320	2.36607289
-1.39767158	0.18639874	2.36607385
-1.39740968	0.18503182	2.36607313
-1.39700913	0.18426873	2.36607194
-1.39704132	0.18339708	2.36607218
-1.39715910	0.18204103	2.36607265
-1.39615464	0.18097597	2.36606979
-1.39591479	0.17861421	2.36606932
-1.39484107	0.17785110	2.36606622
-1.39438701	0.17670095	2.36606503
-1.39330351	0.17581448	2.36606193
-1.39392805	0.17410965	2.36606383
-1.39271021	0.17338268	2.36606050
-1.39239550	0.17213495	2.36605954
-1.39216554	0.17127603	2.36605906
-1.39204860	0.17037904	2.36605859
-1.39189363	0.16840634	2.36605835
-1.39044499	0.16631454	2.36605430
-1.39024878	0.16559601	2.36605382
-1.38931942	0.16479664	2.36605120
-1.39010453	0.16287303	2.36605358
-1.38895094	0.16178243	2.36605024
-1.38874245	0.16080244	2.36604977
-1.38847065	0.15931238	2.36604905
-1.38776517	0.15880416	2.36604714
-1.38811302	0.15692726	2.36604810
-1.38752544	0.15644246	2.36604667
-1.38747764	0.15524364	2.36604643
-1.38721061	0.15381521	2.36604571
-1.38602483	0.15221658	2.36604261
-1.38652754	0.14955297	2.36604404
-1.38563013	0.14788212	2.36604166
-1.38507462	0.14652598	2.36604023
-1.38334930	0.14426200	2.36603546
-1.38316798	0.14234886	2.36603498
-1.38245761	0.14177914	2.36603284
-1.38069999	0.14038673	2.36602807
-1.37953579	0.13866693	2.36602473
-1.37791729	0.13717669	2.36602020
-1.37683296	0.13578431	2.36601734
-1.37727129	0.13486384	2.36601853
-1.37590849	0.13366702	2.36601472
-1.37496912	0.13274446	2.36601210
-1.37499535	0.13130526	2.36601233
-1.37488830	0.13053156	2.36601210
-1.37471366	0.12969181	2.36601162
-1.37404609	0.12887983	2.36600971
-1.37448943	0.12802103	2.36601114
-1.37448931	0.12526193	2.36601114
-1.37442017	0.12418409	2.36601114
-1.36866617	0.12116964	2.36599493
-1.36781669	0.12069768	2.36599255
-1.36739469	0.12005570	2.36599135
-1.36737907	0.11798520	2.36599135
-1.36534381	0.11591463	2.36598563
-1.36523175	0.11507913	2.36598539
-1.36332989	0.11372296	2.36598015
-1.36292934	0.11295982	2.36597896
-1.36224055	0.11088931	2.36597729
-1.35685658	0.10776202	2.36596203
-1.35726357	0.10683955	2.36596322
-1.35691667	0.10508366	2.36596227
-1.35645676	0.10336605	2.36596107
-1.35695934	0.10208218	2.36596274
-1.35659671	0.10101506	2.36596179
-1.35690165	0.09938034	2.36596274
-1.35640979	0.09853429	2.36596131
-1.34575784	0.08991189	2.36593151
-1.34121096	0.08699515	2.36591887
-1.34010518	0.08572397	2.36591578
-1.33830476	0.08457386	2.36591053
-1.33760345	0.08362163	2.36590862
-1.33749139	0.08278616	2.36590838
-1.33654547	0.08216968	2.36590576
-1.33608246	0.08140219	2.36590457
-1.33503997	0.08064116	2.36590147
-1.33453310	0.07961009	2.36590028
-1.33268332	0.07762885	2.36589503
-1.33035970	0.07563069	2.36588860
-1.32984138	0.07484404	2.36588717
-1.32953167	0.07365787	2.36588621
-1.32931805	0.07261626	2.36588573
-1.32932878	0.07186601	2.36588573
-1.32965505	0.07011004	2.36588693
-1.32439303	0.06656195	2.36587214
-1.32454789	0.06577551	2.36587262
-1.32194090	0.06391111	2.36586523
-1.32254469	0.06283347	2.36586714
-1.31742096	0.05868170	2.36585283
-1.31680143	0.05768892	2.36585093
-1.31456590	0.05534420	2.36584473
-1.31445372	0.05450873	2.36584449
-1.31288314	0.05283786	2.36584020
-1.31229568	0.05097352	2.36583853
-1.31024384	0.04908580	2.36583281
-1.30778754	0.04687918	2.36582589
-1.30714643	0.04600765	2.36582422
-1.30623102	0.04488729	2.36582160
-1.30563283	0.04377342	2.36581993
-1.30431509	0.04247242	2.36581635
-1.30352986	0.04163695	2.36581421
-1.30288720	0.04113310	2.36581230
-1.30233109	0.04065053	2.36581087
-1.30167091	0.04003831	2.36580896
-1.30167425	0.03908822	2.36580896
-1.30079257	0.03810819	2.36580658
-1.30098045	0.03695597	2.36580729
-1.30033934	0.03608448	2.36580539
-1.29927635	0.03457082	2.36580253
-1.29874158	0.03396712	2.36580110
-1.29804277	0.03315297	2.36579895
-1.29772139	0.03221123	2.36579823
-1.29784501	0.03142261	2.36579847
-1.29710829	0.02953284	2.36579657
-1.29412222	0.02678414	2.36578822
-1.29434133	0.02563415	2.36578894
-1.29103947	0.02113170	2.36577988
-1.28905785	0.01944804	2.36577439
-1.28891349	0.01810459	2.36577392
-1.28855586	0.01709907	2.36577296
-1.28800058	0.01574293	2.36577153
-1.28710318	0.01407205	2.36576891
-1.28498375	0.01211834	2.36576319
-1.28477049	0.01107672	2.36576247
-1.28438640	0.01013064	2.36576152
-1.28447127	0.00914019	2.36576176
-1.28461552	0.00772451	2.36576223
-1.28288496	0.00539881	2.36575747
-1.28215337	0.00357065	2.36575556
-1.28149080	0.00282026	2.36575365
-1.28149652	0.00200831	2.36575365
-1.28110683	0.00049474	2.36575270
-1.27935994	-0.00164809	2.36574793
-1.27866602	-0.00378030	2.36574602
-1.27782226	-0.00506421	2.36574364
-1.27613389	-0.00675845	2.36573887
-1.27596903	-0.00747496	2.36573863
-1.27521014	-0.00836973	2.36573648
-1.27465475	-0.00972605	2.36573482
-1.27518964	-0.01050194	2.36573648
-1.27325559	-0.01236630	2.36573100
-1.27294075	-0.01361418	2.36573029
-1.27183998	-0.01482366	2.36572719
-1.27184558	-0.01563573	2.36572719
-1.27130592	-0.01630102	2.36572576
-1.26996434	-0.01761902	2.36572194
-1.26948905	-0.01864791	2.36572075
-1.26892292	-0.01925381	2.36571908
-1.26904154	-0.02010411	2.36571956
-1.26834691	-0.02136252	2.36571765
-1.26844335	-0.02259761	2.36571789
-1.26823974	-0.02351590	2.36571741
-1.26681328	-0.02522295	2.36571360
-1.26711333	-0.02691924	2.36571431
-1.26631737	-0.02838390	2.36571217
-1.26475835	-0.03029924	2.36570787
-1.26288855	-0.03252700	2.36570263
-1.26153719	-0.03396839	2.36569905
-1.26078415	-0.03567542	2.36569691
-1.26017022	-0.03748024	2.36569524
-1.25969481	-0.03850913	2.36569405
-1.25802767	-0.04032444	2.36568928
-1.25698137	-0.04202088	2.36568642
-1.25531435	-0.04383631	2.36568189
-1.25413358	-0.04537321	2.36567855
-1.25341249	-0.04657216	2.36567664
-1.25270796	-0.04795396	2.36567473
-1.25184274	-0.04911682	2.36567235
-1.25170434	-0.04989266	2.36567187
-1.25236094	-0.05108923	2.36567378
-1.25220108	-0.05312383	2.36567354
-1.25080764	-0.05519627	2.36566973
-1.24965322	-0.05679268	2.36566639
-1.24962699	-0.05811288	2.36566639
-1.24887371	-0.05981981	2.36566448
-1.24914658	-0.06058308	2.36566520
-1.24476111	-0.06459238	2.36565304
-1.24406743	-0.06672451	2.36565113
-1.24344766	-0.06771713	2.36564946
-1.24291360	-0.06919447	2.36564803
-1.24109757	-0.07241517	2.36564302
-1.24010944	-0.07366300	2.36564016
-1.23937786	-0.07549126	2.36563826
-1.23802626	-0.07693230	2.36563444
-1.23829913	-0.07907501	2.36563540
-1.23753536	-0.08003182	2.36563325
-1.23782957	-0.08091616	2.36563420
-1.23728979	-0.08158132	2.36563253
-1.23761594	-0.08333712	2.36563373
-1.23489833	-0.08640475	2.36562610
-1.23454070	-0.08878992	2.36562514
-1.23339772	-0.09063077	2.36562204
-1.23288524	-0.09222953	2.36562061
-1.23228717	-0.09334335	2.36561894
-1.23013973	-0.09624924	2.36561322
-1.22915673	-0.09743556	2.36561036
-1.22879910	-0.09844096	2.36560941
-1.22841990	-0.10070480	2.36560845
-1.22574353	-0.10364709	2.36560106
-1.22532177	-0.10428900	2.36559987
-1.22358060	-0.10724381	2.36559510
-1.22195137	-0.10936314	2.36559057
-1.22186089	-0.11031992	2.36559033
-1.21953726	-0.11369773	2.36558390
-1.21837282	-0.11541752	2.36558080
-1.21733141	-0.11705234	2.36557794
-1.21046162	-0.12422043	2.36555862
