//X	Y	Z
-1.34004688	0.15494226	3.65513611
-1.34001958	0.15404658	3.65513611
-1.34006691	0.15317500	3.65513611
-1.34057963	0.15114063	3.65513492
-1.34148121	0.14765751	3.65513277
-1.34326148	0.14091291	3.65512872
-1.34389114	0.13752241	3.65512705
-1.34387100	0.13608125	3.65512705
-1.34401774	0.13397440	3.65512681
-1.34453070	0.13194016	3.65512562
-1.34375286	0.13161330	3.65512729
-1.34428763	0.12925884	3.65512609
-1.34443927	0.12766024	3.65512586
-1.34578991	0.12195098	3.65512252
-1.34549308	0.12139403	3.65512323
-1.34566975	0.12044510	3.65512276
-1.34643686	0.11713942	3.65512109
-1.35007906	0.10312857	3.65511250
-1.35018349	0.10240190	3.65511227
-1.35119200	0.09845443	3.65510988
-1.35726357	0.07561832	3.65509582
-1.35744786	0.07483148	3.65509534
-1.35743260	0.07389875	3.65509534
-1.35766423	0.07224021	3.65509486
-1.35782087	0.07115029	3.65509439
-1.35783315	0.07052063	3.65509439
-1.35769105	0.06992749	3.65509462
-1.35816932	0.06813522	3.65509367
-1.35803926	0.06750496	3.65509391
-1.35833824	0.06641597	3.65509319
-1.35842037	0.06530201	3.65509295
-1.35836542	0.06410293	3.65509319
-1.35837770	0.06347357	3.65509295
-1.35840762	0.06272294	3.65509295
-1.35839224	0.06179015	3.65509295
-1.35847437	0.06067624	3.65509272
-1.35864127	0.06001067	3.65509248
-1.35841918	0.05947740	3.65509295
-1.35861588	0.05806126	3.65509248
-1.35878992	0.05684995	3.65509200
-1.35889435	0.05612340	3.65509176
-1.35902166	0.05519123	3.65509152
-1.35895395	0.05462205	3.65509152
-1.35937011	0.05217652	3.65509057
-1.35920024	0.05128022	3.65509105
-1.35954130	0.04940312	3.65509033
-1.35953116	0.04838644	3.65509033
-1.35964823	0.04703023	3.65508986
-1.35957551	0.04595266	3.65509009
-1.36018050	0.04382113	3.65508866
-1.36064327	0.04109648	3.65508771
-1.35992324	0.04032183	3.65508914
-1.35998774	0.03932911	3.65508914
-1.35995018	0.03800908	3.65508914
-1.36003733	0.03740345	3.65508890
-1.36049795	0.03573250	3.65508795
-1.36090362	0.03286274	3.65508699
-1.36093044	0.03054997	3.65508676
-1.36032474	0.03006571	3.65508819
-1.36064839	0.02830959	3.65508747
-1.36002517	0.02794638	3.65508890
-1.36003757	0.02731696	3.65508890
-1.35944414	0.02620296	3.65509009
-1.35953128	0.02559738	3.65508986
-1.35938919	0.02500421	3.65509033
-1.35878181	0.02308881	3.65509176
-1.35898066	0.02061858	3.65509129
-1.35903990	0.01970978	3.65509105
-1.35935163	0.01799086	3.65509033
-1.35933113	0.01655005	3.65509033
-1.35943568	0.01582311	3.65509009
-1.35929358	0.01522999	3.65509033
-1.35958242	0.01371653	3.65508962
-1.35944033	0.01312304	3.65509009
-1.35897875	0.01217813	3.65509105
-1.35861993	0.01096780	3.65509200
-1.35795164	0.01042239	3.65509343
-1.35845447	0.00737140	3.65509224
-1.35688710	0.00675420	3.65509582
-1.35675716	0.00612401	3.65509605
-1.35723031	0.00382344	3.65509486
-1.35679650	0.00318158	3.65509605
-1.35665429	0.00258841	3.65509629
-1.35597396	0.00208014	3.65509772
-1.35613561	0.00149846	3.65509748
-1.35637224	0.00034804	3.65509701
-1.35587633	-0.00094708	3.65509796
-1.35599804	-0.00179505	3.65509772
-1.35594821	-0.00307773	3.65509772
-1.35602510	-0.00410780	3.65509772
-1.35582578	-0.00484596	3.65509820
-1.35608685	-0.00666279	3.65509748
-1.35546362	-0.00702616	3.65509892
-1.35598898	-0.00968977	3.65509772
-1.35631251	-0.01144550	3.65509701
-1.35568953	-0.01180917	3.65509844
-1.35594344	-0.01308026	3.65509772
-1.35578108	-0.01511458	3.65509796
-1.35534239	-0.01626500	3.65509915
-1.35499537	-0.01751211	3.65509987
-1.35524940	-0.01878360	3.65509915
-1.35515952	-0.01974007	3.65509939
-1.35422242	-0.02053933	3.65510154
-1.35393810	-0.02172595	3.65510225
-1.35390544	-0.02253740	3.65510225
-1.35343194	-0.02344555	3.65510345
-1.35313535	-0.02400251	3.65510392
-1.35290813	-0.02504383	3.65510464
-1.35249186	-0.02580696	3.65510559
-1.35234976	-0.02640007	3.65510583
-1.35182381	-0.02694462	3.65510702
-1.35112071	-0.02724779	3.65510869
-1.35136986	-0.02902753	3.65510798
-1.35062683	-0.02959699	3.65510964
-1.35013092	-0.03089214	3.65511084
-1.35011566	-0.03182492	3.65511084
-1.34958982	-0.03236947	3.65511203
-1.34952235	-0.03293886	3.65511227
-1.34892201	-0.03350740	3.65511346
-1.34899855	-0.03453723	3.65511346
-1.34895396	-0.03531182	3.65511346
-1.34823871	-0.03557787	3.65511513
-1.34843016	-0.03691016	3.65511465
-1.34762502	-0.03813293	3.65511656
-1.34720039	-0.03848163	3.65511751
-1.34715152	-0.03904102	3.65511751
-1.34717107	-0.04021584	3.65511751
-1.34664941	-0.04097589	3.65511870
-1.34670186	-0.04193141	3.65511847
-1.34612155	-0.04235891	3.65511990
-1.34618318	-0.04302172	3.65511966
-1.34649730	-0.04447806	3.65511894
-1.34646702	-0.04504351	3.65511894
-1.34599841	-0.04544327	3.65512013
-1.34701550	-0.04850510	3.65511775
-1.34614289	-0.05029709	3.65511966
-1.34603572	-0.05113253	3.65511990
-1.34687710	-0.05441419	3.65511799
-1.34585500	-0.05566166	3.65512037
-1.34584510	-0.05667831	3.65512037
-1.34570515	-0.05832557	3.65512061
-1.34559774	-0.05916099	3.65512085
-1.34550774	-0.06011752	3.65512109
-1.34534323	-0.06109799	3.65512133
-1.34476948	-0.06338702	3.65512276
-1.34381485	-0.06406501	3.65512490
-1.34408641	-0.06545744	3.65512419
-1.34385920	-0.06649879	3.65512466
-1.34387171	-0.06712845	3.65512466
-1.34365499	-0.06774557	3.65512514
-1.34326625	-0.06820527	3.65512609
-1.34370422	-0.06967100	3.65512514
-1.34374106	-0.07096712	3.65512490
-1.34389067	-0.07151163	3.65512466
-1.34351945	-0.07209261	3.65512538
-1.34350419	-0.07302534	3.65512538
-1.34325981	-0.07394566	3.65512609
-1.34287107	-0.07440533	3.65512681
-1.34299302	-0.07525327	3.65512657
-1.34271908	-0.07601548	3.65512729
-1.34282351	-0.07674212	3.65512705
-1.34263074	-0.07743320	3.65512753
-1.34265554	-0.07869215	3.65512729
-1.34217513	-0.07905487	3.65512848
-1.34258521	-0.08082369	3.65512753
-1.34216225	-0.08163397	3.65512848
-1.34138167	-0.08352321	3.65513015
-1.34073615	-0.08427387	3.65513158
-1.34051394	-0.08480681	3.65513229
-1.34045196	-0.08546013	3.65513229
-1.34045386	-0.08651394	3.65513229
-1.34031177	-0.08710708	3.65513253
-1.33949435	-0.08770056	3.65513444
-1.33915782	-0.08852360	3.65513515
-1.33919978	-0.08931127	3.65513515
-1.33905768	-0.08990448	3.65513539
-1.33845186	-0.09038879	3.65513682
-1.33871639	-0.09123608	3.65513611
-1.33857620	-0.09288304	3.65513659
-1.33806789	-0.09354886	3.65513778
-1.33726239	-0.09417914	3.65513945
-1.33771610	-0.09530465	3.65513849
-1.33664894	-0.09673417	3.65514088
-1.33681083	-0.09790801	3.65514040
-1.33622229	-0.09851371	3.65514183
-1.33586383	-0.09972431	3.65514255
-1.33613992	-0.10060811	3.65514207
-1.33565402	-0.10088661	3.65514302
-1.33510554	-0.10122623	3.65514445
-1.33525491	-0.10177077	3.65514398
-1.33500564	-0.10319939	3.65514469
-1.33425236	-0.10419321	3.65514636
-1.33380115	-0.10471371	3.65514731
-1.33403075	-0.10531875	3.65514684
-1.33341467	-0.10622750	3.65514827
-1.33246005	-0.10690546	3.65515041
-1.33175731	-0.10780118	3.65515184
-1.33193660	-0.10909635	3.65515161
-1.33133101	-0.10958096	3.65515280
-1.33178627	-0.11116771	3.65515184
-1.33084416	-0.11247536	3.65515399
-1.33059442	-0.11331170	3.65515447
-1.33031511	-0.11398971	3.65515518
-1.32941759	-0.11452272	3.65515733
-1.32922375	-0.11534504	3.65515757
-1.32947743	-0.11602394	3.65515709
-1.32870007	-0.11694364	3.65515876
-1.32838273	-0.11834919	3.65515947
-1.32768488	-0.11873622	3.65516114
-1.32682252	-0.11951180	3.65516305
-1.32703662	-0.12104924	3.65516257
-1.32576621	-0.12170173	3.65516543
-1.32563281	-0.12330188	3.65516591
-1.32529140	-0.12463319	3.65516663
-1.32544804	-0.12572341	3.65516615
-1.32499683	-0.12624399	3.65516710
-1.32431662	-0.12675257	3.65516877
-1.32361209	-0.12718672	3.65517044
-1.32348371	-0.12827821	3.65517068
-1.32366824	-0.12906530	3.65517020
-1.32317555	-0.12939091	3.65517139
-1.32320511	-0.13014129	3.65517116
-1.32297826	-0.13118285	3.65517187
-1.32333446	-0.13212718	3.65517092
-1.32246685	-0.13341081	3.65517282
-1.32178652	-0.13391916	3.65517449
-1.32228720	-0.13532408	3.65517330
-1.32162416	-0.13595341	3.65517473
-1.31994903	-0.13681352	3.65517855
-1.32030535	-0.13775784	3.65517783
-1.31955767	-0.13883561	3.65517950
-1.31865513	-0.13987693	3.65518165
-1.31795955	-0.14131804	3.65518308
-1.31726193	-0.14170536	3.65518475
-1.31776237	-0.14311026	3.65518355
-1.31630445	-0.14394575	3.65518689
-1.31625414	-0.14463593	3.65518713
-1.31611216	-0.14522934	3.65518737
-1.31563711	-0.14565966	3.65518832
-1.31594110	-0.14624064	3.65518761
-1.31570697	-0.14673656	3.65518832
-1.31565690	-0.14742699	3.65518832
-1.31544721	-0.14858957	3.65518880
-1.31467509	-0.14900093	3.65519047
-1.31439567	-0.14967892	3.65519118
-1.31433523	-0.15079352	3.65519142
-1.31407332	-0.15159281	3.65519190
-1.31345069	-0.15254866	3.65519333
-1.31366444	-0.15349360	3.65519285
-1.31259000	-0.15437771	3.65519524
-1.31228125	-0.15489763	3.65519595
-1.31270695	-0.15573397	3.65519500
-1.31256485	-0.15632716	3.65519524
-1.31194162	-0.15669048	3.65519667
-1.31173706	-0.15734473	3.65519714
-1.31136584	-0.15792571	3.65519810
-1.31117857	-0.15870099	3.65519857
-1.31154728	-0.16027464	3.65519762
-1.31140518	-0.16086781	3.65519786
-1.31057739	-0.16188543	3.65519977
-1.31053257	-0.16266005	3.65520000
-1.30992007	-0.16319151	3.65520120
-1.31028318	-0.16408870	3.65520048
-1.31050742	-0.16460948	3.65520000
-1.30926323	-0.16638990	3.65520287
-1.30912101	-0.16698305	3.65520310
-1.31014264	-0.16894406	3.65520072
-1.30966914	-0.16985217	3.65520167
-1.30913806	-0.17031278	3.65520310
-1.30870950	-0.17103849	3.65520406
-1.30887127	-0.17162041	3.65520358
-1.30921018	-0.17244339	3.65520287
-1.30945158	-0.17308518	3.65520215
-1.30870879	-0.17365466	3.65520406
-1.30916953	-0.17532559	3.65520287
-1.30952573	-0.17626964	3.65520215
-1.30876565	-0.17671804	3.65520382
-1.30734229	-0.17779557	3.65520692
-1.30778575	-0.17934547	3.65520597
-1.30615604	-0.18061605	3.65520978
-1.30686343	-0.18242043	3.65520811
-1.30567670	-0.18464839	3.65521073
-1.30331635	-0.18652543	3.65521622
-1.30349243	-0.18879016	3.65521574
-1.30239153	-0.19175506	3.65521812
-1.30131733	-0.19263916	3.65522075
-1.30063701	-0.19314753	3.65522218
-1.30043221	-0.19380149	3.65522265
-1.29999352	-0.19495192	3.65522361
-1.29890168	-0.19571474	3.65522623
-1.29873025	-0.19804215	3.65522647
-1.29655921	-0.20019770	3.65523148
-1.29671454	-0.20141895	3.65523100
-1.29597163	-0.20198810	3.65523267
-1.29530549	-0.20358734	3.65523434
-1.29545176	-0.20510170	3.65523386
-1.29433250	-0.20676020	3.65523648
-1.29483807	-0.20765679	3.65523529
-1.29267752	-0.20938791	3.65524030
-1.29188263	-0.21018627	3.65524197
-1.29207420	-0.21151854	3.65524149
-1.29238534	-0.21264493	3.65524077
-1.29254198	-0.21373492	3.65524054
-1.29063809	-0.21517512	3.65524483
-1.29142487	-0.21644717	3.65524292
-1.29145479	-0.21719781	3.65524292
-1.29069161	-0.21920834	3.65524459
-1.29089332	-0.22011623	3.65524411
-1.29113483	-0.22075802	3.65524364
-1.29053450	-0.22132656	3.65524507
-1.29062855	-0.22247760	3.65524483
-1.29027462	-0.22317961	3.65524554
-1.29056847	-0.22418471	3.65524483
-1.29065561	-0.22479035	3.65524459
-1.29070282	-0.22566226	3.65524459
-1.29024649	-0.22669114	3.65524554
-1.28970337	-0.22711468	3.65524673
-1.29058754	-0.22856821	3.65524483
-1.29065228	-0.22956116	3.65524459
-1.29044247	-0.23072346	3.65524507
-1.29048991	-0.23159540	3.65524507
-1.29030263	-0.23237067	3.65524530
-1.29088306	-0.23383549	3.65524411
-1.29034686	-0.23480442	3.65524530
-1.29090989	-0.23614824	3.65524387
-1.29066551	-0.23706855	3.65524459
-1.29024911	-0.23783164	3.65524554
-1.28989530	-0.23853366	3.65524626
-1.28959870	-0.23909065	3.65524697
-1.28922737	-0.23967163	3.65524769
-1.29058766	-0.24186309	3.65524459
-1.28979969	-0.24261463	3.65524650
-1.29002368	-0.24313514	3.65524578
-1.29164839	-0.24617390	3.65524220
-1.29117978	-0.24657369	3.65524316
-1.29053950	-0.24740824	3.65524459
-1.29072928	-0.24827924	3.65524411
-1.29113197	-0.24891016	3.65524340
-1.29083526	-0.24946715	3.65524387
-1.29085195	-0.25031197	3.65524387
-1.29137075	-0.25111434	3.65524268
-1.29179668	-0.25254294	3.65524173
-1.29203320	-0.25369310	3.65524125
-1.29320419	-0.25560635	3.65523839
-1.29300487	-0.25634456	3.65523887
-1.29461169	-0.25866973	3.65523529
-1.29454422	-0.25923914	3.65523529
-1.29412770	-0.26000199	3.65523624
-1.29458642	-0.26061919	3.65523529
-1.29487503	-0.26213261	3.65523458
-1.29496217	-0.26273823	3.65523434
-1.29564691	-0.26492998	3.65523267
-1.29540253	-0.26585028	3.65523338
-1.29577625	-0.26691559	3.65523243
-1.29555428	-0.26744887	3.65523291
-1.29577839	-0.26796937	3.65523243
-1.29594529	-0.26863518	3.65523195
-1.29649305	-0.27091172	3.65523076
-1.29690671	-0.27171102	3.65522981
-1.29736733	-0.27338192	3.65522861
-1.29743195	-0.27437460	3.65522861
-1.29826403	-0.27546483	3.65522671
-1.29771423	-0.27593550	3.65522790
-1.29879427	-0.27762011	3.65522528
-1.29934001	-0.27884287	3.65522408
-1.29919767	-0.27943608	3.65522456
-1.29965532	-0.28018451	3.65522337
-1.30027151	-0.28116810	3.65522194
-1.30005479	-0.28178525	3.65522242
-1.30112815	-0.28351700	3.65522003
-1.30120301	-0.28408554	3.65521979
-1.30161130	-0.28480068	3.65521884
-1.30138910	-0.28533360	3.65521932
-1.30176115	-0.28593770	3.65521860
-1.30248547	-0.28727084	3.65521693
-1.30257261	-0.28787652	3.65521669
-1.30305934	-0.28878278	3.65521550
-1.30357146	-0.28963220	3.65521431
-1.30373192	-0.29034510	3.65521383
-1.30427742	-0.29156768	3.65521264
-1.30461764	-0.29225966	3.65521193
-1.30500221	-0.29349336	3.65521097
-1.30538750	-0.29400325	3.65521002
-1.30583572	-0.29504457	3.65520906
-1.30645597	-0.29624334	3.65520763
-1.30712366	-0.29831401	3.65520597
-1.30707335	-0.29900450	3.65520620
-1.30714846	-0.29957303	3.65520597
-1.30779099	-0.30038449	3.65520453
-1.30899668	-0.30254000	3.65520167
-1.30877459	-0.30307302	3.65520215
-1.30973375	-0.30509478	3.65520000
-1.30970109	-0.30590653	3.65520000
-1.31026423	-0.30725032	3.65519881
-1.31036854	-0.30797693	3.65519857
-1.31076455	-0.30865496	3.65519762
-1.31165421	-0.31019241	3.65519547
-1.31211984	-0.31135505	3.65519452
-1.31234956	-0.31196001	3.65519404
-1.31290710	-0.31321958	3.65519261
-1.31305671	-0.31376439	3.65519238
-1.31392360	-0.31509668	3.65519023
-1.31433702	-0.31589568	3.65518928
-1.31402838	-0.31641582	3.65518999
-1.31464314	-0.31753042	3.65518856
-1.31478238	-0.31849936	3.65518832
-1.31464565	-0.31917676	3.65518856
-1.31538033	-0.32008547	3.65518689
-1.31525564	-0.32079992	3.65518713
-1.31547964	-0.32132044	3.65518665
-1.31524563	-0.32181662	3.65518713
-1.31615233	-0.32288280	3.65518522
-1.31587291	-0.32356083	3.65518570
-1.31610239	-0.32416555	3.65518522
-1.31642389	-0.32486755	3.65518451
-1.31638587	-0.32559508	3.65518451
-1.31717813	-0.32695135	3.65518260
-1.31724942	-0.32789716	3.65518260
-1.31734049	-0.32871801	3.65518236
-1.31757665	-0.32927564	3.65518188
-1.31784761	-0.33007550	3.65518117
-1.31842637	-0.33107916	3.65517974
-1.31837094	-0.33168566	3.65517998
-1.31863225	-0.33220243	3.65517926
-1.31908321	-0.33298174	3.65517831
-1.31945693	-0.33404702	3.65517735
-1.31969833	-0.33468881	3.65517688
-1.32052541	-0.33628711	3.65517497
-1.32028079	-0.33720741	3.65517545
-1.32043052	-0.33775222	3.65517521
-1.32044840	-0.33846578	3.65517497
-1.32117748	-0.33929035	3.65517330
-1.32164860	-0.34053710	3.65517235
-1.32158113	-0.34110630	3.65517235
-1.32222378	-0.34191799	3.65517092
-1.32257509	-0.34337065	3.65517020
-1.32275414	-0.34407330	3.65516973
-1.32264018	-0.34495583	3.65516996
-1.32314563	-0.34585243	3.65516877
-1.32333672	-0.34659213	3.65516829
-1.32359552	-0.34735495	3.65516782
-1.32368135	-0.34809187	3.65516758
-1.32407737	-0.34876987	3.65516663
-1.32441759	-0.34946185	3.65516591
-1.32402778	-0.35005283	3.65516686
-1.32420146	-0.35067156	3.65516639
-1.32494783	-0.35161713	3.65516472
-1.32534409	-0.35229540	3.65516376
-1.32494879	-0.35280219	3.65516472
-1.32527149	-0.35337290	3.65516376
-1.32506025	-0.35407427	3.65516424
-1.32586932	-0.35495898	3.65516257
-1.32564735	-0.35549226	3.65516305
-1.32602620	-0.35604924	3.65516210
-1.32595849	-0.35661837	3.65516233
-1.32603896	-0.35727113	3.65516210
-1.32636178	-0.35784209	3.65516138
-1.32690036	-0.35851917	3.65516019
-1.32686222	-0.35924673	3.65516019
-1.32677603	-0.35982615	3.65516043
-1.32665658	-0.36062455	3.65516067
-1.32756996	-0.36164367	3.65515852
-1.32758236	-0.36227301	3.65515852
-1.32750809	-0.36288953	3.65515852
-1.32830155	-0.36411449	3.65515685
-1.32831275	-0.36487517	3.65515685
-1.32857299	-0.36550695	3.65515614
-1.32849884	-0.36612350	3.65515637
-1.32907355	-0.36691183	3.65515494
-1.32876468	-0.36743173	3.65515566
-1.32932746	-0.36818302	3.65515447
-1.32944977	-0.36962348	3.65515399
-1.32982302	-0.37009624	3.65515327
-1.32950234	-0.37057933	3.65515399
-1.32952142	-0.37116158	3.65515399
-1.33053064	-0.37249318	3.65515161
-1.33075488	-0.37301397	3.65515113
-1.33061278	-0.37360713	3.65515137
-1.33029735	-0.37417415	3.65515208
-1.33012223	-0.37498650	3.65515256
-1.33059275	-0.37564054	3.65515137
-1.33093178	-0.37646380	3.65515065
-1.33108664	-0.37709254	3.65515018
-1.33127761	-0.37783223	3.65514970
-1.33132493	-0.37870389	3.65514970
-1.33187556	-0.37941837	3.65514851
-1.33201838	-0.38000998	3.65514803
-1.33211792	-0.38124520	3.65514779
-1.33414817	-0.38335273	3.65514326
-1.33353257	-0.38485402	3.65514445
-1.33311808	-0.38667062	3.65514541
-1.33288407	-0.38716677	3.65514612
-1.33277273	-0.38778701	3.65514636
-1.33263052	-0.38838020	3.65514660
-1.33337593	-0.38945708	3.65514493
-1.33386266	-0.39036363	3.65514374
-1.33372390	-0.39187932	3.65514398
-1.33390832	-0.39266637	3.65514350
-1.33387554	-0.39347786	3.65514374
-1.33375621	-0.39427623	3.65514398
-1.33370614	-0.39496666	3.65514398
-1.33423400	-0.39547592	3.65514278
-1.33408689	-0.39657742	3.65514326
-1.33455765	-0.39723167	3.65514207
-1.33458781	-0.39857486	3.65514207
-1.33422863	-0.39919263	3.65514278
-1.33445990	-0.40025887	3.65514231
-1.33418596	-0.40102106	3.65514278
-1.33383214	-0.40172309	3.65514374
-1.33438444	-0.40289876	3.65514231
-1.33464336	-0.40366158	3.65514183
-1.33404505	-0.40528390	3.65514326
-1.33416188	-0.40664017	3.65514278
-1.33301878	-0.40822473	3.65514541
-1.33345461	-0.40863669	3.65514445
-1.33393204	-0.40924385	3.65514326
-1.33452106	-0.40982306	3.65514207
-1.33380818	-0.41114309	3.65514374
-1.33454800	-0.41213575	3.65514183
-1.33411431	-0.41277787	3.65514278
-1.33369792	-0.41354066	3.65514374
-1.33379722	-0.41477567	3.65514350
-1.33370209	-0.41564822	3.65514374
-1.33276522	-0.41704002	3.65514588
-1.33319616	-0.41796035	3.65514493
-1.33277607	-0.41910046	3.65514588
-1.33302879	-0.42050296	3.65514541
-1.33274949	-0.42118093	3.65514588
-1.33200705	-0.42234296	3.65514755
-1.33234084	-0.42367429	3.65514684
-1.33277178	-0.42459458	3.65514588
-1.33256209	-0.42575717	3.65514636
-1.33113599	-0.42839706	3.65514946
-1.33093143	-0.42905131	3.65514994
-1.33037794	-0.42989925	3.65515137
-1.33007598	-0.43037203	3.65515184
-1.32920837	-0.43165568	3.65515399
-1.32971215	-0.43209073	3.65515280
-1.33009744	-0.43260059	3.65515184
-1.33037961	-0.43416145	3.65515113
-1.32965589	-0.43531314	3.65515280
-1.33052206	-0.43605286	3.65515089
-1.32888436	-0.43880156	3.65515447
-1.32863164	-0.43930778	3.65515518
-1.32881188	-0.43987933	3.65515471
-1.32777143	-0.44172904	3.65515709
-1.32756829	-0.44284457	3.65515757
-1.32720792	-0.44359368	3.65515828
-1.32746291	-0.44414157	3.65515780
-1.32804823	-0.44509804	3.65515637
-1.32796729	-0.44576138	3.65515661
-1.32762694	-0.44636947	3.65515733
-1.32820404	-0.44691181	3.65515614
-1.32713318	-0.44871837	3.65515852
-1.32674158	-0.45074049	3.65515924
-1.32649708	-0.45166078	3.65515995
-1.32588506	-0.45278475	3.65516138
-1.32560718	-0.45333174	3.65516186
-1.32511473	-0.45424959	3.65516305
-1.32566130	-0.45474884	3.65516186
-1.32522249	-0.45589894	3.65516281
-1.32481027	-0.45687732	3.65516376
-1.32521462	-0.45796943	3.65516281
-1.32447267	-0.45972395	3.65516448
-1.32467484	-0.46122432	3.65516400
-1.32461929	-0.46183056	3.65516400
-1.32573295	-0.46388882	3.65516138
-1.32613623	-0.46511227	3.65516043
-1.32623565	-0.46634746	3.65516019
-1.32648242	-0.46707323	3.65515971
-1.32714260	-0.46800596	3.65515828
-1.32740903	-0.46990675	3.65515757
-1.32770777	-0.47040352	3.65515685
-1.32794929	-0.47104532	3.65515637
-1.32834029	-0.47223192	3.65515542
-1.32842755	-0.47283757	3.65515518
-1.32820034	-0.47387889	3.65515566
-1.32892299	-0.47475079	3.65515399
-1.32860386	-0.47569484	3.65515471
-1.32871568	-0.47755945	3.65515447
-1.32864821	-0.47812888	3.65515471
-1.32866061	-0.47875825	3.65515471
-1.33049464	-0.48004213	3.65515041
-1.33035231	-0.48063529	3.65515065
-1.33308578	-0.48243967	3.65514445
-1.33401990	-0.48320249	3.65514231
-1.33493686	-0.48384428	3.65514016
-1.33689046	-0.48492205	3.65513563
-1.33676577	-0.48563647	3.65513587
-1.33794165	-0.48704112	3.65513325
-1.33844209	-0.48844603	3.65513206
-1.33984005	-0.48931766	3.65512896
-1.34020138	-0.48975360	3.65512800
-1.34012878	-0.49083108	3.65512824
-1.34106314	-0.49159423	3.65512609
-1.34083438	-0.49217427	3.65512657
-1.34112406	-0.49296418	3.65512586
-1.34162128	-0.49344635	3.65512466
-1.34226882	-0.49374947	3.65512323
-1.34326196	-0.49482879	3.65512109
-1.34362745	-0.49547994	3.65512013
-1.34424865	-0.49595517	3.65511870
-1.34549201	-0.49679065	3.65511584
-1.34587073	-0.49734762	3.65511489
-1.34671164	-0.49814448	3.65511298
-1.34994972	-0.49966031	3.65510559
-1.35181129	-0.50064081	3.65510130
-1.35316896	-0.50118619	3.65509820
-1.35427523	-0.50210643	3.65509558
-1.35567307	-0.50297821	3.65509248
-1.35670996	-0.50341409	3.65509009
-1.35852635	-0.50457674	3.65508580
-1.35890496	-0.50513369	3.65508509
-1.36063647	-0.50674438	3.65508103
-1.36185741	-0.50796694	3.65507817
-1.36407483	-0.50929916	3.65507317
-1.36602843	-0.51037693	3.65506864
-1.36746109	-0.51149088	3.65506530
-1.44261217	-0.53921360	3.65489292
-1.53243852	-0.57039517	3.65468693
-1.53615165	-0.56957185	3.65467834
-1.53887057	-0.56969315	3.65467215
-1.53899682	-0.57324082	3.65467191
-1.53425419	-0.60076374	3.65468240
-1.52542472	-0.65083331	3.65470195
-1.50971556	-0.71693569	3.65473723
-1.50081682	-0.75381845	3.65475702
-1.50022566	-0.75598621	3.65475845
-1.47936916	-0.79663897	3.65480566
-1.47279286	-0.80828333	3.65482068
-1.47040725	-0.81210953	3.65482616
-1.45999253	-0.82599884	3.65484977
-1.44456339	-0.84132034	3.65488482
-1.44007182	-0.84508663	3.65489507
-1.42743909	-0.85515857	3.65492392
-1.40467322	-0.86868531	3.65497589
-1.38500404	-0.87601191	3.65502071
-1.36352372	-0.88225996	3.65506983
-1.35039794	-0.88446343	3.65509987
-1.33682585	-0.88667893	3.65513110
-1.33574927	-0.88650924	3.65513349
-1.33432424	-0.88653326	3.65513682
-1.33390009	-0.88615817	3.65513778
-1.33178234	-0.88606119	3.65514255
-1.32886922	-0.88617003	3.65514922
-1.32596803	-0.88631576	3.65515590
-1.32541239	-0.88610995	3.65515709
-1.32220745	-0.88626719	3.65516448
-1.32051301	-0.88595247	3.65516829
-1.31980276	-0.88571012	3.65516996
-1.31673527	-0.88578272	3.65517712
-1.31590903	-0.88536936	3.65517902
-1.31493115	-0.88524967	3.65518117
-1.31305981	-0.88528609	3.65518546
-1.30968308	-0.88528615	3.65519309
-1.30900764	-0.88528603	3.65519476
-1.30417085	-0.88506782	3.65520573
-1.30201793	-0.88472831	3.65521073
-1.30117071	-0.88457102	3.65521264
-1.30024874	-0.88443756	3.65521479
-1.29969311	-0.88423151	3.65521598
-1.29803336	-0.88415915	3.65521979
-1.29732323	-0.88391691	3.65522146
-1.29633880	-0.88384426	3.65522385
-1.29481971	-0.88330972	3.65522718
-1.29324663	-0.88325042	3.65523076
-1.28764951	-0.88348037	3.65524364
-1.28657639	-0.88234091	3.65524602
-1.28189576	-0.88262022	3.65525675
-1.28137994	-0.88214821	3.65525794
-1.28023386	-0.88149393	3.65526056
-1.28005493	-0.88079125	3.65526104
-1.27853215	-0.88063377	3.65526462
-1.27810836	-0.88025892	3.65526557
-1.27712929	-0.88027048	3.65526772
-1.27663076	-0.87991941	3.65526891
-1.27541733	-0.87983447	3.65527177
-1.27486181	-0.87962866	3.65527296
-1.27258921	-0.87949526	3.65527821
-1.27174687	-0.87882942	3.65528011
-1.27018428	-0.87893832	3.65528369
-1.26947916	-0.87818766	3.65528536
-1.26871443	-0.87782800	3.65528703
-1.26770997	-0.87789679	3.65528941
-1.26714230	-0.87765384	3.65529060
-1.26595831	-0.87772697	3.65529346
-1.26526546	-0.87760603	3.65529490
-1.26441824	-0.87744868	3.65529680
-1.26376534	-0.87706125	3.65529847
-1.26249444	-0.87712145	3.65530133
-1.26165259	-0.87704825	3.65530324
-1.25895119	-0.87704813	3.65530944
-1.25837278	-0.87663704	3.65531063
-1.25748158	-0.87653059	3.65531278
-1.25328302	-0.87692487	3.65532231
-1.25081086	-0.87693727	3.65532804
-1.24940300	-0.87708235	3.65533137
-1.24720502	-0.87692493	3.65533638
-1.24587178	-0.87704617	3.65533948
-1.24176240	-0.87719131	3.65534878
-1.24082804	-0.87642819	3.65535092
-1.23878467	-0.87630719	3.65535569
-1.23797703	-0.87588358	3.65535736
-1.23604834	-0.87606490	3.65536189
-1.23539531	-0.87567753	3.65536332
-1.23261940	-0.87570161	3.65536976
-1.23057604	-0.87558061	3.65537429
-1.22916067	-0.87458766	3.65537763
-1.22618294	-0.87370360	3.65538454
-1.22539771	-0.87289274	3.65538621
-1.22372603	-0.87278336	3.65539002
-1.22307301	-0.87239593	3.65539169
-1.22242010	-0.87200886	3.65539312
-1.22155535	-0.87173051	3.65539503
-1.21995807	-0.87159699	3.65539885
-1.21987116	-0.87099135	3.65539908
-1.21883440	-0.87055546	3.65540123
-1.21781516	-0.87024075	3.65540361
-1.21693313	-0.86984128	3.65540576
-1.21589148	-0.86991370	3.65540814
-1.21426439	-0.86902958	3.65541172
-1.21411490	-0.86848509	3.65541220
-1.21378279	-0.86761487	3.65541291
-1.21259177	-0.86773503	3.65541577
-1.21206927	-0.86730993	3.65541697
-1.21114206	-0.86709261	3.65541911
-1.21039879	-0.86706954	3.65542078
-1.20968199	-0.86687428	3.65542245
-1.20897853	-0.86658490	3.65542388
-1.20848012	-0.86623406	3.65542507
-1.20745409	-0.86596620	3.65542746
-1.20715547	-0.86546940	3.65542817
-1.20662391	-0.86533749	3.65542936
-1.20592451	-0.86526358	3.65543103
-1.20529556	-0.86495024	3.65543246
-1.20456123	-0.86463392	3.65543413
-1.20387518	-0.86446583	3.65543556
-1.20340991	-0.86389583	3.65543675
-1.20284903	-0.86360580	3.65543795
-1.20209360	-0.86354566	3.65543985
-1.20179486	-0.86304879	3.65544057
-1.20123386	-0.86275882	3.65544176
-1.20070601	-0.86224949	3.65544295
-1.19990921	-0.86199421	3.65544486
-1.19935369	-0.86178833	3.65544605
-1.19874048	-0.86113489	3.65544748
-1.19757211	-0.86086804	3.65545011
-1.19687891	-0.86015421	3.65545177
-1.19593954	-0.85989970	3.65545392
-1.19550371	-0.85948783	3.65545487
-1.19506788	-0.85907578	3.65545583
-1.19438720	-0.85899186	3.65545750
-1.19364214	-0.85850728	3.65545917
-1.19268847	-0.85846174	3.65546131
-1.19132948	-0.85804766	3.65546441
-1.19096112	-0.85706627	3.65546536
-1.19040561	-0.85686040	3.65546656
-1.18996966	-0.85644841	3.65546751
-1.18939614	-0.85552877	3.65546894
-1.18845677	-0.85527438	3.65547109
-1.18753505	-0.85514081	3.65547323
-1.18640101	-0.85452360	3.65547585
-1.18584001	-0.85423362	3.65547705
-1.18499112	-0.85361493	3.65547895
-1.18408120	-0.85351855	3.65548110
-1.18370748	-0.85245317	3.65548205
-1.18240702	-0.85176283	3.65548491
-1.18137026	-0.85132688	3.65548730
-1.18099153	-0.85076988	3.65548825
-1.18025899	-0.85091490	3.65548992
-1.17927468	-0.85084254	3.65549207
-1.17835772	-0.85020077	3.65549421
-1.17799640	-0.84976482	3.65549517
-1.17713165	-0.84948629	3.65549707
-1.17687166	-0.84883815	3.65549779
-1.17658603	-0.84826356	3.65549827
-1.17554450	-0.84833616	3.65550065
-1.17464805	-0.84814560	3.65550280
-1.17299759	-0.84837240	3.65550661
-1.17171836	-0.84740961	3.65550947
-1.17094541	-0.84722817	3.65551138
-1.17009830	-0.84707093	3.65551329
-1.16894197	-0.84684104	3.65551591
-1.16771102	-0.84663498	3.65551877
-1.16576982	-0.84618688	3.65552306
-1.16409254	-0.84599316	3.65552688
-1.16260481	-0.84607798	3.65553045
-1.00783384	-0.89589632	3.65588427
-0.98147124	-0.90531659	3.65594435
-0.96095920	-0.90569144	3.65599132
-0.94459426	-0.90460175	3.65602875
-0.93927646	-0.90415359	3.65604091
-0.92301357	-0.90273631	3.65607834
-0.92195946	-0.90217930	3.65608072
-0.92041945	-0.90190101	3.65608430
-0.91539830	-0.90089589	3.65609574
-0.91331476	-0.90044868	3.65610051
-0.90402251	-0.89900678	3.65612173
-0.90227580	-0.89832872	3.65612578
-0.89902377	-0.89761430	3.65613317
-0.89692813	-0.89713001	3.65613818
-0.88986337	-0.89600372	3.65615416
-0.88621026	-0.89511955	3.65616274
-0.88292348	-0.89416313	3.65617013
-0.87719214	-0.89291567	3.65618324
-0.87504917	-0.89155948	3.65618825
-0.87276423	-0.89079672	3.65619349
-0.87239760	-0.89027679	3.65619421
-0.87182456	-0.88994968	3.65619564
-0.86599612	-0.88911331	3.65620899
-0.86269188	-0.88803560	3.65621662
-0.85976642	-0.88751513	3.65622330
-0.85876954	-0.88681310	3.65622544
-0.85630763	-0.88640124	3.65623116
-0.85511649	-0.88592905	3.65623403
-0.85460061	-0.88545692	3.65623522
-0.85344952	-0.88531089	3.65623784
-0.85099256	-0.88439059	3.65624332
-0.84835333	-0.88373739	3.65624952
-0.84852833	-0.88233280	3.65624905
-0.84551066	-0.88171470	3.65625596
-0.84168023	-0.88058919	3.65626478
-0.84162760	-0.87963325	3.65626478
-0.83685136	-0.87830061	3.65627575
-0.83579022	-0.87719816	3.65627837
-0.83404338	-0.87651986	3.65628219
-0.83395106	-0.87583029	3.65628242
-0.83293706	-0.87559956	3.65628481
-0.83228409	-0.87521225	3.65628624
-0.83032560	-0.87464315	3.65629077
-0.82994157	-0.87400198	3.65629172
-0.82931268	-0.87368876	3.65629315
-0.82835472	-0.87344438	3.65629530
-0.82787329	-0.87262201	3.65629649
-0.82569093	-0.87212431	3.65630150
-0.82494730	-0.87150866	3.65630317
-0.82226157	-0.87116843	3.65630937
-0.82100791	-0.87075740	3.65631223
-0.81941569	-0.87011552	3.65631580
-0.81629038	-0.86974078	3.65632296
-0.81498235	-0.86791235	3.65632606
-0.81182772	-0.86737949	3.65633321
-0.81075621	-0.86670119	3.65633583
-0.80952823	-0.86493325	3.65633845
-0.80913210	-0.86425501	3.65633941
-0.80846173	-0.86374658	3.65634108
-0.80653262	-0.86333555	3.65634537
-0.80360663	-0.86222225	3.65635204
-0.63303751	-0.84353352	3.65674281
-0.62609422	-0.84266263	3.65675879
-0.62370181	-0.84273499	3.65676427
-0.62124538	-0.84240723	3.65676999
-0.62067938	-0.84262556	3.65677118
-0.61978692	-0.84265023	3.65677333
-0.61879587	-0.84262490	3.65677547
-0.61858582	-0.84319502	3.65677595
-0.61760676	-0.84320658	3.65677834
-0.61685669	-0.84323037	3.65678000
-0.61588979	-0.84327894	3.65678215
-0.61530638	-0.84337628	3.65678358
-0.61487257	-0.84401810	3.65678453
-0.61340749	-0.84430808	3.65678787
-0.61161596	-0.84440452	3.65679193
-0.60973912	-0.84435678	3.65679622
-0.60934055	-0.84583342	3.65679717
-0.60769320	-0.84639043	3.65680099
-0.60471749	-0.84656006	3.65680766
-0.60320723	-0.84703225	3.65681124
-0.60205829	-0.84794021	3.65681386
-0.59712422	-0.84754068	3.65682507
-0.59473175	-0.84761304	3.65683055
-0.59175622	-0.84778303	3.65683746
-0.59098876	-0.84768581	3.65683913
-0.58880824	-0.84764969	3.65684414
-0.58682191	-0.84738332	3.65684867
-0.58593482	-0.84749216	3.65685081
-0.58378917	-0.84769833	3.65685558
-0.58313119	-0.84781933	3.65685701
-0.58206713	-0.84827900	3.65685964
-0.58111751	-0.84844863	3.65686178
-0.57905674	-0.84820664	3.65686655
-0.57860541	-0.84872717	3.65686750
-0.57845843	-0.84982896	3.65686774
-0.56955689	-0.84898114	3.65688825
-0.56092703	-0.84952599	3.65690804
-0.55216777	-0.84808493	3.65692806
-0.53833514	-0.84527558	3.65695977
-0.44074941	-0.82128704	3.65718341
-0.42671287	-0.81651568	3.65721560
-0.38257420	-0.79046905	3.65731692
-0.37970370	-0.78874952	3.65732360
-0.35935211	-0.77274168	3.65737033
-0.32483119	-0.74145222	3.65744972
-0.32293284	-0.73917592	3.65745425
-0.30374640	-0.65092003	3.65749907
-0.30388403	-0.64762682	3.65749884
-0.30475366	-0.64739692	3.65749693
-0.31709898	-0.64708275	3.65746856
-0.34468240	-0.64459467	3.65740561
-0.34530562	-0.64423126	3.65740418
-0.34568226	-0.64373446	3.65740323
-0.34582442	-0.64314139	3.65740299
-0.34678066	-0.64292455	3.65740085
-0.34701097	-0.64091343	3.65740013
-0.34876770	-0.64057469	3.65739632
-0.34892517	-0.63904887	3.65739584
-0.34959769	-0.63870227	3.65739441
-0.35058433	-0.63602763	3.65739202
-0.35148668	-0.63498634	3.65739012
-0.35136980	-0.63363010	3.65739036
-0.35128284	-0.63302445	3.65739059
-0.35156208	-0.63234651	3.65738988
-0.35131103	-0.62951291	3.65739059
-0.35289365	-0.62796301	3.65738702
-0.35364157	-0.62688553	3.65738511
-0.35406291	-0.62561411	3.65738416
-0.35467362	-0.62462115	3.65738297
-0.35471129	-0.62330133	3.65738273
-0.35491639	-0.61943865	3.65738249
-0.35566419	-0.61836088	3.65738058
-0.35462558	-0.61307043	3.65738320
-0.35641789	-0.61035794	3.65737915
-0.35816014	-0.60833609	3.65737510
-0.35890299	-0.60776663	3.65737343
-0.36021149	-0.60638666	3.65737033
-0.36064535	-0.60574484	3.65736938
-0.36251956	-0.60414624	3.65736508
-0.36389273	-0.60375899	3.65736198
-0.36495471	-0.60224545	3.65735960
-0.36602396	-0.60186958	3.65735722
-0.36580491	-0.60084081	3.65735769
-0.36693138	-0.60031998	3.65735507
-0.36705613	-0.59960556	3.65735483
-0.36798912	-0.59860730	3.65735269
-0.36797673	-0.59797794	3.65735269
-0.36801434	-0.59665793	3.65735269
-0.36863738	-0.59629464	3.65735126
-0.37010348	-0.59528095	3.65734792
-0.36991894	-0.59449387	3.65734839
-0.36965704	-0.59340084	3.65734887
-0.36926395	-0.59116071	3.65734982
-0.37152505	-0.58994102	3.65734482
-0.37274349	-0.58951753	3.65734196
-0.37266386	-0.58815753	3.65734220
-0.37321794	-0.58599347	3.65734100
-0.37300062	-0.58412576	3.65734148
-0.37406266	-0.58261234	3.65733910
-0.37512749	-0.58142877	3.65733647
-0.37668276	-0.58077455	3.65733290
-0.37778360	-0.57971859	3.65733051
-0.37801194	-0.57854593	3.65733004
-0.37810349	-0.57615840	3.65732980
-0.37913030	-0.57570243	3.65732741
-0.37961864	-0.57517791	3.65732646
-0.37950319	-0.57369059	3.65732670
-0.37975246	-0.57226169	3.65732598
-0.38251042	-0.57093185	3.65731978
-0.37985736	-0.56408691	3.65732598
-0.38062245	-0.56313014	3.65732431
-0.38793826	-0.55948812	3.65730739
-0.38792390	-0.55780500	3.65730762
-0.38854694	-0.55744141	3.65730619
-0.38895589	-0.55554062	3.65730524
-0.38867956	-0.55465651	3.65730596
-0.38917053	-0.55386966	3.65730476
-0.39018238	-0.55304670	3.65730238
-0.38965952	-0.55202907	3.65730357
-0.38885349	-0.54637361	3.65730548
-0.30509681	-0.39512277	3.65749907
-0.30040711	-0.39380297	3.65750980
-0.29857218	-0.37425455	3.65751433
-0.28190285	-0.37199146	3.65755248
-0.27653259	-0.37117979	3.65756488
-0.27418804	-0.36131382	3.65757036
-0.26677459	-0.36038142	3.65758729
-0.26766837	-0.32473373	3.65758562
-0.26864034	-0.31279048	3.65758371
-0.27498782	-0.14088631	3.65757108
-0.27552897	-0.12611416	3.65757012
-0.27881384	-0.07533793	3.65756321
-0.27971125	-0.06531075	3.65756130
-0.28069723	-0.06015137	3.65755892
-0.28465861	-0.05042882	3.65755010
-0.29182380	-0.04696558	3.65753365
-0.33770913	-0.02811205	3.65742898
-0.37753880	-0.01265583	3.65733790
-0.54989314	0.00419643	3.65694356
-0.55143809	0.00442627	3.65693998
-0.55204397	0.00491061	3.65693855
-0.55498487	0.00532262	3.65693188
-0.55674684	0.00557737	3.65692782
-0.55727267	0.00612195	3.65692663
-0.55829149	0.00639983	3.65692425
-0.56027079	0.00667892	3.65691972
-0.56125486	0.00719880	3.65691757
-0.56269574	0.00756307	3.65691423
-0.56357753	0.00775586	3.65691209
-0.56557375	0.00850650	3.65690756
-0.56723845	0.00894243	3.65690374
-0.56770706	0.00934196	3.65690279
-0.56917745	0.00954808	3.65689945
-0.57164276	0.01010573	3.65689373
-0.57176697	0.01141269	3.65689349
-0.57554287	0.01229663	3.65688491
-0.57741922	0.01284143	3.65688062
-0.57986176	0.01360427	3.65687490
-0.58603477	0.01506941	3.65686083
-0.58918726	0.01559022	3.65685368
-0.59019411	0.01590491	3.65685129
-0.60193485	0.01775805	3.65682435
-0.60564303	0.01807276	3.65681601
-0.60819000	0.01810899	3.65681005
-0.61041033	0.01833886	3.65680504
-0.61112040	0.01809686	3.65680337
-0.61429048	0.01849641	3.65679622
-0.61714643	0.01846024	3.65678954
-0.61795884	0.01854503	3.65678787
-0.62481964	0.01938060	3.65677214
-0.62549508	0.01938057	3.65677047
-0.62837350	0.01973146	3.65676403
-0.62891018	0.01951561	3.65676284
-0.63180602	0.01974546	3.65675616
-0.63424349	0.01999998	3.65675044
-0.63499343	0.02002400	3.65674877
-0.63721383	0.02025388	3.65674376
-0.63990307	0.02029100	3.65673757
-0.64109385	0.02041139	3.65673494
-0.64217043	0.02024147	3.65673232
-0.64298284	0.02032658	3.65673041
-0.64483702	0.02048382	3.65672636
-0.64574134	0.02047162	3.65672421
-0.64865464	0.02058023	3.65671754
-0.64994818	0.02043522	3.65671468
-0.65168238	0.02038687	3.65671062
-0.65249485	0.02047169	3.65670872
-0.65476751	0.02033823	3.65670347
-0.65491712	0.01979342	3.65670323
-0.65727454	0.02010841	3.65669775
-0.65848815	0.02002331	3.65669513
-0.65952975	0.02009596	3.65669274
-0.66140127	0.02013219	3.65668845
-0.66344470	0.02001119	3.65668368
-0.66614616	0.02001118	3.65667748
-0.66769117	0.02024105	3.65667391
-0.66820705	0.01976892	3.65667272
-0.67073631	0.01992639	3.65666699
-0.67179048	0.01936945	3.65666461
-0.67296934	0.01952667	3.65666175
-0.67387909	0.01943032	3.65665984
-0.67565870	0.01956377	3.65665579
-0.67656302	0.01955157	3.65665364
-0.67883563	0.01941817	3.65664840
-0.67982012	0.01934551	3.65664625
-0.68095911	0.01923668	3.65664363
-0.68155444	0.01929689	3.65664220
-0.68323171	0.01910325	3.65663838
-0.68475425	0.01894604	3.65663481
-0.68546444	0.01870377	3.65663314
-0.68640375	0.01844927	3.65663099
-0.68810868	0.01855880	3.65662718
-0.68842494	0.01794069	3.65662646
-0.68954647	0.01795314	3.65662384
-0.68972540	0.01725054	3.65662336
-0.69082963	0.01738372	3.65662098
-0.69206053	0.01717791	3.65661812
-0.69255900	0.01682678	3.65661693
-0.69440264	0.01656014	3.65661263
-0.69456971	0.01589430	3.65661240
-0.69605243	0.01547080	3.65660906
-0.69636875	0.01485275	3.65660810
-0.69692433	0.01464691	3.65660691
-0.69797826	0.01408996	3.65660453
-0.69859654	0.01394491	3.65660310
-0.69916415	0.01370196	3.65660191
-0.69963479	0.01304770	3.65660071
-0.70127714	0.01309633	3.65659690
-0.70210725	0.01305988	3.65659499
-0.70437479	0.01241813	3.65658975
-0.70457649	0.01151028	3.65658927
-0.70629358	0.01158269	3.65658545
-0.70788574	0.01094085	3.65658188
-0.70813805	0.01013093	3.65658116
-0.70868284	0.01009324	3.65657997
-0.70941043	0.00972996	3.65657830
-0.71033227	0.00959650	3.65657616
-0.71108764	0.00953630	3.65657449
-0.71138632	0.00903949	3.65657377
-0.71259987	0.00895468	3.65657091
-0.71366435	0.00882184	3.65656853
-0.71403641	0.00821778	3.65656757
-0.71464908	0.00815695	3.65656638
-0.71610391	0.00802257	3.65656304
-0.71667695	0.00769548	3.65656161
-0.71720850	0.00756356	3.65656042
-0.71806240	0.00745346	3.65655851
-0.71869665	0.00705613	3.65655708
-0.71964800	0.00676453	3.65655494
-0.72035980	0.00606101	3.65655327
-0.72174370	0.00627999	3.65654993
-0.72302681	0.00571078	3.65654707
-0.72402865	0.00551717	3.65654469
-0.72429961	0.00471724	3.65654421
-0.72599429	0.00440230	3.65654016
-0.72668695	0.00428130	3.65653872
-0.72912657	0.00348203	3.65653300
-0.73012340	0.00278003	3.65653086
-0.73123467	0.00236807	3.65652823
-0.73208189	0.00221089	3.65652633
-0.73242086	0.00138762	3.65652561
-0.73308575	0.00096349	3.65652394
-0.73464334	0.00056370	3.65652037
-0.73578668	-0.00035260	3.65651774
-0.73789042	-0.00065907	3.65651298
-0.73819846	-0.00145497	3.65651226
-0.73954552	-0.00183228	3.65650916
-0.73961383	-0.00244790	3.65650892
-0.74038005	-0.00265988	3.65650725
-0.74126327	-0.00294470	3.65650511
-0.74164748	-0.00358587	3.65650439
-0.74220300	-0.00379171	3.65650296
-0.74300903	-0.00373765	3.65650129
-0.74321991	-0.00435270	3.65650082
-0.74481940	-0.00423985	3.65649700
-0.74500638	-0.00476432	3.65649652
-0.74532795	-0.00546659	3.65649581
-0.74655896	-0.00567243	3.65649295
-0.74664330	-0.00654041	3.65649295
-0.74709129	-0.00698942	3.65649176
-0.74871516	-0.00693446	3.65648818
-0.75017428	-0.00787632	3.65648484
-0.75067282	-0.00822746	3.65648365
-0.75162947	-0.00860323	3.65648150
-0.75219572	-0.00897719	3.65648007
-0.75281149	-0.00936818	3.65647864
-0.75296116	-0.00991300	3.65647840
-0.75534546	-0.01001873	3.65647292
-0.75584573	-0.01083110	3.65647173
-0.75687820	-0.01105155	3.65646935
-0.75702769	-0.01159606	3.65646911
-0.75715858	-0.01215088	3.65646863
-0.75777680	-0.01229590	3.65646720
-0.75850028	-0.01244397	3.65646553
-0.75899881	-0.01279510	3.65646458
-0.75946510	-0.01325020	3.65646338
-0.76017952	-0.01369142	3.65646172
-0.76075494	-0.01377253	3.65646052
-0.76222706	-0.01402762	3.65645719
-0.76312149	-0.01505679	3.65645504
-0.76435256	-0.01526284	3.65645218
-0.76594484	-0.01590466	3.65644860
-0.76611185	-0.01657044	3.65644813
-0.76663959	-0.01707942	3.65644693
-0.76761913	-0.01766041	3.65644479
-0.76923370	-0.01791487	3.65644097
-0.77108294	-0.01826600	3.65643668
-0.77195996	-0.01917385	3.65643477
-0.77301896	-0.01922247	3.65643239
-0.77331269	-0.02022760	3.65643167
-0.77429718	-0.02030024	3.65642929
-0.77521408	-0.02094200	3.65642715
-0.77623332	-0.02125670	3.65642500
-0.94541150	0.00595897	3.65603781
-0.94754487	0.00679443	3.65603304
-0.94768703	0.00738763	3.65603280
-0.94917989	0.00798084	3.65602922
-0.95032370	0.00838061	3.65602660
-0.95190156	0.00942191	3.65602303
-0.95289087	0.00985786	3.65602088
-0.95549786	0.01160123	3.65601492
-0.95598388	0.01187973	3.65601373
-0.95711040	0.01240056	3.65601110
-0.95738971	0.01307852	3.65601063
-0.95886517	0.01379300	3.65600729
-0.95995688	0.01455586	3.65600467
-0.96009892	0.01514933	3.65600443
-0.96073961	0.01539131	3.65600300
-0.96184856	0.01603338	3.65600038
-0.96199071	0.01662656	3.65600014
-0.96228743	0.01718357	3.65599942
-0.96329421	0.01749820	3.65599704
-0.96423143	0.01829752	3.65599489
-0.96479738	0.01851584	3.65599370
-0.96634030	0.01979944	3.65599012
-0.96663159	0.02044062	3.65598941
-0.96737450	0.02100983	3.65598774
-0.96795791	0.02110709	3.65598655
-0.96848369	0.02165167	3.65598536
-0.96855116	0.02222106	3.65598512
-0.97032315	0.02349253	3.65598106
-0.97157651	0.02367374	3.65597820
-0.97218233	0.02415805	3.65597677
-0.97266835	0.02443658	3.65597582
-0.97271848	0.02512703	3.65597558
-0.97500634	0.02592633	3.65597034
-0.97597831	0.02648332	3.65596819
-0.97695035	0.02704031	3.65596604
-0.97752839	0.02722152	3.65596461
-0.97918099	0.02769462	3.65596080
-0.97939765	0.02831172	3.65596032
-0.97995836	0.02861396	3.65595913
-0.98157090	0.02941329	3.65595531
-0.98236585	0.02961941	3.65595365
-0.98332763	0.02975199	3.65595126
-0.98397356	0.02991011	3.65594983
-0.98420757	0.03040621	3.65594935
-0.98548883	0.03089058	3.65594649
-0.98643827	0.03106054	3.65594435
-0.98672968	0.03170145	3.65594363
-0.98758727	0.03196843	3.65594172
-0.98805600	0.03236793	3.65594053
-0.98863930	0.03246522	3.65593934
-0.98917037	0.03292578	3.65593815
-0.98955911	0.03338551	3.65593719
-0.99037659	0.03397866	3.65593529
-0.99144584	0.03435447	3.65593290
-0.99179971	0.03505641	3.65593195
-0.99225086	0.03557724	3.65593100
-0.99337745	0.03609807	3.65592837
-0.99394840	0.03682469	3.65592718
-0.99460638	0.03694569	3.65592575
-0.99587506	0.03805970	3.65592265
-0.99643558	0.03836221	3.65592146
-0.99783146	0.03854432	3.65591836
-0.99797857	0.03964581	3.65591788
-0.99846458	0.03992433	3.65591693
-1.00025165	0.04021988	3.65591264
-1.00037372	0.04128056	3.65591240
-1.00180948	0.04172875	3.65590930
-1.00191402	0.04230191	3.65590906
-1.00263953	0.04299239	3.65590739
-1.00278175	0.04358551	3.65590692
-1.00337505	0.04469950	3.65590572
-1.00430715	0.04499047	3.65590358
-1.00474095	0.04563221	3.65590262
-1.00492287	0.04649170	3.65590215
-1.00554597	0.04685504	3.65590072
-1.00679731	0.04809002	3.65589786
-1.00761485	0.04868323	3.65589595
-1.00830042	0.04910763	3.65589452
-1.00891817	0.04955519	3.65589309
-1.00948906	0.05028178	3.65589166
-1.01096463	0.05099602	3.65588832
-1.01163292	0.05154146	3.65588689
-1.01238108	0.05202669	3.65588522
-1.01282692	0.05263165	3.65588403
-1.01334727	0.05326039	3.65588284
-1.01404881	0.05402480	3.65588140
-1.01470637	0.05473829	3.65587974
-1.01517487	0.05513809	3.65587878
-1.01543689	0.05593714	3.65587807
-1.01608253	0.05609552	3.65587664
-1.01607025	0.05672485	3.65587664
-1.01682520	0.05725720	3.65587497
-1.01746559	0.05749951	3.65587354
-1.01753330	0.05806869	3.65587330
-1.01796162	0.05879465	3.65587234
-1.01841271	0.05931548	3.65587139
-1.01898384	0.06004216	3.65587020
-1.01966417	0.06055046	3.65586853
-1.02036726	0.06085359	3.65586686
-1.02050936	0.06144676	3.65586662
-1.02164805	0.06193049	3.65586400
-1.02171552	0.06249994	3.65586376
-1.02249813	0.06333536	3.65586209
-1.02280009	0.06380818	3.65586138
-1.02337813	0.06398966	3.65586019
-1.02341080	0.06480118	3.65585995
-1.02442956	0.06507902	3.65585780
-1.02457178	0.06567216	3.65585732
-1.02512038	0.06601151	3.65585613
-1.02563417	0.06659311	3.65585494
-1.02608526	0.06711391	3.65585399
-1.02685761	0.06752522	3.65585208
-1.02718210	0.06838537	3.65585136
-1.02758098	0.06926947	3.65585041
-1.02921593	0.07045585	3.65584683
-1.02966714	0.07097665	3.65584588
-1.03102279	0.07148495	3.65584278
-1.03128469	0.07228424	3.65584207
-1.03191817	0.07307172	3.65584064
-1.03212786	0.07423431	3.65584016
-1.03280818	0.07474267	3.65583873
-1.03324187	0.07538477	3.65583754
-1.03431630	0.07626861	3.65583515
-1.03463531	0.07721291	3.65583444
-1.03493190	0.07776993	3.65583372
-1.03582907	0.07889542	3.65583181
-1.03644001	0.07929581	3.65583038
-1.03722286	0.08013128	3.65582848
-1.03790307	0.08063962	3.65582705
-1.03828478	0.08164478	3.65582609
-1.03983450	0.08238325	3.65582252
-1.03997135	0.08306061	3.65582228
-1.04067445	0.08336375	3.65582061
-1.04115331	0.08418771	3.65581965
-1.04181099	0.08490123	3.65581822
-1.04184902	0.08562879	3.65581799
-1.04283845	0.08606448	3.65581584
-1.04358637	0.08714224	3.65581417
-1.04577684	0.08812277	3.65580916
-1.04619324	0.08888558	3.65580821
-1.04772377	0.09079886	3.65580463
-1.04939139	0.09279694	3.65580082
-1.04965329	0.09359620	3.65580034
-1.05194616	0.09490389	3.65579510
-1.05312777	0.09662347	3.65579247
-1.05467570	0.09841543	3.65578890
-1.05627584	0.09984408	3.65578508
-1.05702376	0.10092186	3.65578341
-1.05893278	0.10227811	3.65577912
-1.06022608	0.10272539	3.65577626
-1.06056786	0.10346453	3.65577531
-1.06119609	0.10433614	3.65577388
-1.06116617	0.10508679	3.65577412
-1.06257188	0.10628561	3.65577078
-1.06485975	0.10708491	3.65576553
-1.06565976	0.10779939	3.65576386
-1.06624818	0.10840500	3.65576243
-1.06722009	0.10896195	3.65576029
-1.06918168	0.10995472	3.65575576
-1.06983960	0.11007600	3.65575433
-1.07057214	0.11022102	3.65575266
-1.07197285	0.11091143	3.65574932
-1.07377481	0.11143199	3.65574527
-1.07412875	0.11213399	3.65574455
-1.07796168	0.11316314	3.65573573
-1.07936502	0.11411598	3.65573239
-1.08072555	0.11513294	3.65572929
-1.08216619	0.11608942	3.65572619
-1.08254790	0.11709455	3.65572524
-1.08351445	0.11773571	3.65572309
-1.08423495	0.11791784	3.65572143
-1.08400345	0.11957629	3.65572190
-1.08553386	0.12148958	3.65571856
-1.08609462	0.12179179	3.65571713
-1.08692944	0.12226397	3.65571523
-1.08720160	0.12348769	3.65571475
-1.08809352	0.12410485	3.65571260
-1.08838820	0.12571563	3.65571189
-1.08996606	0.12675695	3.65570831
-1.08986163	0.12748356	3.65570855
-1.09255040	0.12811327	3.65570259
-1.09368193	0.12914240	3.65569997
-1.09419572	0.12972397	3.65569878
-1.09466445	0.13012348	3.65569758
-1.09498334	0.13106783	3.65569687
-1.09568107	0.13145518	3.65569544
-1.09666348	0.13243628	3.65569305
-1.09834361	0.13380496	3.65568924
-1.09887969	0.13477391	3.65568805
-1.10026801	0.13609377	3.65568495
-1.10079384	0.13663861	3.65568376
-1.10231936	0.13804315	3.65568018
-1.10317159	0.13839430	3.65567827
-1.10320437	0.13920584	3.65567827
-1.10416269	0.14026116	3.65567613
-1.10480452	0.14063449	3.65567446
-1.10546076	0.14121704	3.65567303
-1.10558558	0.14193119	3.65567279
-1.10616171	0.14257388	3.65567160
-1.10607469	0.14317952	3.65567160
-1.10671520	0.14342180	3.65567017
-1.10671496	0.14401411	3.65567017
-1.10722852	0.14459597	3.65566897
-1.10766208	0.14583017	3.65566802
-1.10754025	0.14667800	3.65566850
-1.10841489	0.14741616	3.65566635
-1.10915780	0.14798562	3.65566468
-1.10919046	0.14879711	3.65566468
-1.10973859	0.14972897	3.65566349
-1.11091530	0.15094019	3.65566063
-1.11105740	0.15153331	3.65566039
-1.11214912	0.15229645	3.65565801
-1.11223912	0.15325296	3.65565777
-1.11437738	0.15459682	3.65565276
-1.11501789	0.15483904	3.65565133
-1.11574852	0.15603782	3.65564966
-1.11689222	0.15643770	3.65564704
-1.11760759	0.15670371	3.65564537
-1.11748564	0.15755166	3.65564585
-1.11821103	0.15824215	3.65564418
-1.11858249	0.15882285	3.65564322
-1.11920559	0.15918609	3.65564179
