//X	Y	Z
-0.56832999	-0.04294914	2.18154335
-0.57056874	-0.05159391	2.18154240
-0.56750923	-0.05606252	2.18154216
-0.47382680	-0.17962167	2.18153477
-0.44761008	-0.21773914	2.18153238
-0.44758880	-0.21837699	2.18153238
-0.44659048	-0.22026867	2.18153214
-0.44635236	-0.22357674	2.18153191
-0.44670251	-0.22404447	2.18153191
-0.44665542	-0.22459477	2.18153191
-0.44607279	-0.22632237	2.18153167
-0.44619155	-0.22714731	2.18153167
-0.44579485	-0.23034969	2.18153143
-0.44493207	-0.23170309	2.18153119
-0.44535115	-0.23410249	2.18153095
-0.44409567	-0.23626384	2.18153095
-0.44367710	-0.23698425	2.18153071
-0.44221583	-0.23959021	2.18153071
-0.43934065	-0.24425197	2.18153024
-0.43936360	-0.24489582	2.18153024
-0.43513995	-0.25098151	2.18153000
-0.42277563	-0.26786199	2.18152881
-0.42013010	-0.27088472	2.18152881
-0.40533826	-0.28627968	2.18152785
-0.40253422	-0.28919685	2.18152785
-0.40023714	-0.29140568	2.18152761
-0.39471868	-0.29541400	2.18152738
-0.28002441	-0.37368983	2.18152475
-0.27538714	-0.37626326	2.18152475
-0.20623027	-0.41041341	2.18152404
-0.20548737	-0.41075364	2.18152404
-0.20159587	-0.41243055	2.18152404
-0.16433293	-0.42581072	2.18152428
-0.07787838	-0.44923759	2.18152523
-0.05182001	-0.44807976	2.18152618
-0.02063102	-0.43622437	2.18152833
-0.00907753	-0.43032601	2.18152928
-0.00479391	-0.42785293	2.18152952
-0.00451376	-0.42747873	2.18152976
0.00101412	-0.41686374	2.18153071
0.00260634	-0.41265565	2.18153119
0.00359846	-0.40847665	2.18153167
0.05838771	-0.24546976	2.18154764
0.05968521	-0.24394885	2.18154788
0.06026112	-0.24272558	2.18154788
0.06095871	-0.24123369	2.18154812
0.06118721	-0.24103457	2.18154812
0.06137164	-0.24084134	2.18154812
0.06197321	-0.23953064	2.18154836
0.06246070	-0.23831937	2.18154836
0.06306063	-0.23829035	2.18154836
0.06377661	-0.23688000	2.18154860
0.06403104	-0.23659323	2.18154860
0.06486585	-0.23435791	2.18154883
0.06509428	-0.23415878	2.18154883
0.06551456	-0.23359752	2.18154883
0.06599747	-0.23311162	2.18154907
0.06697230	-0.23068923	2.18154931
0.06983121	-0.22081506	2.18155026
0.07163124	-0.21265021	2.18155098
0.07144350	-0.20732902	2.18155146
0.07097684	-0.20422009	2.18155169
0.07069560	-0.20275614	2.18155169
0.07037292	-0.20185466	2.18155193
0.06951180	-0.19921958	2.18155217
0.06885896	-0.19758563	2.18155217
0.06798051	-0.19670713	2.18155217
0.06728363	-0.19507910	2.18155241
0.06665666	-0.19335766	2.18155241
0.06621683	-0.19199938	2.18155265
0.06572546	-0.19081609	2.18155265
0.06454453	-0.18783584	2.18155289
0.06359316	-0.18649453	2.18155289
0.06287320	-0.18551047	2.18155313
0.06175774	-0.18316205	2.18155313
0.01001146	-0.01834501	2.18156576
0.01001036	-0.01650688	2.18156576
0.00979915	-0.01494938	2.18156600
0.00979628	-0.01439309	2.18156600
0.00963660	-0.01266065	2.18156624
0.00956380	-0.01219775	2.18156624
0.00935535	-0.01119670	2.18156624
0.00912289	-0.00900137	2.18156648
0.00832899	-0.00571629	2.18156672
0.00837775	-0.00498489	2.18156672
0.00860623	-0.00478581	2.18156672
0.00574891	0.00475238	2.18156743
0.00268830	0.01105912	2.18156791
-0.00016563	0.01508301	2.18156815
-0.00288124	0.01801223	2.18156838
-0.01210525	0.02517229	2.18156862
-0.01767248	0.02844925	2.18156886
-0.02418540	0.03195475	2.18156886
-0.03839000	0.03826974	2.18156886
-0.04152015	0.03952491	2.18156886
-0.04506315	0.04038785	2.18156886
-0.20290926	0.06071723	2.18156505
-0.21284303	0.06039624	2.18156481
-0.23582394	0.05964629	2.18156385
-0.23862857	0.05944364	2.18156362
-0.24495205	0.05890968	2.18156338
-0.25442314	0.05787426	2.18156314
-0.25655484	0.05723790	2.18156290
-0.25810504	0.05671201	2.18156290
-0.25928667	0.05657236	2.18156266
-0.26046818	0.05643281	2.18156266
-0.26194838	0.05600049	2.18156266
-0.26264414	0.05579039	2.18156266
-0.26496309	0.05551718	2.18156242
-0.26537597	0.05512485	2.18156242
-0.26769483	0.05485167	2.18156242
-0.27480274	0.05409548	2.18156195
-0.27589583	0.05396795	2.18156195
-0.27740169	0.05344822	2.18156195
-0.28265798	0.05295426	2.18156171
-0.28620276	0.05253536	2.18156147
-0.28661564	0.05214304	2.18156147
-0.28791595	0.05117857	2.18156123
-0.28814453	0.05097932	2.18156123
-0.28884035	0.05076923	2.18156123
-0.29029924	0.04969906	2.18156099
-0.29205954	0.04889257	2.18156099
-0.29293686	0.04793294	2.18156075
-0.29337558	0.04745307	2.18156075
-0.29506582	0.04674008	2.18156075
-0.29615891	0.04661258	2.18156052
-0.29678190	0.04593960	2.18156052
-0.29828775	0.04541988	2.18156052
-0.30113673	0.04521110	2.18156028
-0.30122969	0.04447370	2.18156028
-0.30175853	0.04270012	2.18156004
-0.30201003	0.04185703	2.18156004
-0.30270585	0.04164693	2.18156004
-0.30372614	0.04105653	2.18155980
-0.30444211	0.03964615	2.18155980
-0.30590096	0.03857599	2.18155956
-0.30650103	0.03854688	2.18155956
-0.30770549	0.03776348	2.18155932
-0.30824009	0.03710252	2.18155932
-0.30891007	0.03697995	2.18155932
-0.30997735	0.03693998	2.18155932
-0.31055334	0.03571658	2.18155909
-0.31064633	0.03497919	2.18155909
-0.31226933	0.03491620	2.18155909
-0.31236240	0.03417869	2.18155885
-0.31296232	0.03414967	2.18155885
-0.31435406	0.03372938	2.18155885
-0.31495127	0.03314394	2.18155885
-0.31585717	0.03265320	2.18155861
-0.31699169	0.03196325	2.18155861
-0.31763762	0.03064641	2.18155837
-0.32000077	0.03036721	2.18155837
-0.32095098	0.02987036	2.18155837
-0.32134539	0.02939662	2.18155813
-0.32197118	0.02928005	2.18155813
-0.32289559	0.02887073	2.18155813
-0.32414711	0.02863765	2.18155813
-0.32453877	0.02760747	2.18155789
-0.32641613	0.02725773	2.18155789
-0.32671481	0.02696494	2.18155789
-0.32856643	0.02670272	2.18155766
-0.32912216	0.02667973	2.18155766
-0.33081245	0.02596677	2.18155766
-0.33139399	0.02585623	2.18155766
-0.33183262	0.02537648	2.18155742
-0.33375433	0.02502059	2.18155742
-0.33597741	0.02492848	2.18155742
-0.33644181	0.02436120	2.18155718
-0.33836344	0.02400544	2.18155718
-0.51037258	0.03308162	2.18155193
-0.52622539	0.01615754	2.18155003
