//X	Y	Z
-1.23013377	-0.75014436	3.02071023
-1.22473121	-0.75693417	3.02070975
-1.18933666	-0.79672492	3.02070665
-1.16679251	-0.82052070	3.02070451
-1.16265500	-0.82232529	3.02070451
-1.15841031	-0.82636231	3.02070403
-1.15742135	-0.82609719	3.02070403
-1.15451550	-0.82873493	3.02070379
-1.14850819	-0.83224970	3.02070355
-1.13989758	-0.83793044	3.02070284
-1.13356066	-0.84135687	3.02070260
-1.13238335	-0.84164381	3.02070260
-1.13060081	-0.84287435	3.02070236
-1.12759364	-0.84558451	3.02070212
-1.12644315	-0.84643167	3.02070212
-1.12591207	-0.84674257	3.02070212
-1.12466037	-0.84766209	3.02070189
-1.11886883	-0.85118484	3.02070165
-1.11568034	-0.85254157	3.02070141
-1.11152995	-0.85419327	3.02070117
-1.10782337	-0.85601366	3.02070093
-1.10634351	-0.85677248	3.02070093
-1.10430539	-0.85728204	3.02070093
-1.10061169	-0.85925531	3.02070069
-1.09690547	-0.86107588	3.02070045
-1.09459162	-0.86261725	3.02070022
-1.09374392	-0.86299264	3.02070022
-1.09193420	-0.86366302	3.02070022
-1.08555019	-0.86828208	3.02069974
-1.08335054	-0.86990386	3.02069950
-1.07931447	-0.87163603	3.02069926
-1.07419491	-0.87548828	3.02069902
-1.06283987	-0.88269460	3.02069831
-1.05976570	-0.88413167	3.02069807
-1.05192840	-0.89006960	3.02069759
-0.92457795	-1.00543571	3.02068758
-0.92440939	-1.00845361	3.02068734
-0.92186570	-1.01379848	3.02068710
-0.92163002	-1.01554322	3.02068686
-0.92087626	-1.01775181	3.02068686
-0.91938895	-1.02041626	3.02068663
-0.91948289	-1.02224934	3.02068639
-0.91560048	-1.02899349	3.02068591
-0.91489398	-1.03000939	3.02068591
-0.91409290	-1.03341055	3.02068567
-0.91140813	-1.03811491	3.02068543
-0.91017044	-1.03944170	3.02068520
-0.90976655	-1.03998590	3.02068520
-0.90957814	-1.04053807	3.02068520
-0.90704167	-1.04397702	3.02068496
-0.90663797	-1.04452133	3.02068496
-0.90247953	-1.05229712	3.02068448
-0.89646471	-1.06193614	3.02068377
-0.89516580	-1.06404829	3.02068353
-0.89410943	-1.06672871	3.02068329
-0.89272326	-1.06932068	3.02068329
-0.89301890	-1.07075465	3.02068305
-0.89241350	-1.07169807	3.02068305
-0.88937861	-1.07806671	3.02068257
-0.88857090	-1.07915509	3.02068257
-0.88688219	-1.08221889	3.02068233
-0.88438582	-1.08637083	3.02068210
-0.88318831	-1.08841062	3.02068186
-0.88076615	-1.09193027	3.02068162
-0.87942719	-1.09332943	3.02068138
-0.87543046	-1.09999311	3.02068090
-0.87430716	-1.10140038	3.02068090
-0.87202621	-1.10556042	3.02068067
-0.86338800	-1.11489964	3.02067995
-0.85688239	-1.12134385	3.02067924
-0.85339707	-1.12523079	3.02067900
-0.84899086	-1.13038015	3.02067852
-0.84788048	-1.13194013	3.02067852
-0.84638017	-1.13445175	3.02067828
-0.84475178	-1.13647568	3.02067804
-0.83834743	-1.14284754	3.02067757
-0.83162630	-1.14928389	3.02067709
-0.82070768	-1.15856445	3.02067614
-0.81134343	-1.16645384	3.02067566
-0.79778141	-1.17718756	3.02067447
-0.78170323	-1.18960762	3.02067351
-0.77449846	-1.19516206	3.02067280
-0.75235403	-1.20369959	3.02067184
-0.73302829	-1.21007907	3.02067089
-0.72826600	-1.21036124	3.02067065
-0.72371894	-1.21065152	3.02067065
-0.71725535	-1.20962608	3.02067041
-0.71605116	-1.20935297	3.02067041
-0.71350235	-1.20842075	3.02067041
-0.67526507	-1.20210981	3.02066970
-0.50957477	-1.18641055	3.02066565
-0.50052756	-1.19001675	3.02066517
-0.49649143	-1.19174898	3.02066493
-0.49256951	-1.19356143	3.02066469
-0.48804224	-1.19631743	3.02066445
-0.48482692	-1.19711399	3.02066445
-0.48475266	-1.19774652	3.02066445
-0.48128855	-1.20013523	3.02066422
-0.46892464	-1.20461047	3.02066350
-0.46763319	-1.20481706	3.02066350
-0.45643955	-1.21091115	3.02066278
-0.45202643	-1.21374750	3.02066255
-0.43726745	-1.22230244	3.02066159
-0.43696481	-1.22277427	3.02066159
-0.43058783	-1.22548759	3.02066135
-0.42933643	-1.22640717	3.02066112
-0.42762804	-1.22700512	3.02066112
-0.41960290	-1.22927642	3.02066064
-0.41626045	-1.22983980	3.02066064
-0.41315922	-1.23071694	3.02066040
-0.40863916	-1.23156714	3.02066040
-0.40002182	-1.23493516	3.02065992
-0.39559582	-1.23761845	3.02065969
-0.37350646	-1.23883915	3.02065897
-0.36220631	-1.23872864	3.02065849
-0.31482077	-1.23609662	3.02065730
-0.30412036	-1.23298395	3.02065730
-0.30092520	-1.23202777	3.02065706
-0.28492454	-1.22719538	3.02065706
-0.23580870	-1.19979858	3.02065706
-0.23192164	-1.19604707	3.02065706
-0.22792757	-1.19030941	3.02065730
-0.22316781	-1.17819023	3.02065778
-0.22226098	-1.17116857	3.02065825
-0.22229522	-1.16982293	3.02065825
-0.22220132	-1.16798973	3.02065825
-0.22208768	-1.16369104	3.02065849
-0.22310403	-1.16029739	3.02065873
-0.22525635	-1.15986836	3.02065897
-0.22516966	-1.15612948	3.02065897
-0.22693935	-1.15474617	3.02065921
-0.22769314	-1.15253758	3.02065945
-0.23008820	-1.14845800	3.02065969
-0.23084193	-1.14624941	3.02065969
-0.23352736	-1.13732648	3.02066040
-0.23402578	-1.13439703	3.02066040
-0.23604417	-1.13142169	3.02066064
-0.23716190	-1.12795603	3.02066088
-0.23755896	-1.12509882	3.02066112
-0.23745264	-1.11889422	3.02066135
-0.23851563	-1.11852682	3.02066159
-0.23978083	-1.11354160	3.02066183
-0.24114655	-1.11270237	3.02066183
-0.24241842	-1.11002994	3.02066207
-0.24328652	-1.10790181	3.02066231
-0.24480127	-1.10157895	3.02066255
-0.24571121	-1.09198093	3.02066326
-0.24780388	-1.08837318	3.02066350
-0.24765010	-1.08336115	3.02066374
-0.24927194	-1.07902431	3.02066398
-0.25010723	-1.07427764	3.02066422
-0.25115639	-1.07350278	3.02066422
-0.25123045	-1.07287025	3.02066445
-0.25231388	-1.07075000	3.02066445
-0.25372684	-1.06871819	3.02066469
-0.25470918	-1.06667054	3.02066469
-0.25567830	-1.06446981	3.02066493
-0.25617659	-1.06154025	3.02066517
-0.25614977	-1.06098032	3.02066517
-0.25664800	-1.05805063	3.02066541
-0.25814831	-1.05553913	3.02066541
-0.25967565	-1.05358768	3.02066565
-0.26381338	-1.04756451	3.02066612
-0.26501113	-1.04552472	3.02066612
-0.27202699	-1.04474092	3.02066636
-0.27418637	-1.04240608	3.02066660
-0.27641302	-1.04134440	3.02066684
-0.28178051	-1.04011858	3.02066708
-0.28418308	-1.03413332	3.02066731
-0.28596574	-1.03290284	3.02066755
-0.28876436	-1.03249764	3.02066755
-0.29190540	-1.03233361	3.02066779
-0.29697055	-1.03157961	3.02066779
-0.30136901	-1.03255463	3.02066803
-0.31246093	-1.03075147	3.02066851
-0.31927389	-1.03433120	3.02066851
-0.32550177	-1.03710151	3.02066851
-0.42086112	-0.89354515	3.02067900
-0.41845402	-0.88903475	3.02067924
-0.41721705	-0.88614309	3.02067924
-0.41180983	-0.88243729	3.02067924
-0.40189785	-0.87155199	3.02067971
-0.39833301	-0.86979437	3.02067971
-0.38501722	-0.86025780	3.02067971
-0.37710118	-0.85633272	3.02067971
-0.37336254	-0.85131598	3.02067995
-0.37116355	-0.84871924	3.02067995
-0.37081426	-0.84616512	3.02068019
-0.36279908	-0.83412969	3.02068043
-0.35787594	-0.83130574	3.02068043
-0.35769463	-0.82995218	3.02068067
-0.35464269	-0.82145381	3.02068090
-0.34871763	-0.81821173	3.02068090
-0.34773600	-0.81604105	3.02068114
-0.34039986	-0.80664819	3.02068138
-0.33754161	-0.80387461	3.02068138
-0.33133397	-0.79935157	3.02068138
-0.32930318	-0.79795539	3.02068162
-0.32225525	-0.79190218	3.02068162
-0.31806543	-0.78862232	3.02068162
-0.31799853	-0.78734928	3.02068186
-0.31727219	-0.78589940	3.02068186
-0.31388283	-0.78343678	3.02068186
-0.31206086	-0.77973586	3.02068210
-0.30712450	-0.77675891	3.02068210
-0.30559790	-0.77449185	3.02068210
-0.30421972	-0.77095962	3.02068233
-0.30255836	-0.77036482	3.02068233
-0.29694313	-0.76474535	3.02068233
-0.29335290	-0.75846356	3.02068257
-0.29093850	-0.75585890	3.02068257
-0.28820127	-0.75547868	3.02068257
-0.28220969	-0.74674511	3.02068281
-0.27819586	-0.73854160	3.02068329
-0.27798778	-0.73662806	3.02068329
-0.27476758	-0.72692901	3.02068377
-0.27203766	-0.72464323	3.02068377
-0.26973751	-0.72211897	3.02068400
-0.26740444	-0.71697599	3.02068400
-0.26681951	-0.71616673	3.02068424
-0.26583785	-0.71399593	3.02068424
-0.26499739	-0.71246564	3.02068424
-0.26400262	-0.71014202	3.02068448
-0.26372769	-0.70695531	3.02068448
-0.26302177	-0.70375276	3.02068472
-0.26085699	-0.69981050	3.02068496
-0.26038617	-0.69908154	3.02068496
-0.25754231	-0.69249678	3.02068520
-0.25629807	-0.69151068	3.02068520
-0.25487983	-0.68726546	3.02068543
-0.25303081	-0.68300438	3.02068543
-0.25217795	-0.67710268	3.02068591
-0.25171429	-0.67446810	3.02068591
-0.25114959	-0.67190611	3.02068615
-0.24763887	-0.67126870	3.02068591
-0.24584371	-0.66812778	3.02068615
-0.24172342	-0.65371978	3.02068686
-0.24094532	-0.64296699	3.02068734
-0.24003851	-0.63594514	3.02068782
-0.23913833	-0.63123614	3.02068782
-0.23826361	-0.63105142	3.02068782
-0.23768587	-0.62833643	3.02068806
-0.23464653	-0.62420952	3.02068830
-0.23311397	-0.61988384	3.02068830
-0.23186971	-0.61889774	3.02068830
-0.23111653	-0.61688781	3.02068853
-0.22909299	-0.61358607	3.02068853
-0.22797012	-0.61077482	3.02068877
-0.22750650	-0.60814023	3.02068877
-0.22718410	-0.60614622	3.02068901
-0.22632396	-0.60215020	3.02068925
-0.22456950	-0.59550369	3.02068949
-0.22429428	-0.59231699	3.02068973
-0.22303712	-0.59117812	3.02068973
-0.22276193	-0.58799136	3.02068973
-0.22070405	-0.58603519	3.02068996
-0.21984388	-0.58203918	3.02068996
-0.21853262	-0.57977998	3.02069020
-0.21228161	-0.52453160	3.02069283
-0.21165659	-0.52300936	3.02069306
-0.21129999	-0.52236086	3.02069306
-0.21100453	-0.52092689	3.02069306
-0.20855021	-0.51760924	3.02069330
-0.20697634	-0.51653492	3.02069330
-0.20580620	-0.51491624	3.02069330
-0.20432830	-0.50749230	3.02069354
-0.20320600	-0.50046247	3.02069402
-0.20225917	-0.49272758	3.02069426
-0.20098212	-0.48912290	3.02069449
-0.19990653	-0.48511890	3.02069473
-0.19864967	-0.47976142	3.02069497
-0.19727816	-0.47854206	3.02069497
-0.19653954	-0.47272083	3.02069521
-0.19305624	-0.46842507	3.02069545
-0.19260566	-0.46594337	3.02069545
-0.19119482	-0.45979255	3.02069592
-0.19033445	-0.45579645	3.02069592
-0.18972254	-0.45442706	3.02069616
-0.18954146	-0.45307362	3.02069616
-0.18907060	-0.45234469	3.02069616
-0.18863389	-0.45027021	3.02069616
-0.18639557	-0.44274196	3.02069664
-0.18585262	-0.43446299	3.02069712
-0.18485172	-0.42560780	3.02069759
-0.18287534	-0.42111337	3.02069759
-0.18256615	-0.41927224	3.02069783
-0.18253335	-0.41665360	3.02069783
-0.17808798	-0.34602076	3.02070165
-0.16909081	-0.23410280	3.02070737
-0.16765800	-0.23366891	3.02070737
-0.16621298	-0.22886361	3.02070761
-0.16422936	-0.22627483	3.02070761
-0.16347094	-0.21798776	3.02070808
-0.16185759	-0.21198188	3.02070832
-0.16004273	-0.20637517	3.02070856
-0.15915500	-0.20603755	3.02070856
-0.15850309	-0.20395523	3.02070880
-0.15770984	-0.20123230	3.02070880
-0.15522316	-0.19107743	3.02070928
-0.15144514	-0.18112917	3.02070975
-0.14996582	-0.17766945	3.02070999
-0.14873134	-0.16237642	3.02071071
-0.14754422	-0.14589077	3.02071166
-0.16001460	-0.04568976	3.02071738
-0.16234282	-0.04033703	3.02071762
-0.16983779	-0.02993929	3.02071857
-0.18343410	-0.01786020	3.02071953
-0.18683076	-0.01841703	3.02071953
-0.19575581	-0.02085456	3.02071977
-0.19866139	-0.02243534	3.02071977
-0.19903086	-0.02323669	3.02071977
-0.20155951	-0.02592176	3.02071977
-0.20270258	-0.02698025	3.02071953
-0.20371850	-0.02780554	3.02071953
-0.20523122	-0.02966535	3.02071953
-0.20443743	-0.03116101	3.02071953
-0.20951496	-0.03477842	3.02071953
-0.21098775	-0.03592536	3.02071929
-0.21132971	-0.04038507	3.02071905
-0.21147089	-0.04102561	3.02071905
-0.21522221	-0.05041379	3.02071881
-0.21575993	-0.05241576	3.02071857
-0.21653266	-0.05689138	3.02071834
-0.21800566	-0.05803835	3.02071834
-0.21795093	-0.06113660	3.02071834
-0.21718998	-0.06525090	3.02071810
-0.21854855	-0.06631744	3.02071786
-0.21760631	-0.06907812	3.02071786
-0.21833251	-0.07052800	3.02071762
-0.21847360	-0.07116845	3.02071762
-0.21916576	-0.07396391	3.02071762
-0.21941330	-0.08080900	3.02071714
-0.21973576	-0.08280307	3.02071714
-0.21996365	-0.08718243	3.02071691
-0.22003052	-0.08845547	3.02071691
-0.22177775	-0.09700760	3.02071643
-0.22165641	-0.09883291	3.02071619
-0.22318879	-0.10315847	3.02071619
-0.22486921	-0.11043751	3.02071571
-0.22671100	-0.11660430	3.02071548
-0.22786653	-0.12203431	3.02071524
-0.22849819	-0.12586942	3.02071500
-0.22865254	-0.12666291	3.02071500
-0.23007797	-0.12900242	3.02071500
-0.22942528	-0.13113850	3.02071476
-0.22913584	-0.13176319	3.02071476
-0.22918965	-0.13288340	3.02071476
-0.22937088	-0.13423687	3.02071452
-0.22957171	-0.13805616	3.02071428
-0.22922187	-0.13972056	3.02071428
-0.22711489	-0.14713979	3.02071381
-0.22795528	-0.14867005	3.02071381
-0.22678460	-0.15126994	3.02071357
-0.22629337	-0.15229374	3.02071357
-0.22665580	-0.15500078	3.02071333
-0.22775167	-0.15725195	3.02071333
-0.22765720	-0.15963736	3.02071309
-0.22814055	-0.16473770	3.02071285
-0.22867830	-0.16673970	3.02071285
-0.22874525	-0.16801268	3.02071285
-0.23121214	-0.17570180	3.02071238
-0.23422395	-0.18348721	3.02071214
-0.23466061	-0.18556169	3.02071190
-0.23728310	-0.19008002	3.02071190
-0.23732311	-0.19079292	3.02071166
-0.23753120	-0.19270656	3.02071166
-0.23725565	-0.19373852	3.02071166
-0.23766521	-0.19525278	3.02071142
-0.23786026	-0.19701347	3.02071142
-0.23946689	-0.20070651	3.02071118
-0.24165154	-0.20711464	3.02071095
-0.24268712	-0.21040556	3.02071095
-0.24300936	-0.21239951	3.02071071
-0.24284078	-0.21541755	3.02071047
-0.24383539	-0.21774124	3.02071047
-0.24503234	-0.21991991	3.02071047
-0.24837391	-0.22779369	3.02070999
-0.24855514	-0.22914721	3.02070999
-0.24983218	-0.23275191	3.02070975
-0.25051829	-0.23348869	3.02070975
-0.25336218	-0.24007358	3.02070951
-0.25422952	-0.24216391	3.02070951
-0.25393993	-0.24278849	3.02070951
-0.25539240	-0.24568823	3.02070928
-0.25710022	-0.24930881	3.02070928
-0.25695178	-0.25057390	3.02070904
-0.25746262	-0.25201586	3.02070904
-0.25987697	-0.25462049	3.02070904
-0.26090592	-0.25559857	3.02070904
-0.26261371	-0.25921917	3.02070880
-0.26316449	-0.26137406	3.02070880
-0.26772335	-0.26967376	3.02070832
-0.26776347	-0.27038682	3.02070832
-0.26867795	-0.27128440	3.02070832
-0.27050018	-0.27498549	3.02070808
-0.27220798	-0.27860609	3.02070808
-0.27444687	-0.28191575	3.02070785
-0.27531439	-0.28400618	3.02070785
-0.27662572	-0.28626531	3.02070761
-0.27655143	-0.28689787	3.02070761
-0.27914694	-0.29085606	3.02070761
-0.28021592	-0.29254711	3.02070761
-0.28554088	-0.30300969	3.02070713
-0.28771964	-0.30735922	3.02070689
-0.29152521	-0.31364897	3.02070665
-0.29367700	-0.31743842	3.02070642
-0.29371700	-0.31815141	3.02070642
-0.29505515	-0.32097062	3.02070642
-0.29520938	-0.32176402	3.02070642
-0.29640651	-0.32394272	3.02070618
-0.29972824	-0.32935080	3.02070618
-0.29953977	-0.32990292	3.02070594
-0.30096525	-0.33224243	3.02070594
-0.30159044	-0.33376485	3.02070594
-0.30450100	-0.34162268	3.02070546
-0.30616903	-0.34453034	3.02070546
-0.30656552	-0.34589177	3.02070546
-0.30798376	-0.35013703	3.02070522
-0.30852145	-0.35213894	3.02070498
-0.30969158	-0.35375756	3.02070498
-0.31017542	-0.35463935	3.02070498
-0.31152672	-0.35761154	3.02070498
-0.31666335	-0.36862618	3.02070451
-0.31940019	-0.37322497	3.02070427
-0.32061028	-0.37555653	3.02070427
-0.32180730	-0.37773529	3.02070403
-0.32451695	-0.38177386	3.02070403
-0.32563981	-0.38458520	3.02070379
-0.33158931	-0.40078855	3.02070308
-0.33162940	-0.40150154	3.02070308
-0.33122545	-0.40204573	3.02070308
-0.33157492	-0.40459988	3.02070284
-0.33211261	-0.40660185	3.02070284
-0.33229387	-0.40795535	3.02070284
-0.33269036	-0.40931684	3.02070260
-0.33411539	-0.41587496	3.02070236
-0.33621258	-0.42276263	3.02070212
-0.33737546	-0.42628694	3.02070189
-0.33767089	-0.42772087	3.02070189
-0.33871937	-0.43116477	3.02070165
-0.33972076	-0.43580124	3.02070141
-0.34196645	-0.44142386	3.02070117
-0.34286663	-0.44613284	3.02070093
-0.34329021	-0.44805443	3.02070093
-0.34496373	-0.45302054	3.02070069
-0.34816411	-0.46025389	3.02070045
-0.35328105	-0.46880281	3.02069998
-0.35675701	-0.47500423	3.02069974
-0.35722783	-0.47573304	3.02069974
-0.36171246	-0.48466539	3.02069950
-0.36152402	-0.48521754	3.02069950
-0.36367580	-0.48900697	3.02069926
-0.36440191	-0.49045676	3.02069926
-0.36612299	-0.49423033	3.02069902
-0.36626416	-0.49487084	3.02069902
-0.37902641	-0.51465380	3.02069831
-0.38755250	-0.52813107	3.02069783
-0.38864830	-0.53038222	3.02069783
-0.38937443	-0.53183204	3.02069759
-0.39220515	-0.53826398	3.02069736
-0.39366338	-0.54322219	3.02069712
-0.39460507	-0.54468000	3.02069712
-0.39550522	-0.54938900	3.02069688
-0.39650655	-0.55402553	3.02069664
-0.40081009	-0.56160438	3.02069640
-0.50033784	-0.69331890	3.02069211
-0.50170362	-0.69247973	3.02069235
-0.50498599	-0.69295621	3.02069235
-0.50735372	-0.69253510	3.02069235
-0.51027954	-0.69236314	3.02069259
-0.51307797	-0.69195777	3.02069259
-0.51666290	-0.69196254	3.02069259
-0.51796752	-0.69190884	3.02069283
-0.51942730	-0.69290286	3.02069283
-0.52145803	-0.69429892	3.02069283
-0.52673131	-0.69545859	3.02069283
-0.52872205	-0.69614172	3.02069283
-0.53123093	-0.69636106	3.02069283
-0.53595901	-0.69742429	3.02069306
-0.53694791	-0.69768941	3.02069306
-0.53872335	-0.69836462	3.02069306
-0.54114497	-0.69906366	3.02069306
-0.54170305	-0.69931281	3.02069306
-0.54322296	-0.69926703	3.02069306
-0.54587317	-0.70012695	3.02069306
-0.54760844	-0.70008910	3.02069306
-0.55030590	-0.69975626	3.02069330
-0.55086392	-0.70000547	3.02069330
-0.55367541	-0.69975311	3.02069330
-0.55633271	-0.69870728	3.02069354
-0.55844510	-0.69756514	3.02069354
-0.56231302	-0.69463241	3.02069378
-0.56639647	-0.69170773	3.02069426
-0.56766105	-0.69094098	3.02069426
-0.57043242	-0.68997556	3.02069449
-0.57106489	-0.68959224	3.02069449
-0.57531637	-0.68786806	3.02069473
-0.57629138	-0.68772596	3.02069473
-0.57787246	-0.68689466	3.02069473
-0.57950681	-0.68692935	3.02069473
-0.58024013	-0.68647349	3.02069473
-0.58331448	-0.68503648	3.02069497
-0.58621317	-0.68430436	3.02069521
-0.58779448	-0.68347317	3.02069521
-0.59016216	-0.68305200	3.02069521
-0.59083432	-0.68338162	3.02069521
-0.59550273	-0.68126607	3.02069569
-0.59723824	-0.68122828	3.02069569
-0.60042650	-0.67987156	3.02069569
-0.60116005	-0.67941576	3.02069592
-0.60342658	-0.67906702	3.02069592
-0.60823625	-0.67759210	3.02069616
-0.61081934	-0.67717892	3.02069616
-0.61455268	-0.67591852	3.02069640
-0.61722314	-0.67502558	3.02069664
-0.61937541	-0.67459643	3.02069664
-0.62207282	-0.67426372	3.02069664
-0.62711072	-0.67294955	3.02069688
-0.62950546	-0.67308843	3.02069712
-0.63225001	-0.67156303	3.02069712
-0.63368279	-0.67199689	3.02069712
-0.63593638	-0.67149532	3.02069736
-0.64097422	-0.67018116	3.02069759
-0.64404851	-0.66874409	3.02069759
-0.64779496	-0.66763657	3.02069783
-0.65131313	-0.66636831	3.02069807
-0.65282005	-0.66616964	3.02069807
-0.65645236	-0.66498172	3.02069831
-0.65804642	-0.66430336	3.02069831
-0.66145039	-0.66295463	3.02069855
-0.66348839	-0.66244513	3.02069855
-0.66445023	-0.66215003	3.02069855
-0.66618574	-0.66211224	3.02069879
-0.67099535	-0.66063726	3.02069879
-0.67284489	-0.66067994	3.02069902
-0.67758042	-0.65983760	3.02069902
-0.68290806	-0.65789884	3.02069950
-0.68691725	-0.65560663	3.02069974
-0.69161248	-0.65405124	3.02069974
-0.69617975	-0.65200830	3.02069998
-0.70158172	-0.64943695	3.02070045
-0.70436627	-0.64862454	3.02070045
-0.70639127	-0.64796203	3.02070069
-0.70851666	-0.64697289	3.02070069
-0.71087128	-0.64639884	3.02070093
-0.71246558	-0.64572042	3.02070093
-0.71569395	-0.64507669	3.02070093
-0.71895653	-0.64308739	3.02070117
-0.72079307	-0.64297712	3.02070141
-0.72213203	-0.64157790	3.02070141
-0.72431117	-0.64170885	3.02070141
-0.72880411	-0.64029843	3.02070165
-0.72934932	-0.64039475	3.02070165
-0.73298156	-0.63920689	3.02070189
-0.73401767	-0.63827932	3.02070189
-0.73685616	-0.63858700	3.02070189
-0.74200845	-0.63735330	3.02070212
-0.74669671	-0.63770360	3.02070236
-0.74906427	-0.63728237	3.02070236
-0.75143194	-0.63686121	3.02070260
-0.75352389	-0.63747185	3.02070260
-0.75788248	-0.63773382	3.02070260
-0.75874317	-0.63751131	3.02070260
-0.76686209	-0.63707298	3.02070284
-0.77318448	-0.63745785	3.02070308
-0.77798688	-0.63788867	3.02070332
-0.78422189	-0.63875318	3.02070332
-0.78684503	-0.63905299	3.02070332
-0.78979778	-0.63944113	3.02070355
-0.79528636	-0.64060873	3.02070355
-0.79694754	-0.64120340	3.02070355
-0.80090225	-0.64200962	3.02070355
-0.80617535	-0.64316916	3.02070379
-0.80819327	-0.64441246	3.02070379
-0.81358063	-0.64565241	3.02070379
-0.81446832	-0.64599007	3.02070379
-0.81800610	-0.64718747	3.02070379
-0.82098573	-0.64813572	3.02070403
-0.82177210	-0.64854574	3.02070403
-0.82718652	-0.65034586	3.02070403
-0.83130950	-0.65235263	3.02070403
-0.84128320	-0.65823394	3.02070403
-0.84673756	-0.66074711	3.02070403
-0.84762508	-0.66108459	3.02070403
-0.84946173	-0.66097438	3.02070403
-0.85355753	-0.66242099	3.02070403
-0.85609347	-0.66320050	3.02070403
-0.85665160	-0.66344970	3.02070403
-0.86044466	-0.66536808	3.02070403
-0.86660564	-0.66686529	3.02070427
-0.86815256	-0.66737962	3.02070427
-0.87220842	-0.66811323	3.02070427
-0.87398380	-0.66878831	3.02070427
-0.87738037	-0.66934532	3.02070451
-0.87937129	-0.67002839	3.02070451
-0.88546509	-0.67025256	3.02070451
-0.88687098	-0.67012638	3.02070475
-0.88841784	-0.67064065	3.02070475
-0.89044279	-0.66997826	3.02070475
-0.89296484	-0.67035049	3.02070475
-0.89576322	-0.66994512	3.02070498
-0.89761281	-0.66998780	3.02070498
-0.89828533	-0.67031741	3.02070498
-0.89983213	-0.67083168	3.02070498
-0.90211272	-0.67089033	3.02070498
-0.90777576	-0.67109841	3.02070522
-0.90951115	-0.67106062	3.02070522
-0.91082966	-0.67141414	3.02070522
-0.92097944	-0.67237186	3.02070546
-0.92338711	-0.67266369	3.02070546
-0.92401934	-0.67228031	3.02070570
-0.93065822	-0.67260075	3.02070570
-0.93264902	-0.67328382	3.02070570
-0.93623400	-0.67328864	3.02070594
-0.94028986	-0.67402226	3.02070594
-0.94092232	-0.67363894	3.02070594
-0.94192421	-0.67405695	3.02070594
-0.94387501	-0.67402709	3.02070618
-0.94542193	-0.67454135	3.02070618
-0.94782954	-0.67483318	3.02070618
-0.94959205	-0.67535543	3.02070618
-0.95136738	-0.67603064	3.02070618
-0.95903528	-0.67732918	3.02070642
-0.96081072	-0.67800432	3.02070642
-0.96476525	-0.67881048	3.02070642
-0.96675628	-0.67949361	3.02070642
-0.96870691	-0.67946368	3.02070642
-0.97044235	-0.67942584	3.02070665
-0.97789484	-0.68071645	3.02070665
-0.97977144	-0.68131918	3.02070665
-0.98328215	-0.68195653	3.02070689
-0.98797023	-0.68230677	3.02070689
-0.98885798	-0.68264437	3.02070689
-0.99509305	-0.68350899	3.02070713
-0.99719810	-0.68427253	3.02070713
-0.99928999	-0.68488318	3.02070713
-1.00214171	-0.68534374	3.02070713
-1.00376284	-0.68522555	3.02070713
-1.00945294	-0.68599385	3.02070737
-1.01221704	-0.68693411	3.02070737
-1.01383829	-0.68681586	3.02070737
-1.01535833	-0.68677008	3.02070737
-1.01745045	-0.68738073	3.02070761
-1.01945424	-0.68821669	3.02070761
-1.02248120	-0.68797231	3.02070761
-1.02424359	-0.68849456	3.02070761
-1.02716935	-0.68832260	3.02070785
-1.02912009	-0.68829274	3.02070785
-1.03085542	-0.68825489	3.02070785
-1.03399670	-0.68809086	3.02070785
-1.04409242	-0.68792844	3.02070832
-1.05037487	-0.68760037	3.02070856
-1.05126250	-0.68793797	3.02070856
-1.05439079	-0.68762112	3.02070856
-1.05579662	-0.68749487	3.02070856
-1.05635440	-0.68774402	3.02070856
-1.05691266	-0.68799329	3.02070856
-1.05913901	-0.68693161	3.02070880
-1.06462765	-0.68809915	3.02070880
-1.07941163	-0.68828702	3.02070928
-1.08330595	-0.69013292	3.02070928
-1.08933306	-0.68908393	3.02070951
-1.09284377	-0.68972123	3.02070951
-1.09652984	-0.68965352	3.02070975
-1.10441899	-0.69301867	3.02070975
-1.10483575	-0.69262725	3.02070975
-1.10921407	-0.69535506	3.02070975
-1.11017609	-0.69506001	3.02070975
-1.11758852	-0.69563758	3.02070999
-1.12087071	-0.69611406	3.02070999
-1.12154305	-0.69644374	3.02070999
-1.12407887	-0.69722313	3.02070999
-1.12696469	-0.69633818	3.02071023
-1.12930536	-0.69535685	3.02071023
-1.13528502	-0.69550061	3.02071047
-1.13856745	-0.69597715	3.02071047
-1.14108932	-0.69634926	3.02071071
-1.14531350	-0.69828361	3.02071071
-1.14821219	-0.69755149	3.02071071
-1.15072095	-0.69777077	3.02071071
-1.15300143	-0.69782937	3.02071095
-1.15551043	-0.69804871	3.02071095
-1.15787804	-0.69762754	3.02071095
-1.15892732	-0.69685292	3.02071118
-1.16268039	-0.69805831	3.02071118
-1.16730165	-0.69713545	3.02071142
-1.16966927	-0.69671434	3.02071142
-1.17899168	-0.69629472	3.02071166
-1.18571782	-0.69613552	3.02071190
-1.18940413	-0.69606781	3.02071214
-1.19580054	-0.69582009	3.02071214
-1.19664824	-0.69544470	3.02071238
-1.19797993	-0.69595110	3.02071238
-1.20214987	-0.69676512	3.02071238
-1.20340145	-0.69584560	3.02071238
-1.20672393	-0.69703507	3.02071238
-1.21009338	-0.69703180	3.02071261
-1.21295881	-0.69789970	3.02071261
-1.22425711	-0.70619309	3.02071261
-1.23131740	-0.71661776	3.02071214
-1.23495388	-0.73014402	3.02071142
-1.23465633	-0.73689282	3.02071118
-1.23354542	-0.74267149	3.02071071
