//X	Y	Z
-0.12462014	-0.59246629	2.63084769
-0.12489770	-0.59195381	2.63084698
-0.12426144	-0.58866054	2.63084126
-0.12539612	-0.58669561	2.63083863
-0.12584075	-0.58555633	2.63083720
-0.12606263	-0.58359468	2.63083410
-0.12614541	-0.58243686	2.63083243
-0.12562169	-0.57875627	2.63082600
-0.12634221	-0.57651091	2.63082290
-0.12728417	-0.57339907	2.63081837
-0.12783764	-0.57178056	2.63081622
-0.12880914	-0.57053447	2.63081479
-0.12903084	-0.56857276	2.63081169
-0.13030493	-0.56470895	2.63080645
-0.13138470	-0.56407875	2.63080597
-0.13141313	-0.56316060	2.63080454
-0.13130301	-0.56195104	2.63080263
-0.13127555	-0.55958349	2.63079858
-0.13091618	-0.55796826	2.63079572
-0.13157986	-0.55755931	2.63079572
-0.13149771	-0.55652672	2.63079381
-0.13133168	-0.55386794	2.63078952
-0.13096882	-0.55106550	2.63078475
-0.13077855	-0.54832149	2.63078022
-0.13025284	-0.54514277	2.63077474
-0.13058484	-0.54439068	2.63077354
-0.13022545	-0.54277533	2.63077092
-0.13075051	-0.54207504	2.63076997
-0.13052973	-0.54075116	2.63076782
-0.13064094	-0.53867501	2.63076448
-0.13044648	-0.53693438	2.63076162
-0.13036439	-0.53590190	2.63075972
-0.13033697	-0.53353441	2.63075590
-0.13006045	-0.53076130	2.63075137
-0.13058618	-0.52787060	2.63074684
-0.13047588	-0.52666092	2.63074493
-0.13050434	-0.52574271	2.63074350
-0.13044858	-0.52429360	2.63074112
-0.13061562	-0.52366674	2.63074017
-0.13047726	-0.52228004	2.63073778
-0.12995122	-0.52019644	2.63073421
-0.13014463	-0.51915294	2.63073254
-0.13014492	-0.51805776	2.63073087
-0.13047700	-0.51730573	2.63072968
-0.12997892	-0.51539910	2.63072634
-0.13053277	-0.51268530	2.63072228
-0.13045065	-0.51165277	2.63072062
-0.13100410	-0.51003414	2.63071823
-0.13111535	-0.50795811	2.63071513
-0.13114369	-0.50703984	2.63071370
-0.13111603	-0.50576770	2.63071156
-0.13216782	-0.50496054	2.63071084
-0.13147713	-0.50190699	2.63070560
-0.13205864	-0.50046539	2.63070345
-0.13230811	-0.49977595	2.63070250
-0.13289014	-0.49723926	2.63069892
-0.13325047	-0.49556890	2.63069630
-0.13372111	-0.49510819	2.63069606
-0.13416372	-0.49447051	2.63069510
-0.13433072	-0.49384356	2.63069439
-0.13422088	-0.49153885	2.63069057
-0.13444269	-0.48957711	2.63068748
-0.13535587	-0.48847875	2.63068628
-0.13499644	-0.48686340	2.63068342
-0.13535689	-0.48519313	2.63068104
-0.13654742	-0.48467752	2.63068080
-0.13621598	-0.48323902	2.63067842
-0.13618861	-0.48087156	2.63067460
-0.13654912	-0.47920144	2.63067198
-0.13668801	-0.47839743	2.63067079
-0.13710250	-0.47758281	2.63066983
-0.13713096	-0.47666460	2.63066840
-0.13710354	-0.47429717	2.63066459
-0.13724324	-0.47130293	2.63065982
-0.13793533	-0.46997580	2.63065791
-0.13832419	-0.46738732	2.63065410
-0.13829681	-0.46501988	2.63065028
-0.13934869	-0.46421286	2.63064957
-0.13898951	-0.46150216	2.63064504
-0.13887720	-0.46079424	2.63064384
-0.13904430	-0.46016741	2.63064289
-0.13885163	-0.45902047	2.63064098
-0.13926607	-0.45820576	2.63063979
-0.14031826	-0.45630348	2.63063741
-0.14012560	-0.45515651	2.63063550
-0.14018212	-0.45441532	2.63063431
-0.14029296	-0.45343444	2.63063288
-0.14051437	-0.45256799	2.63063145
-0.14098541	-0.45101213	2.63062930
-0.14126296	-0.45049959	2.63062859
-0.14200915	-0.45002812	2.63062835
-0.14170593	-0.44876674	2.63062620
-0.14198184	-0.44766068	2.63062453
-0.14237064	-0.44507214	2.63062048
-0.14253591	-0.44385168	2.63061881
-0.14201161	-0.44236162	2.63061595
-0.13979629	-0.43500766	2.63060260
-0.14029534	-0.43362874	2.63060069
-0.14040659	-0.43155274	2.63059735
-0.13971378	-0.42900062	2.63059282
-0.13943727	-0.42622754	2.63058829
-0.13796945	-0.42009076	2.63057733
-0.13810709	-0.41759831	2.63057351
-0.13832885	-0.41563654	2.63057041
-0.13943684	-0.41518351	2.63057041
-0.14290182	-0.41251880	2.63056827
-0.14157236	-0.40776867	2.63055968
-0.14567299	-0.40451807	2.63055706
-0.14758532	-0.40344581	2.63055658
-0.15066010	-0.40168086	2.63055563
-0.15077199	-0.39741439	2.63054895
-0.15334634	-0.39533964	2.63054729
-0.15285005	-0.39402649	2.63054466
-0.15287702	-0.39141938	2.63054061
-0.15664560	-0.38892090	2.63053894
-0.15872361	-0.38553295	2.63053489
-0.16046791	-0.38230360	2.63053083
-0.16249116	-0.38025045	2.63052869
-0.16457057	-0.37855130	2.63052726
-0.16587183	-0.37705469	2.63052583
-0.16603890	-0.37642789	2.63052487
-0.16622643	-0.37579426	2.63052392
-0.16725779	-0.37499392	2.63052320
-0.16648221	-0.37359986	2.63052058
-0.16216180	-0.36617109	2.63050580
-0.16094227	-0.36372584	2.63050103
-0.16086014	-0.36269328	2.63049936
-0.16066541	-0.36204797	2.63049817
-0.15991783	-0.36083072	2.63049555
-0.16110893	-0.35812455	2.63049197
-0.16296513	-0.35669827	2.63049102
-0.16310419	-0.35589451	2.63048959
-0.10976343	-0.19155249	2.63018942
-0.10879656	-0.19070007	2.63018751
-0.10837683	-0.18973404	2.63018560
-0.10757285	-0.18925813	2.63018441
-0.10621604	-0.18821026	2.63018179
-0.10252856	-0.18895748	2.63018060
-0.09845699	-0.18909933	2.63017821
-0.09673838	-0.18803301	2.63017535
-0.09393952	-0.18869200	2.63017464
-0.09069809	-0.18998855	2.63017464
-0.08585098	-0.18873630	2.63016939
-0.08335783	-0.18905976	2.63016844
-0.07828681	-0.19027084	2.63016701
-0.07643127	-0.18950662	2.63016462
-0.07429818	-0.18925501	2.63016295
-0.07238615	-0.18923204	2.63016152
-0.06961569	-0.18897276	2.63015938
-0.06684799	-0.18602125	2.63015294
-0.05603335	-0.17699552	2.63013124
-0.05379002	-0.17553431	2.63012743
-0.05130097	-0.17485431	2.63012481
-0.04839116	-0.17649409	2.63012552
-0.04456643	-0.17863858	2.63012648
-0.04298607	-0.17895880	2.63012600
-0.03971834	-0.17460248	2.63011694
-0.03825654	-0.17412558	2.63011527
-0.03780667	-0.17348436	2.63011384
-0.03656660	-0.17104575	2.63010907
-0.03452315	-0.16594082	2.63009953
-0.03374722	-0.16564175	2.63009858
-0.03097793	-0.16209695	2.63009095
-0.01609190	-0.09533659	2.62997341
-0.01570784	-0.09473121	2.62997222
-0.01509345	-0.09312007	2.62996912
-0.01473744	-0.09269166	2.62996817
-0.01333147	-0.08759445	2.62995911
-0.01286563	-0.08701617	2.62995791
-0.01195142	-0.08533061	2.62995458
-0.01026329	-0.08284435	2.62994933
-0.00957018	-0.08138758	2.62994671
-0.00890711	-0.07960603	2.62994337
-0.00774306	-0.07970512	2.62994266
-0.00724295	-0.07830015	2.62994003
-0.00613740	-0.07715631	2.62993765
-0.00514241	-0.07612684	2.62993526
-0.00381196	-0.07466242	2.62993193
-0.00361718	-0.07401720	2.62993097
-0.00317316	-0.07296595	2.62992883
-0.00273511	-0.07150507	2.62992620
-0.00217471	-0.07074943	2.62992477
-0.00101650	-0.07043877	2.62992334
-0.00071122	-0.06967914	2.62992191
0.00011928	-0.06961960	2.62992144
0.00164233	-0.06700829	2.62991619
0.00333156	-0.06173795	2.62990642
0.00446621	-0.05763313	2.62989926
0.00396720	-0.05018476	2.62988734
0.00360639	-0.04741922	2.62988329
0.00210968	-0.03830788	2.62986946
-0.01027206	0.00632739	2.62980509
-0.01091003	0.00851017	2.62980199
-0.01129653	0.00950181	2.62980080
-0.03896113	0.05873761	2.62973881
-0.04375313	0.06719461	2.62972832
-0.04547101	0.07000735	2.62972498
-0.05436637	0.08440709	2.62970734
-0.06478348	0.09788409	2.62969232
-0.07905573	0.11492571	2.62967396
-0.08719870	0.12127915	2.62966895
-0.11501764	0.14275810	2.62965202
-0.24825430	0.21419427	2.62962246
-0.25105143	0.21544674	2.62962222
-0.38538963	0.23617882	2.62967515
-0.39491957	0.23573956	2.62968206
-0.40486324	0.23392457	2.62969136
-0.40799344	0.23314515	2.62969470
-0.41444695	0.23153433	2.62970138
-0.43954849	0.22485292	2.62972856
-0.45675039	0.21707220	2.62975216
-0.47882947	0.20444909	2.62978673
-0.48506117	0.20087667	2.62979650
-0.49193013	0.19514188	2.62981033
-0.49248463	0.19397640	2.62981248
-0.50865799	0.18025778	2.62984514
-0.51535738	0.17445411	2.62985897
-0.51779556	0.17234747	2.62986374
-0.52156240	0.16937004	2.62987113
-0.52406776	0.16553856	2.62987900
-0.52556324	0.16419931	2.62988210
-0.52644944	0.16269074	2.62988496
-0.52774799	0.16149506	2.62988782
-0.52843904	0.15953663	2.62989140
-0.52865607	0.15830445	2.62989354
-0.52916408	0.15781096	2.62989473
-0.53026199	0.15685089	2.62989688
-0.54808879	0.14174268	2.62993288
-0.56081754	0.13104081	2.62995839
-0.57392615	0.12088510	2.62998319
-0.57359409	0.12013312	2.62998438
-0.57420897	0.11961702	2.62998557
-0.57742304	0.11721146	2.62999153
-0.57828081	0.11478457	2.62999606
-0.58223206	0.11080821	2.63000488
-0.58350605	0.10860246	2.63000941
-0.58367068	0.10763249	2.63001108
-0.58469546	0.10583261	2.63001466
-0.58613646	0.10425368	2.63001800
-0.58596939	0.10362689	2.63001895
-0.58682930	0.10170174	2.63002253
-0.58599615	0.09906900	2.63002634
-0.59008318	0.09171428	2.63004088
-0.59005624	0.08910716	2.63004518
-0.59310508	0.08548117	2.63005280
-0.59293789	0.08485435	2.63005376
-0.73530954	-0.00107791	2.63028455
-0.74367529	-0.00161615	2.63029099
-0.74436879	-0.00197788	2.63029194
-0.74644578	-0.00187555	2.63029313
-0.74849612	-0.00328508	2.63029671
-0.75223517	-0.00499040	2.63030195
-0.77151477	-0.01830798	2.63033581
-0.78156710	-0.02680878	2.63035607
-0.86875945	-0.10358629	2.63053656
-0.86859244	-0.10421309	2.63053751
-0.86739951	-0.10632566	2.63054013
-0.86770415	-0.10927570	2.63054514
-0.86703843	-0.11018645	2.63054609
-0.86673337	-0.11440104	2.63055277
-0.87416595	-0.12924345	2.63058138
-0.87508023	-0.13092902	2.63058472
-0.87566864	-0.13186164	2.63058662
-0.87630540	-0.13405973	2.63059068
-0.87671530	-0.13534360	2.63059306
-0.87765765	-0.13720618	2.63059664
-0.87843323	-0.13860035	2.63059950
-0.87971318	-0.14039637	2.63060308
-0.87934935	-0.14087957	2.63060355
-0.87948585	-0.14167260	2.63060498
-0.87948757	-0.14226612	2.63060594
-0.88020873	-0.14389989	2.63060904
-0.88104051	-0.14564805	2.63061237
-0.88062388	-0.14696433	2.63061428
-0.88109392	-0.14869419	2.63061738
-0.88095212	-0.15003520	2.63061953
-0.88087523	-0.15078320	2.63062072
-0.88133967	-0.15182760	2.63062263
-0.88236445	-0.15362747	2.63062620
-0.88316810	-0.15519868	2.63062930
-0.88366824	-0.15660374	2.63063192
-0.88413852	-0.15723822	2.63063312
-0.88640821	-0.16043779	2.63063979
-0.88613069	-0.16095030	2.63064051
-0.88535744	-0.16187394	2.63064146
-0.88635623	-0.16299531	2.63064384
-0.88674408	-0.16369244	2.63064528
-0.88666332	-0.16434854	2.63064623
-0.88696480	-0.16501640	2.63064766
-0.88813031	-0.16660601	2.63065100
-0.88840234	-0.16756302	2.63065267
-0.88851255	-0.16877258	2.63065457
-0.88790262	-0.17113234	2.63065815
-0.88762504	-0.17164484	2.63065886
-0.88710272	-0.17356779	2.63066149
-0.88715374	-0.17429598	2.63066268
-0.88618922	-0.17576136	2.63066459
-0.88663137	-0.17621881	2.63066554
-0.88602006	-0.17688987	2.63066626
-0.88604605	-0.17756850	2.63066721
-0.88643014	-0.17817387	2.63066864
-0.88732904	-0.17949189	2.63067126
-0.88699704	-0.18024400	2.63067222
-0.88674438	-0.18080598	2.63067293
-0.88691038	-0.18130997	2.63067389
-0.88793737	-0.18260817	2.63067675
-0.88785267	-0.18317249	2.63067746
-0.88907266	-0.18452254	2.63068056
-0.88879502	-0.18503504	2.63068128
-0.88862813	-0.18566196	2.63068199
-0.88849872	-0.18614790	2.63068271
-0.88926679	-0.18735829	2.63068533
-0.88993764	-0.18822826	2.63068700
-0.88966006	-0.18874091	2.63068771
-0.88968235	-0.18932760	2.63068867
-0.89035326	-0.19019766	2.63069057
-0.89071298	-0.19071774	2.63069153
-0.89043534	-0.19123021	2.63069224
-0.89071649	-0.19190490	2.63069344
-0.89082116	-0.19242899	2.63069439
-0.89159673	-0.19382320	2.63069725
-0.89124435	-0.19458207	2.63069820
-0.89171457	-0.19521654	2.63069963
-0.89209479	-0.19572993	2.63070059
-0.89256126	-0.19627261	2.63070178
-0.89330876	-0.19748983	2.63070416
-0.89350152	-0.19863679	2.63070631
-0.89353138	-0.19940741	2.63070750
-0.89422268	-0.20027055	2.63070941
-0.89405560	-0.20089747	2.63071012
-0.89388865	-0.20152438	2.63071108
-0.89533108	-0.20303211	2.63071442
-0.89621556	-0.20394717	2.63071656
-0.89616072	-0.20528190	2.63071871
-0.89729822	-0.20669463	2.63072181
-0.89768398	-0.20789340	2.63072395
-0.89807171	-0.20859049	2.63072538
-0.89837706	-0.20935020	2.63072658
-0.89739799	-0.21041253	2.63072777
-0.89828628	-0.21141955	2.63072991
-0.89997268	-0.21331215	2.63073421
-0.90027565	-0.21566883	2.63073802
-0.89976192	-0.21664464	2.63073945
-0.90022248	-0.21759707	2.63074112
-0.89980048	-0.21822804	2.63074207
-0.90016013	-0.21874812	2.63074303
-0.90069622	-0.21941869	2.63074446
-0.90077084	-0.22026758	2.63074589
-0.90112853	-0.22128941	2.63074780
-0.90082455	-0.22221845	2.63074899
-0.90105712	-0.22272283	2.63074994
-0.90121412	-0.22350915	2.63075137
-0.90087062	-0.22398543	2.63075209
-0.90115553	-0.22475196	2.63075352
-0.90098846	-0.22537890	2.63075423
-0.90084183	-0.22599903	2.63075519
-0.90168154	-0.22683567	2.63075709
-0.90093338	-0.22780889	2.63075829
-0.90138698	-0.22854196	2.63075972
-0.90113753	-0.22923143	2.63076067
-0.90079784	-0.22979984	2.63076138
-0.90105468	-0.23038930	2.63076234
-0.90072507	-0.23130438	2.63076377
-0.90130353	-0.23189023	2.63076496
-0.90110242	-0.23274991	2.63076639
-0.90234661	-0.23418504	2.63076949
-0.90193319	-0.23562883	2.63077140
-0.90112752	-0.23671421	2.63077283
-0.90157282	-0.23729920	2.63077402
-0.90138221	-0.23780531	2.63077474
-0.90129763	-0.23836964	2.63077545
-0.90185428	-0.23903351	2.63077688
-0.90176517	-0.23954147	2.63077760
-0.90194023	-0.24015799	2.63077879
-0.90199041	-0.24092171	2.63077998
-0.90207851	-0.24154443	2.63078117
-0.90304923	-0.24248880	2.63078332
-0.90288216	-0.24311569	2.63078427
-0.90318370	-0.24378356	2.63078547
-0.90462857	-0.24545430	2.63078904
-0.90512687	-0.24626574	2.63079071
-0.90479487	-0.24701780	2.63079166
-0.90551603	-0.24865156	2.63079476
-0.90521020	-0.25008237	2.63079691
-0.90568036	-0.25071684	2.63079834
-0.90507287	-0.25147972	2.63079906
-0.90598536	-0.25257185	2.63080144
-0.90592891	-0.25331303	2.63080263
-0.90681714	-0.25432000	2.63080478
-0.90761906	-0.25529754	2.63080692
-0.90709198	-0.25649956	2.63080859
-0.90648293	-0.25733352	2.63080955
-0.90684414	-0.25778246	2.63081050
-0.90651226	-0.25853464	2.63081145
-0.90692866	-0.25897816	2.63081241
-0.90678734	-0.25961903	2.63081336
-0.90742493	-0.26029122	2.63081503
-0.90770608	-0.26096600	2.63081622
-0.90927947	-0.26258120	2.63081980
-0.90874410	-0.26363504	2.63082123
-0.91013718	-0.26500806	2.63082433
-0.91032606	-0.26606318	2.63082623
-0.91024095	-0.26666310	2.63082695
-0.91046447	-0.26744983	2.63082838
-0.91171831	-0.26856700	2.63083100
-0.91179276	-0.26941589	2.63083243
-0.91277122	-0.27054405	2.63083506
-0.91326189	-0.27117169	2.63083625
-0.91387856	-0.27228141	2.63083839
-0.91434497	-0.27282387	2.63083959
-0.91481525	-0.27345854	2.63084102
-0.91482079	-0.27414387	2.63084221
-0.91611552	-0.27524763	2.63084483
-0.92207688	-0.28061140	2.63085723
-1.05304682	-0.38822705	2.63111567
-1.05753338	-0.39114961	2.63112330
-1.05856252	-0.39194635	2.63112545
-1.05938900	-0.39191383	2.63112593
-1.06141126	-0.39314634	2.63112903
-1.06360602	-0.39443737	2.63113260
-1.06540132	-0.39585096	2.63113618
-1.06595600	-0.39592111	2.63113666
-1.07044446	-0.39943725	2.63114524
-1.07146978	-0.40014204	2.63114691
-1.07521236	-0.40303439	2.63115406
-1.07876384	-0.40537331	2.63116002
-1.08084226	-0.40695983	2.63116407
-1.08952725	-0.41300628	2.63117933
-1.09393322	-0.41658494	2.63118792
-1.09700668	-0.41920087	2.63119411
-1.10088563	-0.42288631	2.63120270
-1.23409688	-0.52855009	2.63145947
-1.23762798	-0.53089589	2.63146567
-1.23900604	-0.52974653	2.63146472
-1.24103439	-0.52947408	2.63146544
-1.24263549	-0.52805179	2.63146424
-1.24587560	-0.52506649	2.63146138
-1.24656868	-0.52652335	2.63146424
-1.28080225	-0.61866993	2.63163543
-1.26193357	-0.64869291	2.63167191
-1.26051986	-0.64948153	2.63167214
-1.26004958	-0.64884692	2.63167095
-1.25486696	-0.64715964	2.63166475
-1.21361959	-0.64302623	2.63163161
-1.20946383	-0.64263725	2.63162827
-1.20597363	-0.64243293	2.63162565
-1.20508707	-0.64201951	2.63162446
-1.20273113	-0.64094561	2.63162112
-1.20118117	-0.63984591	2.63161826
-1.20023847	-0.63907862	2.63161659
-1.19899023	-0.63864672	2.63161492
-1.19898856	-0.63805312	2.63161397
-1.19597268	-0.63748002	2.63161111
-1.19588852	-0.63694906	2.63161016
-1.19125664	-0.63633525	2.63160634
-1.19120252	-0.63547969	2.63160491
-1.18843198	-0.63522041	2.63160253
-1.18726826	-0.63422424	2.63160038
-1.18499649	-0.63368130	2.63159800
-1.18449819	-0.63286978	2.63159633
-1.18424940	-0.63136882	2.63159370
-1.18351793	-0.63114822	2.63159299
-1.18171692	-0.63014436	2.63159013
-1.18067551	-0.62844306	2.63158655
-1.17714739	-0.62837970	2.63158441
-1.17687011	-0.62779701	2.63158321
-1.17180359	-0.62690949	2.63157845
-1.17147064	-0.62487757	2.63157487
-1.17061031	-0.62404752	2.63157296
-1.16698980	-0.62154520	2.63156676
-1.16640210	-0.61842221	2.63156128
-1.16543305	-0.61807138	2.63156009
-1.16413033	-0.61787909	2.63155890
-1.16366005	-0.61724466	2.63155746
-1.16357601	-0.61561847	2.63155484
-1.16260707	-0.61526775	2.63155365
-1.16196513	-0.61520386	2.63155317
-1.16077340	-0.61403066	2.63155055
-1.16010809	-0.61384606	2.63154984
-1.15819216	-0.61373115	2.63154840
-1.15569937	-0.61295938	2.63154554
-1.15231776	-0.61227590	2.63154221
-1.15157032	-0.61105865	2.63153982
-1.15106881	-0.60796487	2.63153434
-1.15048981	-0.60780954	2.63153386
-1.14965582	-0.60656309	2.63153124
-1.14688921	-0.60639560	2.63152933
-1.14685941	-0.60562509	2.63152790
-1.14680529	-0.60476947	2.63152647
-1.14478874	-0.60422230	2.63152432
-1.14423418	-0.60305679	2.63152218
-1.14212906	-0.60298216	2.63152051
-1.13958013	-0.60185635	2.63151717
-1.13917172	-0.60116601	2.63151574
-1.13733506	-0.59980166	2.63151240
-1.13686478	-0.59916711	2.63151097
-1.13514781	-0.59869432	2.63150930
-1.13394141	-0.59711814	2.63150597
-1.13338661	-0.59704792	2.63150549
-1.13297069	-0.59617376	2.63150382
-1.13179970	-0.59605360	2.63150287
-1.13066399	-0.59523445	2.63150072
-1.13044107	-0.59441209	2.63149929
-1.12999892	-0.59395456	2.63149810
-1.12914038	-0.59371829	2.63149714
-1.12831140	-0.59319276	2.63149595
-1.12738788	-0.59288478	2.63149476
-1.12608504	-0.59269249	2.63149357
-1.12564290	-0.59223497	2.63149261
-1.12389791	-0.59158516	2.63149047
-1.12359262	-0.59082544	2.63148904
-1.12337351	-0.59009504	2.63148761
-1.12198830	-0.58996534	2.63148665
-1.12088239	-0.58776182	2.63148236
-1.11969006	-0.58768392	2.63148141
-1.11893463	-0.58737820	2.63148046
-1.11825073	-0.58669871	2.63147879
-1.11550856	-0.58661640	2.63147688
-1.11473286	-0.58522218	2.63147426
-1.11379194	-0.58504832	2.63147330
-1.11343813	-0.58411849	2.63147163
-1.11290359	-0.58404142	2.63147116
-1.11212993	-0.58324075	2.63146925
-1.11108208	-0.58304441	2.63146830
-1.10996890	-0.58171684	2.63146544
-1.10892129	-0.58152056	2.63146448
-1.10839307	-0.57993859	2.63146162
-1.10778606	-0.57960629	2.63146067
-1.10659373	-0.57952839	2.63145971
-1.10646236	-0.57836103	2.63145781
-1.10595286	-0.57833362	2.63145733
-1.10480154	-0.57824230	2.63145661
-1.10451746	-0.57744014	2.63145494
-1.10424018	-0.57685751	2.63145399
-1.10340595	-0.57670617	2.63145304
-1.10304618	-0.57618600	2.63145208
-1.10238087	-0.57600141	2.63145137
-1.10218608	-0.57535613	2.63145018
-1.10119069	-0.57542193	2.63144970
-1.09955812	-0.57547998	2.63144875
-1.09902966	-0.57499325	2.63144755
-1.09786749	-0.57459062	2.63144612
-1.09728456	-0.57434344	2.63144541
-1.09717596	-0.57372737	2.63144422
-1.09509528	-0.57373774	2.63144302
-1.09457052	-0.57334286	2.63144207
-1.09279752	-0.57251602	2.63143945
-1.09066439	-0.57226443	2.63143778
-1.08842146	-0.56970793	2.63143206
-1.08606827	-0.56594181	2.63142467
-1.08543158	-0.56374377	2.63142061
-1.08473814	-0.56338215	2.63141966
-1.08374143	-0.56175923	2.63141632
-1.08329952	-0.56020641	2.63141346
-1.08307290	-0.55929232	2.63141179
-1.08152640	-0.55937964	2.63141108
-1.08048975	-0.55839938	2.63140869
-1.07999706	-0.55827326	2.63140821
-1.07963729	-0.55775315	2.63140726
-1.07882738	-0.55768698	2.63140655
-1.07772565	-0.55663496	2.63140416
-1.07686710	-0.55639857	2.63140321
-1.07626390	-0.55615813	2.63140249
-1.07616818	-0.55535161	2.63140106
-1.07508850	-0.55488634	2.63139963
-1.07420588	-0.55456495	2.63139844
-1.07402074	-0.55360168	2.63139677
-1.07301402	-0.55339181	2.63139582
-1.07285142	-0.55192018	2.63139343
-1.07241690	-0.55164629	2.63139272
-1.07126939	-0.55164683	2.63139200
-1.07039630	-0.55100739	2.63139033
-1.07031226	-0.55047655	2.63138938
-1.06982839	-0.55006802	2.63138843
-1.06931508	-0.54994869	2.63138795
-1.06879556	-0.54917943	2.63138628
-1.06817186	-0.54894578	2.63138556
-1.06736183	-0.54887962	2.63138485
-1.06683743	-0.54738945	2.63138223
-1.06614399	-0.54702789	2.63138103
-1.06599391	-0.54646093	2.63138008
-1.06463671	-0.54650819	2.63137937
-1.06289351	-0.54645193	2.63137817
-1.06244755	-0.54590255	2.63137698
-1.06233525	-0.54519457	2.63137579
-1.06120121	-0.54496902	2.63137460
-1.06029046	-0.54447061	2.63137317
-1.06009185	-0.54373336	2.63137197
-1.05959737	-0.54301381	2.63137031
-1.05682302	-0.54266250	2.63136816
-1.05563152	-0.54039419	2.63136363
-1.05513144	-0.53898919	2.63136101
-1.05466115	-0.53835464	2.63135958
-1.05313730	-0.53793365	2.63135791
-1.05219460	-0.53716630	2.63135624
-1.05053210	-0.53645390	2.63135386
-1.04983866	-0.53609234	2.63135290
-1.04864860	-0.53551286	2.63135123
-1.04817867	-0.53378308	2.63134813
-1.04792976	-0.53228211	2.63134551
-1.04782510	-0.53175807	2.63134456
-1.04668152	-0.53185034	2.63134408
-1.04637611	-0.53109062	2.63134265
-1.04599810	-0.53007555	2.63134074
-1.04537940	-0.52946758	2.63133931
-1.04430747	-0.52918625	2.63133812
-1.04381049	-0.52830356	2.63133645
-1.04289591	-0.52771324	2.63133478
-1.04203749	-0.52747679	2.63133383
-1.04174483	-0.52652657	2.63133216
-1.04076314	-0.52636635	2.63133144
-1.03887939	-0.52542514	2.63132858
-1.03832507	-0.52425969	2.63132644
-1.03799474	-0.52345049	2.63132477
-1.03572154	-0.52337348	2.63132334
-1.03541648	-0.52151853	2.63132000
-1.03414190	-0.52150333	2.63131928
-1.03372431	-0.52003568	2.63131666
-1.03273022	-0.51963532	2.63131523
-1.03258991	-0.51875043	2.63131380
-1.03201079	-0.51859504	2.63131309
-1.03147721	-0.51848257	2.63131261
-1.03117871	-0.51794219	2.63131142
-1.03098381	-0.51729679	2.63131046
-1.03026032	-0.51725996	2.63130975
-1.02934647	-0.51663405	2.63130832
-1.02698696	-0.51613283	2.63130593
-1.02629423	-0.51358080	2.63130140
-1.02610016	-0.51289994	2.63129997
-1.02538037	-0.51295477	2.63129973
-1.02457631	-0.51247889	2.63129854
-1.02375305	-0.51154345	2.63129640
-1.02294219	-0.51084828	2.63129473
-1.02255428	-0.51015115	2.63129330
-1.02194715	-0.50981873	2.63129234
-1.02147686	-0.50918424	2.63129115
-1.02114153	-0.50874931	2.63129020
-1.02040124	-0.50881094	2.63128972
-1.02020633	-0.50816572	2.63128853
-1.01839733	-0.50807339	2.63128734
-1.01801920	-0.50705838	2.63128543
-1.01723349	-0.50707728	2.63128495
-1.01706302	-0.50651711	2.63128400
-1.01657534	-0.50601673	2.63128281
-1.01602268	-0.50544482	2.63128161
-1.01485848	-0.50554395	2.63128090
-1.01447451	-0.50493872	2.63127971
-1.01434934	-0.50442129	2.63127875
-1.01341748	-0.50396514	2.63127756
-1.01266956	-0.50384319	2.63127685
-1.01192379	-0.50321949	2.63127518
-1.01136887	-0.50314915	2.63127470
-1.01050854	-0.50231916	2.63127303
-1.00945735	-0.50203109	2.63127184
-1.00862682	-0.50197160	2.63127112
-1.00804400	-0.50172436	2.63127041
-1.00649369	-0.50171983	2.63126945
-1.00616241	-0.50028157	2.63126683
-1.00541449	-0.50015956	2.63126612
-1.00474894	-0.49997485	2.63126540
-1.00391877	-0.49991551	2.63126469
-1.00330949	-0.49832493	2.63126183
-1.00253212	-0.49809706	2.63126087
-1.00169921	-0.49787471	2.63126016
-1.00086892	-0.49781519	2.63125944
-1.00075912	-0.49727026	2.63125849
-0.99978942	-0.49735010	2.63125801
-0.99790776	-0.49766719	2.63125730
-0.99757266	-0.49613690	2.63125467
-0.99408418	-0.49652609	2.63125300
-0.99184048	-0.49616009	2.63125086
-0.99147904	-0.49504638	2.63124895
-0.99014997	-0.49527073	2.63124847
-0.98804319	-0.49460244	2.63124585
-0.98732328	-0.49465734	2.63124561
-0.95477027	-0.50126243	2.63123536
-0.95197135	-0.49585178	2.63122463
-0.95122385	-0.49463460	2.63122225
-0.94607961	-0.46026778	2.63116336
-0.94472241	-0.46031517	2.63116264
-0.94408512	-0.46030751	2.63116217
-0.94275492	-0.45774776	2.63115716
-0.94117701	-0.45647120	2.63115406
-0.93981922	-0.45263940	2.63114691
-0.93926257	-0.45197546	2.63114548
-0.93893301	-0.45113069	2.63114405
-0.93843257	-0.45082089	2.63114309
-0.93763024	-0.45093840	2.63114285
-0.93610638	-0.45051736	2.63114119
-0.93468654	-0.44674140	2.63113403
-0.93391049	-0.44644231	2.63113308
-0.93349671	-0.44506657	2.63113070
-0.93313688	-0.44454646	2.63112950
-0.93261015	-0.44465321	2.63112950
-0.93166935	-0.44447947	2.63112855
-0.93072450	-0.44421381	2.63112760
-0.93036485	-0.44369367	2.63112640
-0.92917675	-0.44261241	2.63112378
-0.92881703	-0.44209236	2.63112283
-0.92839909	-0.44171983	2.63112187
-0.92787433	-0.44132495	2.63112092
-0.92745638	-0.44095254	2.63112020
-0.92640322	-0.44007087	2.63111806
-0.92554462	-0.43983430	2.63111711
-0.92513096	-0.43845865	2.63111448
-0.92430055	-0.43839917	2.63111401
-0.92380005	-0.43808937	2.63111305
-0.92335784	-0.43763191	2.63111210
-0.92236251	-0.43769777	2.63111162
-0.92161500	-0.43648040	2.63110900
-0.92089516	-0.43653536	2.63110876
-0.92022979	-0.43635076	2.63110805
-0.91964686	-0.43610358	2.63110733
-0.91912007	-0.43621030	2.63110709
-0.91890103	-0.43547982	2.63110566
-0.91823566	-0.43529522	2.63110495
-0.91745961	-0.43499625	2.63110399
-0.91701746	-0.43453878	2.63110304
-0.91668022	-0.43351012	2.63110113
-0.91596419	-0.43365696	2.63110089
-0.91546369	-0.43334705	2.63110018
-0.91430163	-0.43294454	2.63109875
-0.91388577	-0.43207049	2.63109708
-0.91352612	-0.43155044	2.63109589
-0.91222328	-0.43135804	2.63109469
-0.91172493	-0.43054658	2.63109303
-0.91111779	-0.43021429	2.63109231
-0.91028738	-0.43015495	2.63109159
-0.90937281	-0.42956454	2.63108993
-0.90851438	-0.42932811	2.63108897
-0.90721160	-0.42913577	2.63108802
-0.90660274	-0.42820996	2.63108611
-0.90563369	-0.42785919	2.63108492
-0.90471351	-0.42658335	2.63108230
-0.90421069	-0.42611063	2.63108110
-0.90324795	-0.42601478	2.63108039
-0.90216452	-0.42545769	2.63107872
-0.90114313	-0.42484468	2.63107705
-0.90050203	-0.42474520	2.63107657
-0.90014231	-0.42422509	2.63107538
-0.89959127	-0.42424673	2.63107514
-0.89896375	-0.42392123	2.63107419
-0.89800918	-0.42397344	2.63107371
-0.89748454	-0.42357850	2.63107276
-0.89681906	-0.42339382	2.63107204
-0.89632243	-0.42317587	2.63107133
-0.89576763	-0.42310578	2.63107085
-0.89518678	-0.42235678	2.63106918
-0.89460766	-0.42220145	2.63106871
-0.89410716	-0.42189169	2.63106775
-0.89360678	-0.42158186	2.63106704
-0.89269382	-0.42158496	2.63106632
-0.89095443	-0.42162067	2.63106537
-0.88981873	-0.42080158	2.63106322
-0.88954151	-0.42021877	2.63106203
-0.88901675	-0.41982380	2.63106108
-0.88746488	-0.41922581	2.63105917
-0.88654292	-0.41735649	2.63105559
-0.88622868	-0.41687924	2.63105464
-0.88544303	-0.41689813	2.63105416
-0.88513756	-0.41613829	2.63105273
-0.88427854	-0.41633257	2.63105249
-0.88381833	-0.41604483	2.63105178
-0.88298613	-0.41539183	2.63105011
-0.88215578	-0.41533232	2.63104939
-0.88143593	-0.41538727	2.63104916
-0.87999463	-0.41490373	2.63104725
-0.87879413	-0.41507268	2.63104677
-0.87846065	-0.41413593	2.63104510
-0.87776893	-0.41436788	2.63104510
-0.87736315	-0.41384053	2.63104391
-0.87671572	-0.41348618	2.63104296
-0.87618929	-0.41249770	2.63104105
-0.87484223	-0.41289175	2.63104081
-0.87353945	-0.41269955	2.63103962
-0.87306911	-0.41206509	2.63103819
-0.87260479	-0.41102079	2.63103628
-0.87189770	-0.41088516	2.63103557
-0.87135047	-0.41099855	2.63103557
-0.87068337	-0.41022050	2.63103390
-0.87012470	-0.41005838	2.63103318
-0.86940485	-0.41011333	2.63103271
-0.86874533	-0.40951896	2.63103151
-0.86802554	-0.40957388	2.63103104
-0.86623687	-0.40947485	2.63102961
-0.86559951	-0.40946722	2.63102937
-0.86490810	-0.40860397	2.63102746
-0.86410207	-0.40862969	2.63102698
-0.86227417	-0.40913764	2.63102651
-0.86119258	-0.40917417	2.63102603
-0.86055523	-0.40916649	2.63102555
-0.85894895	-0.40880811	2.63102388
-0.85795182	-0.40828031	2.63102245
-0.85723203	-0.40833533	2.63102198
-0.85531998	-0.40831238	2.63102078
-0.85415590	-0.40841156	2.63102031
-0.85282707	-0.40754056	2.63101792
-0.85055542	-0.40699750	2.63101554
-0.84900308	-0.40749475	2.63101530
-0.84759259	-0.40449595	2.63100958
-0.84573489	-0.40423346	2.63100791
-0.84449041	-0.40389353	2.63100672
-0.84232759	-0.40287137	2.63100362
-0.84109682	-0.40121013	2.63100004
-0.84050035	-0.40118885	2.63099980
-0.83903056	-0.40162349	2.63099957
-0.83756316	-0.40046126	2.63099670
-0.83664858	-0.39987084	2.63099504
-0.83628893	-0.39935076	2.63099408
-0.83574378	-0.39896268	2.63099313
-0.83345330	-0.39901984	2.63099170
-0.83234388	-0.39778411	2.63098884
-0.83093268	-0.39697582	2.63098669
-0.83018512	-0.39575860	2.63098431
-0.82846993	-0.39587933	2.63098335
-0.82796955	-0.39556950	2.63098264
-0.82702863	-0.39539582	2.63098168
-0.82548022	-0.39598489	2.63098168
-0.82456583	-0.39429918	2.63097835
-0.82365894	-0.39389271	2.63097715
-0.82334393	-0.39345080	2.63097620
-0.82287359	-0.39281631	2.63097477
-0.82179582	-0.39294472	2.63097429
-0.82116264	-0.39193368	2.63097239
-0.82036167	-0.39158517	2.63097119
-0.81857926	-0.39213595	2.63097095
-0.81821954	-0.39161581	2.63096976
-0.81680626	-0.39130923	2.63096857
-0.81611484	-0.39044595	2.63096666
-0.81520724	-0.39007497	2.63096547
-0.81450671	-0.38949394	2.63096404
-0.81375885	-0.38937199	2.63096333
-0.81318492	-0.38884240	2.63096213
-0.81230015	-0.38902253	2.63096189
-0.81051844	-0.38738286	2.63095808
-0.80918801	-0.38591844	2.63095474
-0.80871767	-0.38528398	2.63095355
-0.80832988	-0.38458681	2.63095212
-0.80669582	-0.38295627	2.63094831
-0.80622554	-0.38232175	2.63094711
-0.80575526	-0.38168728	2.63094568
-0.80445457	-0.38099334	2.63094378
-0.80378914	-0.38080868	2.63094306
-0.80323642	-0.38023680	2.63094187
-0.80257094	-0.38005221	2.63094115
-0.80196196	-0.37912625	2.63093925
-0.80135310	-0.37820041	2.63093734
-0.79955196	-0.37719655	2.63093448
-0.79859966	-0.37674725	2.63093305
-0.79677075	-0.37447125	2.63092828
-0.79466605	-0.37330145	2.63092494
-0.79255754	-0.37027970	2.63091874
-0.79067707	-0.36731112	2.63091278
-0.78994787	-0.36658886	2.63091111
-0.78739715	-0.36310965	2.63090396
-0.78610057	-0.36317217	2.63090324
-0.78408360	-0.35980558	2.63089633
-0.78130579	-0.35611242	2.63088870
-0.78016841	-0.35469982	2.63088560
-0.77817392	-0.35473949	2.63088441
-0.77606261	-0.35225505	2.63087893
-0.77200776	-0.34622872	2.63086653
-0.77061594	-0.34478456	2.63086343
-0.77003473	-0.34513089	2.63086367
-0.76909584	-0.34445542	2.63086200
-0.76817954	-0.34327158	2.63085938
-0.76770931	-0.34263712	2.63085794
-0.76682448	-0.34281707	2.63085771
-0.76629770	-0.34292394	2.63085771
-0.76543748	-0.34209400	2.63085580
-0.76496726	-0.34145951	2.63085437
-0.76424563	-0.34092081	2.63085294
-0.76380736	-0.34055531	2.63085222
-0.76319420	-0.34063280	2.63085198
-0.76219708	-0.34010494	2.63085032
-0.76117373	-0.33999377	2.63084960
-0.76025730	-0.33880973	2.63084698
-0.75761372	-0.33574668	2.63084030
-0.75636744	-0.33481318	2.63083816
-0.75453794	-0.33472776	2.63083673
-0.75320923	-0.33385688	2.63083458
-0.75250435	-0.33321968	2.63083291
-0.75129753	-0.33273861	2.63083148
-0.75075930	-0.33256981	2.63083076
-0.74906701	-0.33108681	2.63082743
-0.74857044	-0.33086890	2.63082671
-0.74749082	-0.33040377	2.63082528
-0.74657410	-0.33031499	2.63082457
-0.74613190	-0.32985756	2.63082337
-0.74557912	-0.32928565	2.63082218
-0.74471897	-0.32845569	2.63082027
-0.74355686	-0.32805306	2.63081884
-0.74269640	-0.32831842	2.63081884
-0.74211347	-0.32807112	2.63081789
-0.74083918	-0.32696074	2.63081527
-0.74009329	-0.32633692	2.63081384
-0.73926091	-0.32677925	2.63081408
-0.73842871	-0.32612625	2.63081241
-0.73770893	-0.32618129	2.63081217
-0.73665571	-0.32529950	2.63081002
-0.73557621	-0.32483438	2.63080859
-0.73513389	-0.32437676	2.63080764
-0.73449492	-0.32377571	2.63080621
-0.73377502	-0.32383052	2.63080573
-0.73319387	-0.32417694	2.63080597
-0.73197395	-0.32282686	2.63080287
-0.73064518	-0.32195601	2.63080072
-0.72964609	-0.32192990	2.63080001
-0.72912133	-0.32153493	2.63079906
-0.72867906	-0.32107735	2.63079810
-0.72773814	-0.32090360	2.63079715
-0.72723395	-0.32050186	2.63079619
-0.72679549	-0.32013619	2.63079524
-0.72601748	-0.32033890	2.63079500
-0.72568655	-0.31996024	2.63079429
-0.72493863	-0.31983820	2.63079357
-0.72435570	-0.31959093	2.63079286
-0.72374785	-0.31929424	2.63079190
-0.72305989	-0.31961805	2.63079214
-0.72227877	-0.31969327	2.63079166
-0.72183651	-0.31923568	2.63079071
-0.72117245	-0.31858504	2.63078904
-0.72050703	-0.31840038	2.63078833
-0.71970373	-0.31788886	2.63078713
-0.71877182	-0.31743264	2.63078570
-0.71827132	-0.31712288	2.63078499
-0.71730238	-0.31677210	2.63078380
-0.71650004	-0.31688961	2.63078332
-0.71519732	-0.31669736	2.63078213
-0.71413273	-0.31554011	2.63077974
-0.71360791	-0.31514513	2.63077879
-0.71258074	-0.31494203	2.63077760
-0.71193570	-0.31475061	2.63077688
-0.71141654	-0.31504101	2.63077712
-0.71047556	-0.31486729	2.63077617
-0.70961720	-0.31463093	2.63077521
-0.70834249	-0.31461561	2.63077450
-0.70726126	-0.31355697	2.63077211
-0.70648694	-0.31385148	2.63077211
-0.70561677	-0.31443459	2.63077235
-0.70337307	-0.31406859	2.63077044
-0.70010489	-0.31080729	2.63076305
-0.69958407	-0.31050429	2.63076210
-0.69883615	-0.31038225	2.63076138
-0.69797772	-0.31014591	2.63076043
-0.69744909	-0.30965903	2.63075948
-0.69672930	-0.30971405	2.63075900
-0.69554132	-0.30863279	2.63075662
-0.69497502	-0.30828696	2.63075566
-0.69450438	-0.30874768	2.63075614
-0.69404554	-0.30838877	2.63075519
-0.69332397	-0.30785018	2.63075376
-0.69263226	-0.30808222	2.63075376
-0.69193500	-0.30762872	2.63075256
-0.69138181	-0.30815196	2.63075304
-0.69036049	-0.30753908	2.63075137
-0.68985796	-0.30773091	2.63075137
-0.68919432	-0.30813992	2.63075161
-0.68797535	-0.30741891	2.63074970
-0.68736476	-0.30805436	2.63075042
-0.68664491	-0.30810928	2.63074994
-0.68550885	-0.30838537	2.63074970
-0.68484449	-0.30882987	2.63074994
-0.68418086	-0.30923888	2.63075018
-0.68343085	-0.30961847	2.63075042
-0.68246156	-0.31036299	2.63075089
-0.68082678	-0.31092280	2.63075066
-0.67958027	-0.31108451	2.63075018
-0.67880386	-0.31188062	2.63075089
-0.67744637	-0.31302318	2.63075185
-0.67639488	-0.31273499	2.63075089
-0.67559046	-0.31335425	2.63075137
-0.67240518	-0.31500480	2.63075185
-0.67132312	-0.31613648	2.63075304
-0.66999382	-0.31745613	2.63075423
-0.66747212	-0.31869763	2.63075471
-0.66631007	-0.31829512	2.63075328
-0.66409212	-0.31970292	2.63075423
-0.66184807	-0.32043207	2.63075399
-0.66121280	-0.31992278	2.63075256
-0.66040838	-0.32054192	2.63075304
-0.65988171	-0.32064876	2.63075304
-0.65735966	-0.32298556	2.63075519
-0.65043283	-0.33059728	2.63076305
-0.64893669	-0.33144844	2.63076329
-0.64769042	-0.33051497	2.63076115
-0.64683169	-0.33137381	2.63076186
-0.64514220	-0.33326843	2.63076377
-0.64408857	-0.33348182	2.63076353
-0.64228857	-0.33526218	2.63076520
-0.64068180	-0.33599883	2.63076544
-0.63943487	-0.33725575	2.63076663
-0.63824236	-0.33827314	2.63076758
-0.63441908	-0.34210655	2.63077116
-0.63270146	-0.34382412	2.63077283
-0.63092810	-0.34409267	2.63077211
-0.62898934	-0.34558141	2.63077331
-0.62771434	-0.34666136	2.63077426
-0.62508178	-0.34888387	2.63077617
-0.62003964	-0.35415113	2.63078141
-0.61926329	-0.35494727	2.63078237
-0.61765659	-0.35568404	2.63078237
-0.61643815	-0.35602280	2.63078213
-0.61552316	-0.35652760	2.63078237
-0.61455417	-0.35617679	2.63078117
-0.61159003	-0.35805625	2.63078237
-0.61081362	-0.35885239	2.63078308
-0.60712928	-0.36188179	2.63078570
-0.60585463	-0.36186665	2.63078475
-0.60444099	-0.36265519	2.63078523
-0.60350001	-0.36248136	2.63078427
-0.60258508	-0.36298621	2.63078451
-0.60197794	-0.36265391	2.63078356
-0.60147923	-0.36293763	2.63078380
-0.60047972	-0.36400682	2.63078475
-0.59895551	-0.36468095	2.63078499
-0.59745932	-0.36553207	2.63078523
-0.59646195	-0.36609954	2.63078570
-0.59593725	-0.36570466	2.63078451
-0.59474480	-0.36672199	2.63078547
-0.59422004	-0.36632705	2.63078451
-0.59324861	-0.36757317	2.63078594
-0.59250242	-0.36804467	2.63078618
-0.59175247	-0.36842436	2.63078642
-0.59128177	-0.36888495	2.63078666
-0.59039497	-0.36956692	2.63078737
-0.58961862	-0.37036306	2.63078809
-0.58817893	-0.37047291	2.63078737
-0.58676755	-0.37075996	2.63078690
-0.58549029	-0.37234145	2.63078856
-0.58490914	-0.37268788	2.63078880
-0.58363408	-0.37376773	2.63078976
-0.58227664	-0.37491027	2.63079071
-0.58144623	-0.37485081	2.63079000
-0.58039272	-0.37506443	2.63078976
-0.57959044	-0.37518194	2.63078952
-0.57845396	-0.37655318	2.63079095
-0.57759553	-0.37631679	2.63079000
-0.57632053	-0.37739664	2.63079095
-0.57468581	-0.37795660	2.63079071
-0.57280362	-0.37870425	2.63079071
-0.57163912	-0.37989849	2.63079190
-0.57041854	-0.38073888	2.63079238
-0.56883979	-0.38165253	2.63079286
-0.56731600	-0.38123158	2.63079119
-0.56665230	-0.38164049	2.63079143
-0.56598687	-0.38145581	2.63079071
-0.56468767	-0.38245073	2.63079166
-0.56391132	-0.38324696	2.63079238
-0.56280339	-0.38370004	2.63079238
-0.56127912	-0.38437420	2.63079238
-0.56066781	-0.38504517	2.63079309
-0.55898070	-0.38534290	2.63079262
-0.55812019	-0.38560817	2.63079238
-0.55761969	-0.38529828	2.63079166
-0.55615586	-0.38532320	2.63079071
-0.55546033	-0.38546330	2.63079047
-0.55438215	-0.38668683	2.63079166
-0.55307555	-0.38640267	2.63079047
-0.55219287	-0.38608125	2.63078928
-0.55061042	-0.38690311	2.63078976
-0.54944628	-0.38700223	2.63078904
-0.54839444	-0.38780922	2.63078976
-0.54681444	-0.38703424	2.63078737
-0.54448730	-0.39001644	2.63079071
-0.54285252	-0.39057621	2.63079071
-0.54249245	-0.39115131	2.63079143
-0.54099631	-0.39200249	2.63079166
-0.53974938	-0.39325947	2.63079309
-0.53861296	-0.39463067	2.63079453
-0.53767204	-0.39445692	2.63079357
-0.53703439	-0.39554453	2.63079500
-0.53564882	-0.39651009	2.63079548
-0.53420913	-0.39661998	2.63079476
-0.53310120	-0.39707303	2.63079476
-0.53165913	-0.39877993	2.63079667
-0.53041255	-0.39894158	2.63079619
-0.52877778	-0.39950138	2.63079596
-0.52617329	-0.40190089	2.63079810
-0.52459437	-0.40390977	2.63080049
-0.52271003	-0.40515897	2.63080120
-0.52082616	-0.40531319	2.63080025
-0.51819843	-0.40434179	2.63079691
-0.51719719	-0.40481749	2.63079715
-0.50688821	-0.42607528	2.63082480
-0.43833378	-0.57040858	2.63101411
-0.39544851	-0.57669199	2.63099670
-0.39478445	-0.57819605	2.63099861
-0.39444861	-0.57885623	2.63099957
-0.39447841	-0.57962668	2.63100076
-0.39353544	-0.57995462	2.63100076
-0.39325780	-0.58046710	2.63100147
-0.39300823	-0.58115649	2.63100243
-0.39176130	-0.58241343	2.63100362
-0.39070958	-0.58322060	2.63100410
-0.39015430	-0.58424550	2.63100553
-0.38951662	-0.58533299	2.63100672
-0.38937765	-0.58613688	2.63100815
-0.38885993	-0.58811623	2.63101101
-0.38830680	-0.58863956	2.63101149
-0.38804966	-0.58914524	2.63101196
-0.38721719	-0.58958751	2.63101220
-0.38728058	-0.59122038	2.63101482
-0.38525766	-0.59217823	2.63101506
-0.38528365	-0.59285682	2.63101625
-0.38364509	-0.59332484	2.63101602
-0.38376114	-0.59412462	2.63101745
-0.38359419	-0.59475160	2.63101816
-0.38262102	-0.59540415	2.63101864
-0.38262275	-0.59599769	2.63101959
-0.38254762	-0.59733933	2.63102174
-0.38182181	-0.59780401	2.63102198
-0.38031119	-0.59825212	2.63102174
-0.37968457	-0.59855556	2.63102198
-0.37868711	-0.59912306	2.63102221
-0.37834820	-0.59965587	2.63102269
-0.37820160	-0.60027599	2.63102365
-0.37757158	-0.60154724	2.63102531
-0.37573197	-0.60287482	2.63102627
-0.37581614	-0.60340571	2.63102722
-0.37452972	-0.60421020	2.63102770
-0.37436268	-0.60483700	2.63102865
-0.37362796	-0.60558414	2.63102937
-0.37289459	-0.60586512	2.63102937
-0.37281382	-0.60652125	2.63103032
-0.37254769	-0.60730934	2.63103151
-0.37131566	-0.60787421	2.63103151
-0.37026209	-0.60808766	2.63103127
-0.36976340	-0.60837138	2.63103127
-0.36923656	-0.60847807	2.63103127
-0.36811581	-0.60912162	2.63103151
-0.36798757	-0.61023676	2.63103318
-0.36762714	-0.61190701	2.63103580
-0.36643636	-0.61351794	2.63103747
-0.36604786	-0.61501122	2.63103962
-0.36554977	-0.61525929	2.63103986
-0.36475068	-0.61765921	2.63104320
-0.36461166	-0.61846304	2.63104439
-0.36422351	-0.61886108	2.63104486
-0.36491606	-0.62250853	2.63105106
-0.36527503	-0.62521899	2.63105583
-0.36408418	-0.62682980	2.63105750
-0.36223006	-0.62775445	2.63105798
-0.36042655	-0.62834758	2.63105774
-0.35951337	-0.62944603	2.63105893
-0.35862651	-0.63012785	2.63105941
-0.35809970	-0.63023448	2.63105917
-0.35677063	-0.63045889	2.63105869
-0.35521835	-0.63095605	2.63105845
-0.35372221	-0.63180721	2.63105893
-0.35266864	-0.63202071	2.63105869
-0.35244232	-0.63392603	2.63106155
-0.35072514	-0.63454860	2.63106155
-0.34997690	-0.63552171	2.63106251
-0.34754261	-0.63566184	2.63106108
-0.34698945	-0.63618505	2.63106179
-0.34430325	-0.63645679	2.63106036
-0.34322125	-0.63758850	2.63106155
-0.34125480	-0.63780504	2.63106060
-0.34100148	-0.63840282	2.63106132
-0.34089646	-0.63897377	2.63106227
-0.33972642	-0.63948262	2.63106227
-0.33944887	-0.63999522	2.63106298
-0.33839533	-0.64020866	2.63106275
-0.33748418	-0.64080542	2.63106298
-0.33689916	-0.64105982	2.63106298
-0.33651483	-0.64154983	2.63106370
-0.33626911	-0.64233112	2.63106465
-0.33432311	-0.64254105	2.63106370
-0.33358079	-0.64310455	2.63106418
-0.33335549	-0.64387900	2.63106537
-0.33310008	-0.64497834	2.63106704
-0.33077744	-0.64586192	2.63106680
-0.33044538	-0.64661390	2.63106799
-0.32958484	-0.64687920	2.63106775
-0.32900125	-0.64882243	2.63107061
-0.32562321	-0.64932597	2.63106918
-0.32534742	-0.65043199	2.63107085
-0.32470965	-0.65151954	2.63107204
-0.32285172	-0.65235227	2.63107228
-0.32113454	-0.65297478	2.63107228
-0.32055265	-0.65551150	2.63107586
-0.31556448	-0.65556479	2.63107276
-0.31423712	-0.65638262	2.63107324
-0.31215808	-0.65698653	2.63107276
-0.31141192	-0.65745813	2.63107324
-0.31069005	-0.65801466	2.63107347
-0.30971897	-0.65816563	2.63107324
-0.30910972	-0.65833497	2.63107300
-0.30797368	-0.65861112	2.63107276
-0.30745071	-0.65880978	2.63107276
-0.30745244	-0.65940326	2.63107371
-0.30567908	-0.65967166	2.63107300
-0.30470800	-0.65982258	2.63107276
-0.30326831	-0.65993249	2.63107181
-0.30257067	-0.66057420	2.63107252
-0.30196139	-0.66074347	2.63107228
-0.30177319	-0.66356760	2.63107681
-0.29373494	-0.66437578	2.63107300
-0.29259884	-0.66465181	2.63107276
-0.29071456	-0.66590106	2.63107347
-0.28664106	-0.66654480	2.63107181
-0.28499869	-0.66692084	2.63107133
-0.28294969	-0.66719997	2.63107061
-0.28267220	-0.66771263	2.63107109
-0.28178734	-0.66789275	2.63107085
-0.28044617	-0.66827196	2.63107061
-0.27948895	-0.66886151	2.63107109
-0.27792454	-0.66951358	2.63107109
-0.27634591	-0.67042726	2.63107157
-0.27382466	-0.67057383	2.63107014
-0.27318695	-0.67166132	2.63107157
-0.27138555	-0.67175281	2.63107038
-0.27080429	-0.67209911	2.63107061
-0.27033371	-0.67255992	2.63107109
-0.26772994	-0.67276895	2.63106966
-0.26448882	-0.67297029	2.63106799
-0.25694922	-0.67349458	2.63106394
-0.25470519	-0.67422378	2.63106370
-0.23528878	-0.67510742	2.63105273
-0.23038521	-0.67459643	2.63104868
-0.20243314	-0.66612148	2.63101697
-0.19010597	-0.66086495	2.63100052
-0.16769555	-0.64464861	2.63095975
-0.13287678	-0.60671830	2.63087606
-0.13162886	-0.60519111	2.63087273
-0.12838909	-0.60101169	2.63086390
-0.12791876	-0.60037720	2.63086247
