//X	Y	Z
-0.56917477	0.21871404	1.30441082
-0.57097459	0.21634163	1.30439842
-0.57957685	0.20249437	1.30433393
-0.59529734	0.17121196	1.30420232
-0.59578276	0.16989133	1.30419755
-0.59628391	0.16849625	1.30419242
-0.60357970	0.14220861	1.30410469
-0.60631776	0.13094121	1.30406857
-0.60889983	0.11526948	1.30402303
-0.60908335	0.11376558	1.30401886
-0.60917342	0.11238077	1.30401540
-0.61038405	0.10540570	1.30399489
-0.61059910	0.10375360	1.30399036
-0.61071962	0.10254608	1.30398715
-0.61046505	0.10214071	1.30398715
-0.61058456	0.10126075	1.30398476
-0.61040878	0.10048262	1.30398369
-0.63901210	-0.07017893	1.30348611
-0.63927788	-0.07078790	1.30348372
-0.63959217	-0.07194429	1.30347979
-0.64009339	-0.07333916	1.30347478
-0.64088166	-0.07480232	1.30346835
-0.64204288	-0.08090225	1.30345011
-0.64246631	-0.08225195	1.30344534
-0.64283240	-0.08269054	1.30344296
-0.64312971	-0.08344766	1.30344009
-0.64330208	-0.08393723	1.30343831
-0.64415348	-0.08569676	1.30343103
-0.64455670	-0.08791246	1.30342448
-0.64472902	-0.08840220	1.30342269
-0.64477855	-0.09151900	1.30341542
-0.64478528	-0.09347342	1.30341101
-0.64475149	-0.09715988	1.30340278
-0.64454079	-0.10129685	1.30339420
-0.64334309	-0.12066869	1.30335486
-0.64307833	-0.12262911	1.30335140
-0.64170527	-0.12707001	1.30334651
-0.64109713	-0.12837631	1.30334592
-0.64053512	-0.12957960	1.30334544
-0.63931757	-0.13186708	1.30334485
-0.62195086	-0.16078369	1.30334616
-0.61511201	-0.16804931	1.30335593
-0.60672557	-0.17637157	1.30336928
-0.58260846	-0.19982041	1.30340898
-0.58133233	-0.20087124	1.30341148
-0.55919373	-0.21568504	1.30346310
-0.55787033	-0.21651359	1.30346632
-0.44059697	-0.26925975	1.30379808
-0.43280637	-0.27269232	1.30382025
-0.43004918	-0.27383077	1.30382836
-0.42601031	-0.27439111	1.30384254
-0.42282969	-0.27417973	1.30385530
-0.42111430	-0.27380675	1.30386281
-0.42105126	-0.27351037	1.30386364
-0.41933587	-0.27313739	1.30387115
-0.41762060	-0.27276427	1.30387855
-0.41755754	-0.27246785	1.30387950
-0.41641551	-0.27190581	1.30388522
-0.41635919	-0.27132013	1.30388677
-0.41514838	-0.27107644	1.30389190
-0.41375065	-0.27059433	1.30389845
-0.41182584	-0.27019823	1.30390668
-0.41116476	-0.26965326	1.30391049
-0.40749416	-0.26906133	1.30392599
-0.40519542	-0.26818857	1.30393684
-0.40475160	-0.26770484	1.30393958
-0.23448816	-0.24342409	1.30465031
-0.20564730	-0.23986803	1.30476940
-0.20448487	-0.24017212	1.30477321
-0.20332260	-0.24047606	1.30477691
-0.20138314	-0.24033117	1.30478477
-0.20123781	-0.24092992	1.30478394
-0.20068026	-0.24119307	1.30478549
-0.14543235	-0.23366643	1.30501533
-0.14249162	-0.23330101	1.30502748
-0.14217398	-0.23341002	1.30502844
-0.11224855	-0.22347391	1.30516624
-0.10552236	-0.22069420	1.30519843
-0.10184060	-0.21908790	1.30521619
-0.08933649	-0.21190016	1.30528069
-0.08529993	-0.20862569	1.30530369
-0.07051411	-0.19647688	1.30538821
-0.06135855	-0.18420094	1.30545127
-0.04948644	-0.16684374	1.30553639
-0.04755165	-0.16351482	1.30555141
-0.04310721	-0.15448165	1.30558896
-0.04130979	-0.15051615	1.30560493
-0.01736772	-0.08987595	1.30583477
-0.01396310	-0.08091971	1.30586827
-0.01357114	-0.07971819	1.30587244
-0.01336731	-0.07908028	1.30587471
-0.01175673	-0.07311160	1.30589437
-0.00865050	-0.06075244	1.30593443
-0.00476310	-0.03576720	1.30600607
-0.00444326	-0.03298166	1.30601370
-0.00418770	-0.02633245	1.30602980
-0.00402214	-0.02106801	1.30604231
-0.00380714	-0.01268663	1.30606222
-0.00412045	0.00666991	1.30610490
-0.00458224	0.00994672	1.30611062
-0.00582910	0.01498035	1.30611718
-0.04587385	0.16320838	1.30629957
-0.05658266	0.18176025	1.30630040
-0.05808741	0.18397945	1.30629969
-0.05923852	0.18529771	1.30629826
-0.06018123	0.18631364	1.30629694
-0.06773874	0.19436690	1.30628610
-0.07995230	0.20616716	1.30626583
-0.08217111	0.20823392	1.30626202
-0.08502620	0.21019323	1.30625546
-0.08658955	0.21117598	1.30625165
-0.09514940	0.21643947	1.30623066
-0.09878170	0.21795017	1.30622005
-0.10105911	0.21878046	1.30621326
-0.10349301	0.21919513	1.30620480
-0.12986860	0.22434561	1.30611491
-0.13038439	0.22320193	1.30611038
-0.13402799	0.22369844	1.30609751
-0.13561706	0.22391805	1.30609179
-0.13569595	0.22354758	1.30609071
-0.13620169	0.22309294	1.30608773
-0.13683799	0.22298554	1.30608499
-0.13804770	0.22306733	1.30608058
-0.13962111	0.22336102	1.30607510
-0.30903220	0.25758156	1.30550063
-0.32319313	0.26023018	1.30545211
-0.32368878	0.26046443	1.30545068
-0.32420003	0.26062423	1.30544913
-0.32465738	0.26071739	1.30544758
-0.32537702	0.26117957	1.30544579
-0.32593459	0.26144275	1.30544424
-0.32698771	0.26194018	1.30544138
-0.33582222	0.26398951	1.30541193
-0.33641136	0.26410452	1.30541003
-0.33716151	0.26474416	1.30540860
-0.33830816	0.26512229	1.30540502
-0.34119031	0.26599336	1.30539584
-0.36348966	0.26787299	1.30531430
-0.36536616	0.26802462	1.30530739
-0.36730564	0.26787996	1.30529964
-0.39928544	0.26270574	1.30516469
-0.40487260	0.26174703	1.30514109
-0.52539712	0.23769084	1.30462241
-0.53777617	0.23301212	1.30456412
-0.56763625	0.21953756	1.30441856
