//X	Y	Z
0.33621770	-0.29882610	2.57703781
0.33422512	-0.29692328	2.57702470
0.32883805	-0.29229018	2.57699084
0.32727802	-0.29124427	2.57698202
0.32588345	-0.29015821	2.57697344
0.32519799	-0.28984976	2.57697010
0.32443535	-0.28932184	2.57696581
0.32376873	-0.28877378	2.57696176
0.32331795	-0.28840524	2.57695889
0.32120341	-0.28702062	2.57694697
0.31988603	-0.28615403	2.57693958
0.31352437	-0.28084198	2.57690024
0.31312880	-0.28115278	2.57689977
0.31233919	-0.28062516	2.57689524
0.31205431	-0.28046539	2.57689381
0.31175011	-0.28029627	2.57689214
0.31136885	-0.28015691	2.57689047
0.30955797	-0.27869248	2.57687926
0.30918461	-0.27854329	2.57687759
0.30701521	-0.27672839	2.57686424
0.30623806	-0.27665079	2.57686114
0.30589920	-0.27649170	2.57685947
0.30490214	-0.27602360	2.57685447
0.30459023	-0.27586418	2.57685304
0.30134183	-0.27308452	2.57683253
0.29812610	-0.27126193	2.57681537
0.29762256	-0.27139175	2.57681417
0.29696357	-0.27083400	2.57681012
0.29631293	-0.27051553	2.57680678
0.29586259	-0.27039587	2.57680488
0.29520369	-0.26983818	2.57680082
0.29479563	-0.26969898	2.57679892
0.29424110	-0.26936024	2.57679582
0.29372108	-0.26901162	2.57679296
0.29313189	-0.26868290	2.57678986
0.29180628	-0.26757711	2.57678151
0.29108638	-0.26727849	2.57677817
0.28924900	-0.26606333	2.57676768
0.28841710	-0.26555529	2.57676315
0.28753200	-0.26529670	2.57675934
0.28646553	-0.26484868	2.57675409
0.28573737	-0.26431084	2.57674980
0.28477481	-0.26383293	2.57674503
0.28325751	-0.26301640	2.57673717
0.28253758	-0.26271781	2.57673359
0.28181058	-0.26267761	2.57673097
0.28013846	-0.26142246	2.57672095
0.27985078	-0.26173183	2.57672119
0.27869859	-0.26082525	2.57671404
0.27745870	-0.26017803	2.57670784
0.27706605	-0.26001948	2.57670593
0.27670422	-0.25988930	2.57670426
0.27616501	-0.25953135	2.57670116
0.27483237	-0.25868398	2.57669377
0.27440506	-0.25853547	2.57669187
0.27363515	-0.25826609	2.57668829
0.27315456	-0.25836709	2.57668686
0.27209860	-0.25744027	2.57668018
0.27169076	-0.25730094	2.57667828
0.27131721	-0.25715190	2.57667661
0.27090162	-0.25702226	2.57667470
0.27000809	-0.25652459	2.57666993
0.26939255	-0.25644496	2.57666779
0.26830965	-0.25551847	2.57666087
0.26784831	-0.25562879	2.57665968
0.26739800	-0.25550914	2.57665777
0.26642725	-0.25479198	2.57665205
0.26562989	-0.25427407	2.57664752
0.26513404	-0.25439420	2.57664633
0.26470998	-0.25402549	2.57664347
0.26402479	-0.25371689	2.57664013
0.26369417	-0.25379702	2.57663941
0.26240379	-0.25293016	2.57663202
0.26191831	-0.25257164	2.57662916
0.26092118	-0.25210357	2.57662416
0.25995842	-0.25162584	2.57661939
0.25942788	-0.25175601	2.57661796
0.25876141	-0.25120777	2.57661390
0.25807601	-0.25089931	2.57661033
0.25772947	-0.25074992	2.57660866
0.25664437	-0.25054133	2.57660437
0.25627086	-0.25039232	2.57660246
0.25545770	-0.24964465	2.57659721
0.25501513	-0.24951535	2.57659531
0.25418329	-0.24900731	2.57659078
0.25374055	-0.24887815	2.57658887
0.25325522	-0.24851951	2.57658601
0.25272465	-0.24864969	2.57658458
0.25202349	-0.24811150	2.57658052
0.25171164	-0.24795207	2.57657886
0.25116464	-0.24760383	2.57657576
0.25006366	-0.24716569	2.57657051
0.24941292	-0.24684718	2.57656717
0.24898894	-0.24647848	2.57656455
0.24715173	-0.24526311	2.57655430
0.24650910	-0.24518400	2.57655168
0.24590933	-0.24533409	2.57655025
0.24549325	-0.24495554	2.57654762
0.24475738	-0.24442738	2.57654333
0.24439222	-0.24451742	2.57654238
0.24299747	-0.24343152	2.57653379
0.24268559	-0.24327213	2.57653236
0.24232024	-0.24336229	2.57653141
0.24187768	-0.24323300	2.57652950
0.24125394	-0.24291411	2.57652617
0.24032587	-0.24242634	2.57652140
0.24001402	-0.24226692	2.57651973
0.23939782	-0.24193853	2.57651663
0.23801143	-0.24109173	2.57650900
0.23749143	-0.24074310	2.57650614
0.23712611	-0.24083328	2.57650518
0.23577420	-0.23997661	2.57649755
0.23496634	-0.23993748	2.57649469
0.23357169	-0.23885146	2.57648635
0.23325968	-0.23869219	2.57648468
0.23276381	-0.23881236	2.57648349
0.23186272	-0.23832417	2.57647872
0.23068380	-0.23741785	2.57647157
0.23001716	-0.23686980	2.57646751
0.22957459	-0.23674048	2.57646561
0.22894265	-0.23618239	2.57646155
0.22849986	-0.23605326	2.57645965
0.22816923	-0.23613343	2.57645869
0.22746807	-0.23559523	2.57645464
0.20199549	-0.21091987	2.57628512
0.20143847	-0.21129930	2.57628441
0.20080417	-0.21145926	2.57628274
0.19956423	-0.21081205	2.57627630
0.19920714	-0.21114144	2.57627630
0.19845252	-0.21085289	2.57627273
0.19681273	-0.21030572	2.57626534
0.19618076	-0.20974764	2.57626128
0.19570369	-0.20962822	2.57625914
0.19469818	-0.20892109	2.57625341
0.19358075	-0.20800447	2.57624650
0.19263414	-0.20775612	2.57624245
0.19107410	-0.20671025	2.57623363
0.18592495	-0.20179684	2.57619953
0.18237521	-0.19837892	2.57617617
0.18168980	-0.19807045	2.57617283
0.17793211	-0.19446319	2.57614779
0.16850129	-0.18556543	2.57608581
0.16584308	-0.18361229	2.57607031
0.16531207	-0.18349358	2.57606792
0.16106117	-0.17953748	2.57604027
0.15967460	-0.17869084	2.57603264
0.15933575	-0.17853175	2.57603097
0.15834920	-0.17758487	2.57602453
0.15634893	-0.17569165	2.57601142
0.14820075	-0.16767044	2.57595658
0.02754033	-0.04724874	2.57514191
0.02658007	-0.04605272	2.57513475
0.02439044	-0.04373073	2.57511950
0.02433127	-0.04302293	2.57511687
0.02397668	-0.04263412	2.57511425
0.02370182	-0.04174663	2.57511044
0.02345079	-0.04132824	2.57510829
0.02249055	-0.04013231	2.57510090
0.02158374	-0.03868671	2.57509303
0.01831137	-0.03543808	2.57507086
0.01766299	-0.03440157	2.57506537
0.01642539	-0.03303629	2.57505655
0.01526521	-0.03189036	2.57504869
0.01517975	-0.03143163	2.57504678
0.01485966	-0.03103301	2.57504439
0.01464233	-0.03010672	2.57504058
0.00790805	-0.02318092	2.57499456
0.00751822	-0.02255327	2.57499099
0.00712091	-0.02193514	2.57498765
0.00648074	-0.02113782	2.57498288
0.00619519	-0.02072927	2.57498050
0.00584058	-0.02034049	2.57497787
0.00558971	-0.01992196	2.57497573
0.00546955	-0.01947327	2.57497382
0.00479467	-0.01868598	2.57496881
0.00478895	-0.01772854	2.57496572
0.00335145	-0.01641335	2.57495642
0.00253829	-0.01566567	2.57495093
0.00204460	-0.01506796	2.57494736
0.00164731	-0.01444985	2.57494402
0.00100714	-0.01365253	2.57493901
-0.00004886	-0.01272568	2.57493234
-0.00083613	-0.01148006	2.57492542
-0.00146808	-0.01092201	2.57492137
-0.00199629	-0.01033415	2.57491779
-0.00243653	-0.00948681	2.57491350
-0.00406329	-0.00774261	2.57490206
-0.00533558	-0.00638740	2.57489324
-0.00562097	-0.00597869	2.57489085
-0.00693598	-0.00439410	2.57488108
-0.00758418	-0.00335747	2.57487535
-0.00825903	-0.00257014	2.57487035
-0.00906442	-0.00181280	2.57486510
-0.00942746	-0.00118499	2.57486176
-0.01733460	0.00569014	2.57481170
-0.01881491	0.00723474	2.57480145
-0.02000973	0.00837062	2.57479358
-0.02311970	0.01119012	2.57477355
-0.02323988	0.01163882	2.57477164
-0.02440004	0.01278476	2.57476401
-0.02600047	0.01477799	2.57475185
-0.02788055	0.01622254	2.57474065
-0.03755482	0.02193917	2.57468843
-0.04581572	0.02680941	2.57464385
-0.05068746	0.02965781	2.57461762
-0.05605525	0.03238586	2.57459021
-0.05804978	0.03332165	2.57458019
-0.06148396	0.03485480	2.57456326
-0.08725850	0.04347090	2.57444644
-0.09224114	0.04413523	2.57442713
-0.09554946	0.04426228	2.57441545
-0.11710502	0.04387654	2.57434273
-0.11937334	0.04330628	2.57433701
-0.13855651	0.03776652	2.57428980
-0.14218158	0.03661677	2.57428122
-0.14878310	0.03328083	2.57426977
-0.15486464	0.02959630	2.57426119
-0.15776408	0.02719049	2.57425928
-0.17718415	0.00961371	2.57425141
-0.18587849	0.00072135	2.57425117
-0.20042680	-0.01970389	2.57426953
-0.20220631	-0.02230807	2.57427216
-0.21769296	-0.04847823	2.57430649
-0.21990573	-0.05358577	2.57431602
-0.22761558	-0.06989703	2.57434392
-0.22760968	-0.07085428	2.57434702
-0.22839779	-0.07296906	2.57435155
-0.22926562	-0.07558262	2.57435727
-0.23033336	-0.07824613	2.57436252
-0.23004781	-0.07865468	2.57436490
-0.23159522	-0.08191696	2.57437038
-0.23190135	-0.08271499	2.57437205
-0.23238328	-0.08403175	2.57437468
-0.23265474	-0.08481975	2.57437634
-0.23340830	-0.08692469	2.57438087
-0.23395945	-0.08826140	2.57438350
-0.23482727	-0.09087491	2.57438922
-0.23569515	-0.09348841	2.57439494
-0.23596659	-0.09427638	2.57439661
-0.23627742	-0.09651047	2.57440305
-0.23639187	-0.09701921	2.57440424
-0.23706782	-0.09934334	2.57440972
-0.23671274	-0.09998098	2.57441306
-0.23709849	-0.10127752	2.57441616
-0.23701298	-0.10173625	2.57441783
-0.23765261	-0.10308354	2.57442021
-0.23787852	-0.10363172	2.57442117
-0.23827246	-0.10468905	2.57442355
-0.24033691	-0.10902931	2.57443094
-0.24101061	-0.11063534	2.57443380
-0.24148446	-0.11219156	2.57443738
-0.24187844	-0.11324888	2.57443976
-0.24290343	-0.11614178	2.57444572
-0.24280959	-0.11683956	2.57444835
-0.24341421	-0.11842583	2.57445168
-0.24351221	-0.11941308	2.57445455
-0.24367994	-0.12017126	2.57445669
-0.24342890	-0.12058964	2.57445884
-0.24387634	-0.12189656	2.57446170
-0.24405995	-0.12242523	2.57446289
-0.24553809	-0.12566769	2.57446861
-0.24616902	-0.12750310	2.57447243
-0.24660000	-0.12928846	2.57447696
-0.24647395	-0.13069440	2.57448220
-0.24671088	-0.13147251	2.57448387
-0.24701937	-0.13298857	2.57448792
-0.24757284	-0.13504331	2.57449293
-0.24788958	-0.13632007	2.57449603
-0.24832055	-0.13810545	2.57450056
-0.24855749	-0.13888358	2.57450223
-0.24859399	-0.13986057	2.57450533
-0.24874583	-0.14084829	2.57450819
-0.24982128	-0.14352150	2.57451344
-0.25053194	-0.14585565	2.57451868
-0.25064623	-0.14636424	2.57452011
-0.25084865	-0.14713246	2.57452202
-0.25099403	-0.14932638	2.57452869
-0.25107384	-0.14982507	2.57453012
-0.25185415	-0.15193026	2.57453442
-0.25252211	-0.15449369	2.57454085
-0.25259617	-0.15594985	2.57454538
-0.25270706	-0.15813386	2.57455230
-0.25326049	-0.16018867	2.57455730
-0.25294048	-0.16058727	2.57455969
-0.25337142	-0.16237265	2.57456422
-0.25400251	-0.16420825	2.57456803
-0.25379667	-0.16511552	2.57457185
-0.25399089	-0.16612293	2.57457447
-0.25410175	-0.16830702	2.57458138
-0.25401047	-0.16972294	2.57458639
-0.25405550	-0.17021164	2.57458806
-0.25368446	-0.17107886	2.57459211
-0.25413185	-0.17238583	2.57459497
-0.25395253	-0.17354234	2.57459950
-0.25412026	-0.17430054	2.57460141
-0.25455362	-0.17680395	2.57460833
-0.25423348	-0.17720260	2.57461071
-0.25414801	-0.17766131	2.57461238
-0.25453377	-0.17895789	2.57461548
-0.25422192	-0.17911729	2.57461715
-0.25473028	-0.18068334	2.57462049
-0.25484475	-0.18119211	2.57462192
-0.25578985	-0.18358615	2.57462668
-0.25570437	-0.18404487	2.57462835
-0.25570905	-0.18548092	2.57463312
-0.31605721	-0.34758818	2.57496715
-0.31648338	-0.34793729	2.57496691
-0.31672084	-0.34846652	2.57496786
-0.31715518	-0.34857643	2.57496667
-0.31775749	-0.34944475	2.57496762
-0.31799141	-0.34975353	2.57496786
-0.31849796	-0.35035262	2.57496810
-0.31877768	-0.35090137	2.57496905
-0.31924671	-0.35102132	2.57496786
-0.32015246	-0.35196924	2.57496786
-0.32043216	-0.35251802	2.57496881
-0.32089299	-0.35287714	2.57496834
-0.32122609	-0.35367554	2.57496977
-0.32192141	-0.35409459	2.57496881
-0.32235828	-0.35492271	2.57497025
-0.32279509	-0.35575080	2.57497144
-0.32322946	-0.35586077	2.57497025
-0.32398874	-0.35700831	2.57497144
-0.32430315	-0.35756707	2.57497239
-0.32454059	-0.35809624	2.57497334
-0.32489750	-0.35842556	2.57497311
-0.32581115	-0.35938329	2.57497311
-0.32640553	-0.36024171	2.57497406
-0.32699656	-0.36087990	2.57497406
-0.32747915	-0.36194801	2.57497597
-0.32783327	-0.36180812	2.57497430
-0.32841963	-0.36290595	2.57497597
-0.32890442	-0.36279625	2.57497406
-0.32921875	-0.36335498	2.57497478
-0.32999730	-0.36449313	2.57497597
-0.33041245	-0.36461240	2.57497478
-0.33067679	-0.36514199	2.57497573
-0.33156097	-0.36538118	2.57497358
-0.33251196	-0.36681789	2.57497501
-0.33370578	-0.36807555	2.57497525
-0.33428437	-0.36916369	2.57497668
-0.33457932	-0.36973166	2.57497764
-0.33509111	-0.36962223	2.57497549
-0.33561593	-0.37070984	2.57497740
-0.33613008	-0.37131846	2.57497764
-0.33636752	-0.37184769	2.57497859
-0.33670872	-0.37240666	2.57497931
-0.33708107	-0.37275517	2.57497931
-0.33735317	-0.37329444	2.57498002
-0.33767557	-0.37361383	2.57498002
-0.33805901	-0.37419230	2.57498074
-0.33831996	-0.37450150	2.57498074
-0.33850408	-0.37478125	2.57498097
-0.33904570	-0.37514135	2.57498050
-0.33944455	-0.37573919	2.57498097
-0.34000915	-0.37612814	2.57498050
-0.34055367	-0.37695754	2.57498121
-0.34099624	-0.37682828	2.57497931
-0.34194744	-0.37826517	2.57498097
-0.34322506	-0.37981057	2.57498169
-0.34365964	-0.37992066	2.57498050
-0.34477347	-0.38067940	2.57497931
-0.34556729	-0.38183677	2.57498050
-0.34584695	-0.38238552	2.57498121
-0.34628150	-0.38249564	2.57498026
-0.34679958	-0.38307571	2.57498026
-0.34771207	-0.38453114	2.57498217
-0.34829938	-0.38513121	2.57498217
-0.34882170	-0.38550061	2.57498145
-0.34909812	-0.38582903	2.57498169
-0.34962392	-0.38641891	2.57498193
-0.35005003	-0.38676804	2.57498145
-0.35072958	-0.38741681	2.57498145
-0.35184595	-0.38889378	2.57498240
-0.35203764	-0.38918304	2.57498288
-0.35248274	-0.38977194	2.57498312
-0.35298866	-0.39061981	2.57498431
-0.35354772	-0.39189953	2.57498670
-0.35387057	-0.39203680	2.57498598
-0.35441610	-0.39236847	2.57498527
-0.35496774	-0.39345622	2.57498693
-0.35540986	-0.39357585	2.57498598
-0.35569000	-0.39387566	2.57498598
-0.35607359	-0.39445430	2.57498646
-0.35638779	-0.39501292	2.57498741
-0.35679537	-0.39512265	2.57498622
-0.35725671	-0.39523301	2.57498503
-0.35809341	-0.39616114	2.57498527
-0.35880512	-0.39610177	2.57498264
-0.35962540	-0.39750844	2.57498455
-0.36003345	-0.39736927	2.57498264
-0.36114967	-0.39884597	2.57498384
-0.36134154	-0.39913541	2.57498407
-0.36236978	-0.40035266	2.57498455
-0.36317199	-0.40127099	2.57498503
-0.36356360	-0.40161031	2.57498479
-0.36384326	-0.40215907	2.57498574
-0.36475724	-0.40286773	2.57498479
-0.36528206	-0.40395537	2.57498670
-0.36599609	-0.40461403	2.57498646
-0.36646765	-0.40545213	2.57498765
-0.36709371	-0.40585130	2.57498693
-0.36773050	-0.40672952	2.57498765
-0.36804470	-0.40728813	2.57498837
-0.36855078	-0.40813607	2.57498956
-0.36899334	-0.40800685	2.57498741
-0.36978731	-0.40916443	2.57498860
-0.37042391	-0.41004235	2.57498932
-0.37086082	-0.41087043	2.57499075
-0.37136686	-0.41171849	2.57499170
-0.37166584	-0.41225794	2.57499242
-0.37208092	-0.41237718	2.57499146
-0.37244907	-0.41293651	2.57499218
-0.37302387	-0.41405332	2.57499385
-0.37340826	-0.41413409	2.57499290
-0.37385082	-0.41400480	2.57499099
-0.37454039	-0.41538125	2.57499313
-0.37523636	-0.41555154	2.57499123
-0.37595057	-0.41621041	2.57499099
-0.37649924	-0.41682890	2.57499123
-0.37669107	-0.41711837	2.57499146
-0.37753588	-0.41780713	2.57499099
-0.37804192	-0.41865516	2.57499194
-0.37837255	-0.41873527	2.57499123
-0.37907857	-0.41963339	2.57499170
-0.37960088	-0.42000282	2.57499123
-0.38110888	-0.42181897	2.57499218
-0.38185760	-0.42248774	2.57499170
-0.38250244	-0.42312646	2.57499170
-0.38305125	-0.42374516	2.57499194
-0.38381052	-0.42489266	2.57499313
-0.38431659	-0.42574063	2.57499409
-0.38450831	-0.42602992	2.57499456
-0.38489994	-0.42636919	2.57499433
-0.38518780	-0.42667869	2.57499433
-0.38547575	-0.42698818	2.57499433
-0.38634694	-0.42792624	2.57499456
-0.38662660	-0.42847499	2.57499528
-0.38705277	-0.42882419	2.57499504
-0.38740164	-0.42939287	2.57499576
-0.38790774	-0.43024087	2.57499695
-0.38807249	-0.43052971	2.57499719
-0.38856900	-0.43040109	2.57499528
-0.38879544	-0.43070042	2.57499528
-0.38949251	-0.43208647	2.57499766
-0.38973820	-0.43237638	2.57499766
-0.39007699	-0.43221736	2.57499599
-0.39072084	-0.43335387	2.57499766
-0.39107090	-0.43342489	2.57499671
-0.39182195	-0.43481165	2.57499886
-0.39199442	-0.43511027	2.57499909
-0.39252731	-0.43595845	2.57500005
-0.39280748	-0.43625832	2.57500029
-0.39321503	-0.43636802	2.57499909
-0.39408106	-0.43801463	2.57500172
-0.39453134	-0.43789497	2.57499981
-0.39516795	-0.43877292	2.57500052
-0.39555201	-0.43910271	2.57500029
-0.39611658	-0.43949169	2.57499957
-0.39718020	-0.44047025	2.57499933
-0.39777997	-0.44062036	2.57499766
-0.39845127	-0.44150835	2.57499838
-0.39914906	-0.44264564	2.57499981
-0.39960212	-0.44299513	2.57499933
-0.40053439	-0.44419232	2.57500029
-0.40086520	-0.44427264	2.57499933
-0.40123034	-0.44436264	2.57499838
-0.40205884	-0.44553012	2.57499933
-0.40345240	-0.44683757	2.57499909
-0.40476048	-0.44860372	2.57500052
-0.40547472	-0.44926256	2.57500029
-0.40634823	-0.45091864	2.57500267
-0.40678281	-0.45102870	2.57500172
-0.40840736	-0.45407155	2.57500625
-0.40991545	-0.45588773	2.57500720
-0.41126055	-0.45838198	2.57501078
-0.41221154	-0.45981872	2.57501245
-0.41316247	-0.46125549	2.57501388
-0.41354609	-0.46183425	2.57501459
-0.41391125	-0.46192425	2.57501364
-0.41509917	-0.46413910	2.57501698
-0.41554174	-0.46400976	2.57501483
-0.41613579	-0.46511731	2.57501650
-0.41632748	-0.46540654	2.57501698
-0.41664991	-0.46572596	2.57501674
-0.41716421	-0.46633473	2.57501721
-0.41859478	-0.46837026	2.57501912
-0.41973746	-0.47009629	2.57502079
-0.42021704	-0.47069511	2.57502127
-0.42183954	-0.47301999	2.57502341
-0.42228210	-0.47289070	2.57502151
-0.42315334	-0.47382876	2.57502151
-0.42363292	-0.47442752	2.57502198
-0.42529219	-0.47748038	2.57502651
-0.42699677	-0.48102212	2.57503247
-0.42897263	-0.48535156	2.57504010
-0.43074870	-0.48963127	2.57504821
-0.43221062	-0.49335226	2.57505560
-0.43248206	-0.49414018	2.57505751
-0.43910223	-0.51472878	2.57510328
-0.44012371	-0.51929700	2.57511520
-0.44443965	-0.54745287	2.57519436
-0.44402719	-0.55166107	2.57520962
-0.43857414	-0.57161188	2.57529497
-0.43678510	-0.57739437	2.57532024
-0.43085602	-0.59507108	2.57539964
-0.42382780	-0.60839880	2.57546806
-0.39872137	-0.63083756	2.57562900
-0.39081404	-0.63771248	2.57567883
-0.38669690	-0.64027232	2.57570148
-0.38079083	-0.64286047	2.57573032
-0.35883319	-0.65101993	2.57583284
-0.33006001	-0.66078144	2.57596374
-0.16438743	-0.70571446	2.57668090
-0.16099596	-0.70701826	2.57669687
-0.13499147	-0.71150541	2.57680082
-0.11020146	-0.71270269	2.57688975
-0.09185627	-0.71120268	2.57694745
-0.06896168	-0.70919442	2.57701921
-0.06728487	-0.70901352	2.57702446
-0.06382756	-0.70862198	2.57703495
-0.03588742	-0.70232725	2.57710958
-0.00737236	-0.69301987	2.57717609
0.00117278	-0.69015115	2.57719588
0.00396344	-0.68921149	2.57720232
0.04508398	-0.67437780	2.57729363
0.07990929	-0.66036850	2.57736611
0.09017090	-0.65612185	2.57738709
0.09347586	-0.65457344	2.57739329
0.11307794	-0.64508474	2.57742858
0.11541784	-0.64377660	2.57743239
0.11768852	-0.64248830	2.57743573
0.15610053	-0.61990994	2.57749200
0.17324227	-0.60552669	2.57750273
0.29840100	-0.49757928	2.57757115
0.32690811	-0.47316432	2.57758737
0.32850173	-0.47180665	2.57758832
0.32886690	-0.47171667	2.57758927
0.33585918	-0.46564776	2.57759285
0.33640799	-0.46502912	2.57759285
0.34521914	-0.45490998	2.57758927
0.35543847	-0.44131956	2.57757878
0.35708773	-0.43899441	2.57757664
0.36363953	-0.42632431	2.57755685
0.36422539	-0.42497754	2.57755446
0.36514646	-0.42211455	2.57754803
0.37099683	-0.40315235	2.57750487
0.37225652	-0.39469448	2.57748103
0.37358296	-0.36992168	2.57740283
0.37141281	-0.35274071	2.57733822
0.36393529	-0.33593279	2.57725644
0.36297733	-0.33401877	2.57724690
0.36185423	-0.33214474	2.57723665
0.35599548	-0.32259572	2.57718468
0.34303743	-0.30621070	2.57708573
0.33812177	-0.30073962	2.57705069
