//X	Y	Z
-0.29731861	-0.25778416	3.24930716
-0.29145381	-0.26053596	3.24930668
-0.28868276	-0.26140970	3.24930668
-0.26778290	-0.26381436	3.24930549
-0.20635796	-0.25890946	3.24930239
-0.19896694	-0.25791448	3.24930191
-0.19311026	-0.25683805	3.24930167
-0.15298605	-0.24480179	3.24930000
0.00529373	-0.19415161	3.24929309
0.00699055	-0.19345333	3.24929309
0.00847292	-0.19266891	3.24929285
0.01535764	-0.18892078	3.24929261
0.01668146	-0.18810254	3.24929261
0.02200854	-0.18430820	3.24929237
0.02381194	-0.18277782	3.24929237
0.02621973	-0.17934020	3.24929237
0.02767065	-0.17476279	3.24929237
0.02872512	-0.17010078	3.24929261
0.02739719	-0.16627705	3.24929261
0.02742824	-0.16461432	3.24929285
0.02827832	-0.15567483	3.24929309
0.02828452	-0.15229715	3.24929309
0.02751485	-0.15209249	3.24929309
0.02752104	-0.14871484	3.24929333
0.02726889	-0.14821348	3.24929333
0.02570689	-0.14352521	3.24929357
0.02538797	-0.14170717	3.24929357
0.02461851	-0.14150259	3.24929357
0.02349228	-0.13906458	3.24929380
0.02356103	-0.13781717	3.24929380
0.02310863	-0.13768032	3.24929380
0.02294177	-0.13381812	3.24929380
0.02126941	-0.13077566	3.24929404
0.02109647	-0.13029118	3.24929404
0.02055413	-0.12887299	3.24929428
0.01981172	-0.12781936	3.24929428
0.00325890	0.04249930	3.24930024
0.00481397	0.04534478	3.24930024
0.00601910	0.04834557	3.24930024
0.00629856	0.04869317	3.24930024
0.00753647	0.05160638	3.24930024
0.00796412	0.05318441	3.24930024
0.00914195	0.05533623	3.24930024
0.01045123	0.05660515	3.24930024
0.01062824	0.05693430	3.24930024
0.01193751	0.05820324	3.24930024
0.01261736	0.05927987	3.24930024
0.01479805	0.06150390	3.24930000
0.01547790	0.06258053	3.24930000
0.01784821	0.06643347	3.24930000
0.01809399	0.06801002	3.24930024
0.01903017	0.06939889	3.24930024
0.01907177	0.06979727	3.24930024
0.01983489	0.07167067	3.24930024
0.02133779	0.07538212	3.24930024
0.02192399	0.07692631	3.24930024
0.02240105	0.08053012	3.24930024
0.02339539	0.08443075	3.24930024
0.02314061	0.08782387	3.24930048
0.02291515	0.09463002	3.24930072
0.02304226	0.09838913	3.24930072
0.02242473	0.10063790	3.24930096
0.02109660	0.10446167	3.24930096
0.02009790	0.10520307	3.24930120
0.01867768	0.11319973	3.24930143
0.01691769	0.12008744	3.24930167
0.01534535	0.12604000	3.24930191
0.01447545	0.12879017	3.24930215
0.01375620	0.12987918	3.24930215
0.01381457	0.13239089	3.24930215
0.01343092	0.13377517	3.24930239
0.01229021	0.13666382	3.24930239
0.01156235	0.13726680	3.24930263
0.01143090	0.13814968	3.24930263
0.00961274	0.14252564	3.24930286
0.00848256	0.14414993	3.24930286
0.00777780	0.14478827	3.24930286
0.00723562	0.14620642	3.24930310
0.00692725	0.14676011	3.24930310
0.00542386	0.14850441	3.24930310
0.00328854	0.15294807	3.24930334
0.00245240	0.15446928	3.24930358
0.00036529	0.15723330	3.24930382
-0.00013547	0.15904990	3.24930382
-0.00100912	0.16098636	3.24930382
-0.00182216	0.16254294	3.24930406
-0.00198729	0.16465482	3.24930406
-0.00200164	0.16510543	3.24930406
-0.00222689	0.16645592	3.24930406
-0.00359474	0.16813093	3.24930429
-0.00461040	0.17221467	3.24930429
-0.00511512	0.17321756	3.24930453
-0.00615546	0.17356059	3.24930453
-0.00695403	0.17466654	3.24930453
-0.00725836	0.17603385	3.24930477
-0.00729600	0.17644918	3.24930477
-0.00854293	0.17850566	3.24930477
-0.01064692	0.17915641	3.24930501
0.01251036	0.35032147	3.24930882
0.01410703	0.35356534	3.24930882
0.01480142	0.35419130	3.24930882
0.01740559	0.35717973	3.24930882
0.01950700	0.35942069	3.24930859
0.02074753	0.35944220	3.24930859
0.02353914	0.36149549	3.24930859
0.02579495	0.36288902	3.24930835
0.02809914	0.36260283	3.24930835
0.03113253	0.36541897	3.24930835
0.03463945	0.36556965	3.24930811
0.03555229	0.36692318	3.24930811
0.03648449	0.36749840	3.24930811
0.03744777	0.36973631	3.24930811
0.03920080	0.37038234	3.24930787
0.04029158	0.37092367	3.24930787
0.04250975	0.37273246	3.24930787
0.04280772	0.37344304	3.24930787
0.04547839	0.37511492	3.24930787
0.04704005	0.37588245	3.24930763
0.04739881	0.37621307	3.24930763
0.04868090	0.37663299	3.24930763
0.04974838	0.37713891	3.24930763
0.05222945	0.37718198	3.24930739
0.05298855	0.37824166	3.24930739
0.05452705	0.37897375	3.24930739
0.05612633	0.37932593	3.24930739
0.05893864	0.38430625	3.24930739
0.05967048	0.38451698	3.24930739
0.06068601	0.38588893	3.24930739
0.06118394	0.38696411	3.24930739
0.06207845	0.38795459	3.24930716
0.06546202	0.39061540	3.24930716
0.06745773	0.39088294	3.24930716
0.06874364	0.39211655	3.24930716
0.07041582	0.39452976	3.24930692
0.07106840	0.39475742	3.24930692
0.07208385	0.39612937	3.24930692
0.07471693	0.39821655	3.24930692
0.07650997	0.40101117	3.24930692
0.07786482	0.40349224	3.24930692
0.07840049	0.40415207	3.24930692
0.07872156	0.40489799	3.24930692
0.08198644	0.40974140	3.24930692
0.08266231	0.41000438	3.24930692
0.08343989	0.41142708	3.24930692
0.08498046	0.41472325	3.24930692
0.08649804	0.41798401	3.24930692
0.08776167	0.41804087	3.24930692
0.08847658	0.42159390	3.24930692
0.08871839	0.42235681	3.24930692
0.08994855	0.42364258	3.24930692
0.09012543	0.42397180	3.24930692
0.09150364	0.42648807	3.24930692
0.09491029	0.42918429	3.24930668
0.09906730	0.43245429	3.24930668
0.10019970	0.43339396	3.24930668
0.10074155	0.43743157	3.24930668
0.10139823	0.43847281	3.24930668
0.10311182	0.44128442	3.24930668
0.10362671	0.44447288	3.24930668
0.08060099	0.50717783	3.24930978
0.05659062	0.50934720	3.24931121
0.05505608	0.50942874	3.24931121
0.04896173	0.50840300	3.24931145
0.04245254	0.50709891	3.24931192
0.03820962	0.50592387	3.24931192
0.03301625	0.50381070	3.24931216
0.03103988	0.50276476	3.24931240
0.02911954	0.50166661	3.24931240
0.02812723	0.50033003	3.24931240
0.02690119	0.49985787	3.24931240
0.02464522	0.49846438	3.24931240
0.02349450	0.49716166	3.24931264
0.02295889	0.49650180	3.24931264
0.01939364	0.49383941	3.24931264
0.01798658	0.49222443	3.24931264
0.01541349	0.49089867	3.24931288
0.01381027	0.48973283	3.24931288
0.01331624	0.48947135	3.24931288
0.01032425	0.48705354	3.24931288
0.00941140	0.48570001	3.24931288
0.00681997	0.48401123	3.24931312
0.00515194	0.48241162	3.24931312
0.00437831	0.48180258	3.24931312
0.00321311	0.48095047	3.24931312
0.00285433	0.48061979	3.24931312
0.00043981	0.47926021	3.24931312
-0.00044578	0.47875562	3.24931335
-0.00306052	0.47703153	3.24931335
-0.00339615	0.47673625	3.24931335
-0.00373156	0.47644091	3.24931335
-0.00826668	0.47361863	3.24931359
-0.00901703	0.47304490	3.24931359
-0.00951121	0.47278345	3.24931359
-0.01135227	0.47166839	3.24931359
-0.01155247	0.47130388	3.24931359
-0.01370588	0.46992883	3.24931359
-0.01538838	0.46877995	3.24931383
-0.01681855	0.46712956	3.24931383
-0.01853877	0.46639597	3.24931383
-0.01919148	0.46616837	3.24931383
-0.02031508	0.46571460	3.24931383
-0.02117178	0.46430880	3.24931383
-0.02121342	0.46391040	3.24931383
-0.02251888	0.46345523	3.24931407
-0.02378653	0.46258464	3.24931407
-0.02429900	0.46196017	3.24931407
-0.02555630	0.45982534	3.24931407
-0.02656759	0.45926699	3.24931407
-0.02674466	0.45893779	3.24931407
-0.02793302	0.45805040	3.24931407
-0.02811889	0.45723525	3.24931407
-0.02977805	0.45612165	3.24931407
-0.03148790	0.45412371	3.24931407
-0.03166476	0.45379451	3.24931407
-0.03569911	0.44915569	3.24931431
-0.03675622	0.44738540	3.24931431
-0.03946856	0.44531515	3.24931431
-0.04119271	0.44376785	3.24931431
-0.04406359	0.44173148	3.24931455
-0.04589432	0.43935207	3.24931455
-0.19190979	0.34916893	3.24931955
-0.19285651	0.34904441	3.24931955
-0.19392398	0.34853837	3.24931955
-0.19851682	0.34751871	3.24931979
-0.20031229	0.34761572	3.24932003
-0.20224701	0.34696817	3.24932003
-0.20476970	0.34652680	3.24932003
-0.20766963	0.34539175	3.24932027
-0.20848075	0.34519795	3.24932027
-0.21049488	0.34456745	3.24932027
-0.21280292	0.34403992	3.24932051
-0.21341401	0.34421065	3.24932051
-0.21700418	0.34326324	3.24932075
-0.21881814	0.34299725	3.24932075
-0.21928898	0.34277111	3.24932075
-0.22126135	0.34253892	3.24932098
-0.22341099	0.34197760	3.24932098
-0.22648865	0.34165469	3.24932122
-0.23041022	0.34122562	3.24932122
-0.23090442	0.34096414	3.24932146
-0.23242444	0.34059507	3.24932146
-0.23739052	0.33969539	3.24932170
-0.24187106	0.33857113	3.24932194
-0.24323247	0.33816823	3.24932194
-0.24488790	0.33786830	3.24932194
-0.24680433	0.33758387	3.24932218
-0.24944791	0.33676106	3.24932218
-0.25290263	0.33574441	3.24932241
-0.25349045	0.33595052	3.24932241
-0.25805044	0.33484325	3.24932265
-0.26033527	0.33435109	3.24932265
-0.26300204	0.33349290	3.24932289
-0.26509544	0.33287930	3.24932289
-0.26596272	0.33273777	3.24932289
-0.27001992	0.33237797	3.24932313
-0.27112505	0.33228725	3.24932313
-0.27199230	0.33214575	3.24932337
-0.27256575	0.33190125	3.24932337
-0.27686059	0.33159217	3.24932361
-0.27780735	0.33146766	3.24932361
-0.27924809	0.33108163	3.24932361
-0.27971891	0.33085549	3.24932361
-0.28019461	0.33095706	3.24932361
-0.28192914	0.33067405	3.24932384
-0.28371999	0.33044341	3.24932384
-0.28563637	0.33015892	3.24932384
-0.28675979	0.32970518	3.24932408
-0.28802371	0.32964838	3.24932408
-0.29005221	0.32946843	3.24932408
-0.29438868	0.32876098	3.24932432
-0.29689306	0.32868266	3.24932456
-0.29925305	0.32902110	3.24932456
-0.29988259	0.32882884	3.24932456
-0.30508244	0.32879356	3.24932480
-0.30577284	0.32898125	3.24932504
-0.31223160	0.32856148	3.24932528
-0.31286585	0.32869694	3.24932528
-0.31493223	0.32893234	3.24932551
-0.32011282	0.32811877	3.24932575
-0.32112032	0.32837421	3.24932575
-0.32285488	0.32809120	3.24932575
-0.32685596	0.32767910	3.24932599
-0.32909918	0.32758534	3.24932623
-0.33355659	0.32649642	3.24932647
-0.33735740	0.32644886	3.24932647
-0.33874208	0.32601056	3.24932671
-0.34097093	0.32546616	3.24932671
-0.34600177	0.32413274	3.24932694
-0.34818888	0.32398665	3.24932694
-0.35206902	0.32395601	3.24932718
-0.35405588	0.32417449	3.24932742
-0.35745466	0.32310563	3.24932742
-0.35974982	0.32387775	3.24932766
-0.36033368	0.32489753	3.24932766
-0.36444131	0.32365337	3.24932790
-0.36757493	0.32338271	3.24932814
-0.37029779	0.32257682	3.24932814
-0.37207019	0.32270920	3.24932837
-0.37380475	0.32242620	3.24932837
-0.37450942	0.32306451	3.24932837
-0.38472986	0.32043159	3.24932885
-0.38554102	0.32023782	3.24932885
-0.38597041	0.32041010	3.24932885
-0.38815746	0.32026401	3.24932909
-0.39001292	0.31959960	3.24932909
-0.39130563	0.32044405	3.24932933
-0.39225215	0.32031947	3.24932933
-0.39518580	0.32041341	3.24932933
-0.39687872	0.32052875	3.24932957
-0.39798397	0.32043812	3.24932957
-0.40067956	0.32048118	3.24932981
-0.40182233	0.32080579	3.24932981
-0.40274578	0.32071659	3.24932981
-0.40319830	0.32085350	3.24932981
-0.40625918	0.32264397	3.24933004
-0.40971410	0.32162741	3.24933028
-0.41210136	0.32111683	3.24933028
-0.41482025	0.32112461	3.24933052
-0.41519335	0.32124454	3.24933052
-0.41978222	0.32103854	3.24933076
-0.42064965	0.32089710	3.24933076
-0.42264050	0.32030189	3.24933076
-0.42563891	0.31996205	3.24933100
-0.42865163	0.32007286	3.24933124
-0.43207529	0.32071897	3.24933147
-0.43441224	0.32109275	3.24933147
-0.43468779	0.32155889	3.24933147
-0.43774211	0.32127130	3.24933171
-0.43815303	0.32180661	3.24933171
-0.43968755	0.32188821	3.24933171
-0.44567549	0.32169452	3.24933219
-0.44648665	0.32150075	3.24933219
-0.44872987	0.32140696	3.24933219
-0.45075837	0.32122704	3.24933243
-0.45164895	0.32105023	3.24933243
-0.45507652	0.32088268	3.24933267
-0.45738453	0.32035512	3.24933267
-0.45818698	0.32064736	3.24933267
-0.45973021	0.32024294	3.24933290
-0.46098524	0.32067209	3.24933290
-0.46318284	0.32179034	3.24933314
-0.46878719	0.32021242	3.24933338
-0.47311974	0.32031867	3.24933362
-0.47512990	0.32050180	3.24933362
-0.47977471	0.32034802	3.24933386
-0.48074454	0.32018811	3.24933386
-0.48224139	0.31985444	3.24933410
-0.48318398	0.32054353	3.24933410
-0.48460138	0.32019281	3.24933410
-0.48541272	0.31999907	3.24933410
-0.48894686	0.31899947	3.24933434
-0.49463427	0.31662470	3.24933457
-0.49845189	0.31446379	3.24933481
-0.50111204	0.31152755	3.24933481
-0.50210434	0.31019101	3.24933481
-0.50516492	0.30652574	3.24933481
-0.50713086	0.30421555	3.24933481
-0.50789392	0.30234218	3.24933481
-0.50847143	0.30128399	3.24933481
-0.50915122	0.30020732	3.24933481
-0.50975573	0.29830009	3.24933481
-0.51045394	0.29686040	3.24933481
-0.50982851	0.29623896	3.24933481
-0.51232594	0.28862697	3.24933457
-0.51220894	0.28819472	3.24933457
-0.51162511	0.28717494	3.24933457
-0.51273644	0.28370655	3.24933457
-0.51274037	0.28289288	3.24933457
-0.51359731	0.28148708	3.24933457
-0.51419526	0.27750176	3.24933434
-0.51470619	0.27512705	3.24933434
-0.51615053	0.26847163	3.24933434
-0.51714480	0.26457095	3.24933410
-0.61999094	0.12539929	3.24933553
-0.62249923	0.12450727	3.24933553
-0.62409848	0.12415511	3.24933577
-0.62435472	0.12384287	3.24933577
-0.62733388	0.12272470	3.24933577
-0.62995911	0.12226494	3.24933600
-0.63057005	0.12243565	3.24933600
-0.63356185	0.12001782	3.24933600
-0.63585943	0.11822601	3.24933624
-0.63620937	0.11838130	3.24933624
-0.63751888	0.11711245	3.24933624
-0.64207864	0.11600513	3.24933648
-0.64344406	0.11478848	3.24933648
-0.64413440	0.11497619	3.24933648
-0.64571452	0.11384570	3.24933648
-0.64808732	0.11288447	3.24933672
-0.64978433	0.11218622	3.24933672
-0.65122110	0.11261386	3.24933672
-0.65366435	0.11215550	3.24933696
-0.65533257	0.11055598	3.24933696
-0.66024244	0.10960401	3.24933720
-0.66216290	0.10850588	3.24933720
-0.66406393	0.10662936	3.24933720
-0.66677243	0.10537287	3.24933743
-0.66994774	0.10470387	3.24933767
-0.67056274	0.10406096	3.24933767
-0.67158860	0.10395331	3.24933767
-0.67225957	0.10336264	3.24933767
-0.67409676	0.10306128	3.24933767
-0.67537892	0.10264141	3.24933767
-0.68076855	0.10097731	3.24933791
-0.68255132	0.10237395	3.24933815
-0.68649375	0.09901794	3.24933815
-0.69023192	0.09684003	3.24933839
-0.69340730	0.09617106	3.24933863
-0.69503552	0.09672020	3.24933863
-0.69723928	0.09446078	3.24933863
-0.69821316	0.09348724	3.24933863
-0.69943035	0.09350102	3.24933887
-0.70114654	0.09358109	3.24933887
-0.70584989	0.09091566	3.24933910
-0.71148139	0.08848871	3.24933934
-0.71392298	0.08628009	3.24933934
-0.71654582	0.08838426	3.24933958
-0.72625726	0.08010641	3.24933982
-0.72803760	0.07861143	3.24933982
-0.72972012	0.07746249	3.24933982
-0.73220098	0.07741941	3.24934006
-0.73799735	0.07164869	3.24934006
-0.73933542	0.07128100	3.24934030
-0.74044454	0.07037663	3.24934030
-0.74117649	0.07016601	3.24934030
-0.74843198	0.06364612	3.24934053
-0.75506568	0.05569115	3.24934053
-0.75854754	0.04836990	3.24934053
-0.75934160	0.04483381	3.24934053
-0.76112342	0.02986334	3.24934006
-0.76044339	0.02548437	3.24934006
-0.75983453	0.02274956	3.24933982
-0.75759500	0.01657403	3.24933958
-0.75347638	0.00564249	3.24933910
-0.74684817	-0.00069165	3.24933839
-0.74223834	-0.00301430	3.24933815
-0.73804504	-0.00386503	3.24933791
-0.73547435	-0.00510323	3.24933767
-0.73464853	-0.00536020	3.24933767
-0.73211145	-0.00536944	3.24933767
-0.73084378	-0.00449887	3.24933743
-0.72932780	-0.00494342	3.24933743
-0.72873986	-0.00514957	3.24933743
-0.72352946	-0.00637871	3.24933720
-0.72154260	-0.00659715	3.24933696
-0.71402413	-0.00729874	3.24933648
-0.71178091	-0.00720499	3.24933648
-0.70923907	-0.00754191	3.24933624
-0.70679963	-0.00789726	3.24933624
-0.70509219	-0.00846332	3.24933600
-0.70249420	-0.00885257	3.24933600
-0.70101583	-0.00888182	3.24933577
-0.69385618	-0.00991409	3.24933553
-0.69305372	-0.01020628	3.24933529
-0.69204628	-0.01046170	3.24933529
-0.69029713	-0.01062939	3.24933529
-0.68968612	-0.01080017	3.24933529
-0.68896288	-0.01107547	3.24933505
-0.68698001	-0.01210761	3.24933505
-0.67942399	-0.01322447	3.24933457
-0.67653197	-0.01371677	3.24933434
-0.67582327	-0.01354143	3.24933434
-0.67446578	-0.01395217	3.24933434
-0.67186785	-0.01434140	3.24933410
-0.66966623	-0.01464598	3.24933410
-0.66834629	-0.01464142	3.24933386
-0.66793168	-0.01436302	3.24933386
-0.66529208	-0.01435384	3.24933386
-0.65810919	-0.01535076	3.24933338
-0.65643942	-0.01550151	3.24933338
-0.65429378	-0.01575388	3.24933314
-0.65152287	-0.01662757	3.24933290
-0.65004444	-0.01665682	3.24933290
-0.64800143	-0.01692756	3.24933290
-0.64644372	-0.01697378	3.24933267
-0.64244670	-0.01737538	3.24933243
-0.64164418	-0.01766762	3.24933243
-0.63715714	-0.01862141	3.24933219
-0.63544965	-0.01918744	3.24933219
-0.63486183	-0.01939353	3.24933195
-0.63370460	-0.02016880	3.24933195
-0.63025188	-0.02171621	3.24933171
-0.62504554	-0.02375896	3.24933147
-0.60833991	-0.03447399	3.24933028
-0.60600710	-0.03566140	3.24933004
-0.60479361	-0.03648897	3.24933004
-0.60069239	-0.03862244	3.24932957
-0.59992278	-0.03882708	3.24932957
-0.59874713	-0.03923926	3.24932957
-0.59660566	-0.04030525	3.24932933
-0.59391385	-0.04116206	3.24932933
-0.59204781	-0.04176198	3.24932909
-0.59153938	-0.04195115	3.24932909
-0.58951461	-0.04258494	3.24932885
-0.58770478	-0.04313255	3.24932885
-0.58650589	-0.04350941	3.24932885
-0.58303010	-0.04502151	3.24932861
-0.58108485	-0.04563833	3.24932837
-0.57988596	-0.04601521	3.24932837
-0.57627487	-0.04759644	3.24932814
-0.57099783	-0.05014215	3.24932766
-0.54797238	-0.06663758	3.24932599
-0.54276431	-0.07043061	3.24932575
-0.54189706	-0.07028914	3.24932551
-0.53801429	-0.07315020	3.24932528
-0.53288543	-0.07692636	3.24932504
-0.52998304	-0.07868297	3.24932480
-0.52656341	-0.08014272	3.24932456
-0.51983911	-0.08438049	3.24932408
-0.51582366	-0.08441898	3.24932384
-0.51073825	-0.08684319	3.24932337
-0.51020241	-0.08618336	3.24932337
-0.50804639	-0.08770002	3.24932337
-0.50580716	-0.08841989	3.24932313
-0.50174356	-0.09013812	3.24932289
-0.49918723	-0.09092574	3.24932265
-0.49875793	-0.09109794	3.24932265
-0.49569309	-0.09207469	3.24932265
-0.49107051	-0.09309769	3.24932218
-0.48963377	-0.09352534	3.24932218
-0.48524514	-0.09368389	3.24932194
-0.48380837	-0.09411155	3.24932194
-0.48329964	-0.09430078	3.24932170
-0.48201770	-0.09388080	3.24932170
-0.48103333	-0.09417163	3.24932170
-0.47987205	-0.09413318	3.24932170
-0.47720754	-0.09583898	3.24932146
-0.47587514	-0.09453470	3.24932146
-0.47520790	-0.09475778	3.24932146
-0.47283739	-0.09636054	3.24932122
-0.47094014	-0.09529778	3.24932122
-0.46875307	-0.09515171	3.24932098
-0.46770394	-0.09500876	3.24932098
-0.46615505	-0.09554094	3.24932098
-0.46397194	-0.09620853	3.24932075
-0.46263367	-0.09584093	3.24932075
-0.45885125	-0.09615637	3.24932051
-0.45831960	-0.09631018	3.24932051
-0.45500875	-0.09571044	3.24932027
-0.45349270	-0.09615500	3.24932027
-0.44902477	-0.09633049	3.24932003
-0.44558677	-0.09742718	3.24931979
-0.44460243	-0.09771800	3.24931955
-0.44364133	-0.09804408	3.24931955
-0.44194847	-0.09815943	3.24931955
-0.43911085	-0.10034980	3.24931931
-0.43548045	-0.10270941	3.24931908
-0.43473408	-0.10294937	3.24931908
-0.42590612	-0.10783771	3.24931836
-0.42459494	-0.10831915	3.24931836
-0.42184237	-0.10955594	3.24931812
-0.42092311	-0.11028037	3.24931812
-0.41909859	-0.11127868	3.24931788
-0.30969793	-0.24509746	3.24930811
-0.30901170	-0.24609880	3.24930811
-0.30777338	-0.24864127	3.24930787
-0.30646151	-0.25026408	3.24930787
-0.30511680	-0.25197446	3.24930763
-0.30041325	-0.25476471	3.24930739
-0.30067337	-0.25589070	3.24930739
