//X	Y	Z
-0.59117174	0.91317934	1.62730134
-0.59201646	0.91244048	1.62730122
-0.59489048	0.90980148	1.62730074
-0.59541458	0.90864658	1.62730110
-0.59856009	0.90583509	1.62730050
-0.59904641	0.90470874	1.62730086
-0.60058522	0.90367448	1.62730038
-0.60299516	0.90109098	1.62730026
-0.60262513	0.89975762	1.62730134
-0.60521269	0.89871883	1.62730014
-0.60577834	0.89763153	1.62730038
-0.60642326	0.89658314	1.62730050
-0.60823363	0.89537609	1.62729990
-0.61019880	0.89431489	1.62729919
-0.60983264	0.89324212	1.62730014
-0.61070746	0.89211798	1.62730014
-0.61150312	0.89079046	1.62730038
-0.61750776	0.88676757	1.62729859
-0.61733401	0.88564765	1.62729931
-0.61800504	0.88378894	1.62730002
-0.61918533	0.88220292	1.62730014
-0.62126362	0.88089144	1.62729943
-0.62119532	0.87900001	1.62730062
-0.62311506	0.87744653	1.62730014
-0.62467253	0.87508076	1.62730050
-0.62527192	0.87370420	1.62730086
-0.62793112	0.87218320	1.62729990
-0.62950385	0.87085962	1.62729955
-0.63274384	0.86912924	1.62729836
-0.63291705	0.86777931	1.62729907
-0.63383734	0.86698306	1.62729883
-0.63723207	0.86523426	1.62729752
-0.63705444	0.86385375	1.62729847
-0.63875175	0.86306149	1.62729776
-0.64021909	0.86234492	1.62729716
-0.63988686	0.86114728	1.62729812
-0.63970923	0.85976684	1.62729907
-0.64174962	0.85831976	1.62729847
-0.64171904	0.85639977	1.62729967
-0.64300871	0.85430276	1.62729990
-0.64334047	0.85319501	1.62730038
-0.64507169	0.85194916	1.62729990
-0.64570892	0.85054386	1.62730026
-0.64701384	0.84932482	1.62730014
-0.64691174	0.84805143	1.62730098
-0.64877123	0.84743297	1.62730002
-0.65073252	0.84611142	1.62729943
-0.65148675	0.84455192	1.62729979
-0.65181845	0.84344423	1.62730026
-0.65313101	0.84274620	1.62729967
-0.65380591	0.84131229	1.62730014
-0.65476775	0.84058362	1.62729990
-0.65545022	0.83950651	1.62730002
-0.65664971	0.83905876	1.62729943
-0.65638149	0.83702219	1.62730086
-0.65796554	0.83631587	1.62730014
-0.65924430	0.83590698	1.62729955
-0.66101712	0.83489299	1.62729883
-0.66237456	0.83221763	1.62729955
-0.66287947	0.82992446	1.62730050
-0.66266418	0.82840824	1.62730157
-0.66424072	0.82750964	1.62730098
-0.66608125	0.82575297	1.62730074
-0.66601288	0.82369721	1.62730205
-0.66736329	0.82313478	1.62730134
-0.66881144	0.82127988	1.62730145
-0.66927874	0.81901538	1.62730253
-0.66895020	0.81774962	1.62730348
-0.67048895	0.81655085	1.62730312
-0.67157859	0.81414425	1.62730372
-0.67042339	0.81014490	1.62730694
-0.67192066	0.80871433	1.62730670
-0.67302954	0.80777490	1.62730646
-0.67261797	0.80620956	1.62730777
-0.67367381	0.80425668	1.62730813
-0.67369616	0.80302143	1.62730885
-0.67429554	0.80148059	1.62730932
-0.67789799	0.79940742	1.62730801
-0.67755812	0.79752433	1.62730944
-0.67802894	0.79502726	1.62731051
-0.67910779	0.79447311	1.62731016
-0.67849600	0.79210532	1.62731194
-0.67905414	0.79099000	1.62731230
-0.68114364	0.78980279	1.62731147
-0.68307483	0.78903091	1.62731063
-0.68232721	0.78600746	1.62731290
-0.68213779	0.78335220	1.62731457
-0.68313736	0.78259492	1.62731433
-0.68303895	0.78125322	1.62731528
-0.68497014	0.78048146	1.62731433
-0.68492037	0.77725875	1.62731624
-0.68404067	0.77334744	1.62731922
-0.68384767	0.77092493	1.62732077
-0.68385106	0.76888007	1.62732196
-0.68500495	0.76777542	1.62732184
-0.68559241	0.76314765	1.62732410
-0.68530864	0.75512505	1.62732911
-0.68545115	0.75317442	1.62733018
-0.68663216	0.75273895	1.62732959
-0.68744242	0.74981940	1.62733078
-0.68755877	0.74719560	1.62733221
-0.68767524	0.74490035	1.62733352
-0.68764460	0.74298042	1.62733471
-0.68817246	0.74175745	1.62733507
-0.68838722	0.74063939	1.62733555
-0.68886977	0.73925263	1.62733603
-0.68869913	0.73559487	1.62733829
-0.68880069	0.73439872	1.62733901
-0.68905306	0.73308766	1.62733960
-0.68890584	0.73165065	1.62734056
-0.68927884	0.73044598	1.62734091
-0.68909764	0.72913373	1.62734187
-0.69018018	0.72851151	1.62734151
-0.69151092	0.72747260	1.62734115
-0.69133329	0.72609210	1.62734210
-0.69112968	0.72436702	1.62734330
-0.69126886	0.72314203	1.62734389
-0.69187224	0.72202599	1.62734413
-0.69287163	0.72110438	1.62734401
-0.69331658	0.71974629	1.62734449
-0.69341433	0.71861804	1.62734509
-0.69405913	0.71756959	1.62734520
-0.69517934	0.71708310	1.62734473
-0.69627678	0.71519756	1.62734509
-0.69698548	0.71331012	1.62734568
-0.69647431	0.70529950	1.62735081
-0.69777930	0.70424473	1.62735057
-0.69754875	0.70201510	1.62735200
-0.69878203	0.70127821	1.62735164
-0.69901538	0.69882894	1.62735283
-0.69930935	0.69758546	1.62735343
-0.69919568	0.69536602	1.62735474
-0.69932735	0.69394875	1.62735558
-0.69946283	0.69262755	1.62735629
-0.69931567	0.69102609	1.62735724
-0.70029199	0.68870556	1.62735796
-0.70057839	0.68710542	1.62735868
-0.70078164	0.68520594	1.62735975
-0.70189047	0.68410194	1.62735963
-0.70167464	0.68028039	1.62736201
-0.70159388	0.67744756	1.62736368
-0.70188785	0.67636847	1.62736416
-0.70374358	0.67565382	1.62736332
-0.70483327	0.67324716	1.62736392
-0.70654154	0.67060256	1.62736428
-0.70692194	0.66761374	1.62736583
-0.70839298	0.66715771	1.62736511
-0.70871699	0.66552889	1.62736583
-0.70872408	0.66358018	1.62736702
-0.70994985	0.66232222	1.62736690
-0.70995706	0.66053796	1.62736785
-0.71142417	0.65965712	1.62736738
-0.71138978	0.65747654	1.62736869
-0.71154785	0.65557754	1.62736976
-0.71214736	0.65436530	1.62737000
-0.71314675	0.65327924	1.62737000
-0.71391219	0.65217292	1.62737012
-0.71450055	0.65067220	1.62737060
-0.71458673	0.64876229	1.62737167
-0.71465039	0.64726603	1.62737250
-0.71463966	0.64615130	1.62737310
-0.71595955	0.64548111	1.62737262
-0.71615541	0.64338934	1.62737370
-0.71675491	0.64217716	1.62737405
-0.71798801	0.64094698	1.62737393
-0.71857667	0.63993937	1.62737405
-0.71968919	0.63893175	1.62737393
-0.71986258	0.63774639	1.62737453
-0.72194827	0.63662720	1.62737370
-0.72278547	0.63553154	1.62737370
-0.72335112	0.63444424	1.62737393
-0.72433531	0.63280904	1.62737429
-0.72461772	0.63078398	1.62737525
-0.72569275	0.63013375	1.62737489
-0.72598279	0.62862968	1.62737560
-0.72603524	0.62684482	1.62737656
-0.72704566	0.62604731	1.62737644
-0.72795117	0.62519509	1.62737620
-0.72872388	0.62395227	1.62737644
-0.72879577	0.62247956	1.62737727
-0.73131549	0.62185490	1.62737584
-0.73321283	0.62137222	1.62737489
-0.73475170	0.62033790	1.62737441
-0.73519659	0.61897981	1.62737489
-0.73627919	0.61852181	1.62737441
-0.73710865	0.61690521	1.62737477
-0.73748159	0.61570048	1.62737525
-0.73854911	0.61436492	1.62737525
-0.73934484	0.61320174	1.62737536
-0.74009883	0.61164242	1.62737584
-0.74191695	0.61095655	1.62737489
-0.74236560	0.60985893	1.62737525
-0.74284041	0.60795116	1.62737608
-0.74462461	0.60755432	1.62737501
-0.74542797	0.60674798	1.62737501
-0.74598593	0.60513955	1.62737548
-0.74620438	0.60395336	1.62737608
-0.74798101	0.60319990	1.62737525
-0.74924827	0.60217381	1.62737501
-0.74941409	0.60096037	1.62737560
-0.75030386	0.60005641	1.62737548
-0.75272149	0.59799403	1.62737501
-0.75347567	0.59659898	1.62737536
-0.75373185	0.59538424	1.62737584
-0.75437653	0.59400702	1.62737620
-0.75564402	0.59330964	1.62737572
-0.75714493	0.59213960	1.62737536
-0.75814450	0.59138221	1.62737513
-0.75916648	0.58988279	1.62737536
-0.76055443	0.58896303	1.62737489
-0.76065230	0.58783489	1.62737548
-0.76228565	0.58771712	1.62737441
-0.76256824	0.58602083	1.62737525
-0.76270366	0.58453530	1.62737608
-0.76299763	0.58345616	1.62737644
-0.76430273	0.58256578	1.62737608
-0.76487201	0.58157456	1.62737632
-0.76593935	0.58023876	1.62737632
-0.76657647	0.57866931	1.62737679
-0.76700592	0.57626903	1.62737787
-0.76741683	0.57520020	1.62737823
-0.76791775	0.57198894	1.62737978
-0.76843423	0.57031304	1.62738049
-0.76963377	0.56986535	1.62737989
-0.76999164	0.56794739	1.62738073
-0.77134967	0.56774175	1.62737989
-0.77291083	0.56563640	1.62738013
-0.77447212	0.56353128	1.62738025
-0.77479219	0.56147754	1.62738121
-0.77593189	0.56113875	1.62738061
-0.77613103	0.55996919	1.62738121
-0.77724785	0.55987936	1.62738049
-0.91645551	0.58210909	1.62726986
-1.01338923	0.59988338	1.62719154
-1.01735735	0.59756821	1.62719011
-1.05094123	0.59415287	1.62716866
-1.20234179	0.60579640	1.62705588
-1.20943403	0.60684431	1.62705028
-1.21559501	0.61054069	1.62704372
-1.21728516	0.61169702	1.62704194
-1.21841693	0.61199206	1.62704098
-1.21990335	0.61257827	1.62703955
-1.22165751	0.61289561	1.62703812
-1.26644778	0.61827809	1.62700355
-1.26620722	0.62267601	1.62700117
-1.27418208	0.62295634	1.62699544
-1.27712488	0.62467849	1.62699234
-1.28000760	0.62750018	1.62698865
-1.29536963	0.63285303	1.62697470
-1.29890096	0.63488668	1.62697101
-1.31544900	0.60930115	1.62697470
-1.30573237	0.59706813	1.62698865
-1.30412078	0.59348089	1.62699199
-1.30298460	0.59045559	1.62699449
-1.30299556	0.58860320	1.62699556
-1.29868960	0.58436078	1.62700117
-1.29592764	0.58180988	1.62700462
-1.29680634	0.58078188	1.62700462
-1.29506302	0.57877636	1.62700701
-1.29727769	0.57597518	1.62700713
-1.32465148	0.51999491	1.62702107
-1.33018792	0.49989414	1.62702918
-1.32679152	0.49423385	1.62703490
-1.32869911	0.48942897	1.62703633
-1.33214188	0.48332918	1.62703764
-1.42231214	0.33582556	1.62706184
-1.42430735	0.33405042	1.62706161
-1.42530692	0.33345741	1.62706125
-1.42646861	0.33303839	1.62706065
-1.42718887	0.33209693	1.62706065
-1.42869782	0.33144790	1.62706006
-1.42961788	0.33065170	1.62705982
-1.43153012	0.32874143	1.62705958
-1.43263888	0.32747325	1.62705958
-1.43520355	0.32503560	1.62705922
-1.43640685	0.32484841	1.62705851
-1.43735719	0.32350248	1.62705863
-1.43884301	0.32161897	1.62705874
-1.44054413	0.32092279	1.62705791
-1.44184911	0.31986803	1.62705767
-1.44371653	0.32009941	1.62705624
-1.44571924	0.31884533	1.62705553
-1.44683194	0.31783766	1.62705541
-1.44881558	0.31528082	1.62705553
-1.46325171	0.29640394	1.62705660
-1.46425104	0.29564664	1.62705636
-1.46686506	0.29379764	1.62705564
-1.46778524	0.29300141	1.62705541
-1.47269905	0.28628135	1.62705600
-1.52815461	0.21346398	1.62706029
-1.52934647	0.21265957	1.62705994
-1.53127003	0.21136653	1.62705934
-1.53299797	0.21232998	1.62705767
-1.53463912	0.21289763	1.62705612
-1.53563857	0.21214032	1.62705588
-1.53743768	0.21048036	1.62705564
-1.53889394	0.21145198	1.62705398
-1.54169679	0.21176493	1.62705183
-1.54300177	0.21071017	1.62705159
-1.54451060	0.21006122	1.62705088
-1.54574800	0.20974916	1.62705028
-1.54776192	0.20911232	1.62704921
-1.54915404	0.20861751	1.62704849
-1.55077958	0.20814309	1.62704766
-1.55253816	0.20954269	1.62704563
-1.55548024	0.20863083	1.62704408
-1.55815530	0.21062168	1.62704098
-1.55972052	0.20894137	1.62704098
-1.56176865	0.20801535	1.62704003
-1.56377530	0.20718613	1.62703907
-1.56517875	0.20747289	1.62703800
-1.56678915	0.20595631	1.62703776
-1.56810951	0.20594367	1.62703681
-1.56938446	0.20543864	1.62703621
-1.57166982	0.20413616	1.62703538
-1.57291138	0.20474207	1.62703419
-1.57415247	0.20452625	1.62703347
-1.57516694	0.20398936	1.62703300
-1.57648396	0.20470232	1.62703168
-1.57772100	0.20406151	1.62703121
-1.58000302	0.20332021	1.62703001
-1.58146286	0.20241144	1.62702954
-1.58285809	0.20283887	1.62702835
-1.58497834	0.20422903	1.62702608
-1.58663106	0.20541412	1.62702417
-1.58810592	0.20521855	1.62702322
-1.58965611	0.20496589	1.62702239
-1.59316087	0.20237297	1.62702143
-1.59690762	0.20575839	1.62701678
-1.59997880	0.20827228	1.62701321
-1.60206521	0.20995161	1.62701070
-1.60441566	0.21110165	1.62700832
-1.60569811	0.21095335	1.62700760
-1.60652447	0.21171018	1.62700653
-1.60889721	0.21178937	1.62700486
-1.61424732	0.21577132	1.62699878
-1.62161636	0.22398752	1.62698865
-1.62417459	0.22613269	1.62698567
-1.62685716	0.22864458	1.62698233
-1.62915480	0.22894549	1.62698054
-1.63133144	0.22897577	1.62697899
-1.63254201	0.22865215	1.62697828
-1.63490391	0.23041946	1.62697566
-1.63593364	0.22944105	1.62697542
-1.63804650	0.23031014	1.62697351
-1.63979673	0.23036700	1.62697220
-1.64116621	0.23094299	1.62697089
-1.64826667	0.23514611	1.62696350
-1.65800154	0.24423522	1.62695122
-1.66088367	0.24458715	1.62694907
-1.66338110	0.24519762	1.62694693
-1.66767371	0.24372339	1.62694478
-1.67042351	0.24302283	1.62694323
-1.67412496	0.24608022	1.62693894
-1.67536199	0.24560392	1.62693834
-1.67699957	0.24591106	1.62693703
-1.67934203	0.24654001	1.62693501
-1.68082094	0.24660510	1.62693393
-1.68195271	0.24690023	1.62693298
-1.68447304	0.24890953	1.62693000
-1.68758583	0.25165546	1.62692618
-1.69080734	0.25125635	1.62692416
-1.69171286	0.25205195	1.62692308
-1.69327092	0.25215596	1.62692189
-1.69448185	0.25248992	1.62692082
-1.69620585	0.25335705	1.62691915
-1.69872952	0.25315720	1.62691748
-1.70041227	0.25379252	1.62691593
-1.70669746	0.25884634	1.62690854
-1.70842552	0.25997403	1.62690663
-1.71035671	0.25920218	1.62690580
-1.71323943	0.26202381	1.62690210
-1.71500134	0.26286232	1.62690032
-1.72008634	0.26243412	1.62689710
-1.72210836	0.26248267	1.62689555
-1.72470045	0.26301923	1.62689352
-1.72648144	0.26499614	1.62689102
-1.73061991	0.26600993	1.62688756
-1.73209870	0.26607507	1.62688649
-1.73374343	0.26673907	1.62688494
-1.73706293	0.26521176	1.62688351
-1.73902774	0.26398629	1.62688291
-1.74086094	0.26516867	1.62688088
-1.74230576	0.26568729	1.62687957
-1.74411297	0.26685387	1.62687767
-1.74645603	0.26781154	1.62687540
-1.74736154	0.26860726	1.62687433
-1.74827468	0.26959544	1.62687314
-1.74906325	0.27054521	1.62687194
-1.75027037	0.27061862	1.62687111
-1.75125146	0.27119267	1.62687004
-1.75327015	0.27345037	1.62686729
-1.75628400	0.27222055	1.62686586
-1.75855112	0.27290690	1.62686396
-1.76046777	0.27372691	1.62686205
-1.76267052	0.27294672	1.62686098
-1.76369286	0.27358830	1.62685990
-1.76456082	0.27441269	1.62685883
-1.76590371	0.27349359	1.62685847
-1.76735246	0.27410847	1.62685704
-1.76830316	0.27506784	1.62685585
-1.76975179	0.27535397	1.62685466
-1.77107596	0.27560186	1.62685359
-1.77217746	0.27628225	1.62685239
-1.77407527	0.27826929	1.62684989
-1.77615809	0.27968812	1.62684762
-1.77836514	0.28114527	1.62684524
-1.77995694	0.28096002	1.62684417
-1.78086257	0.28208444	1.62684286
-1.78256369	0.28105971	1.62684226
-1.78422761	0.28319070	1.62683988
-1.78575182	0.28374815	1.62683845
-1.78753996	0.28377634	1.62683725
-1.78930187	0.28461480	1.62683547
-1.79039574	0.28493848	1.62683451
-1.79150128	0.28587952	1.62683320
-1.79277635	0.28553885	1.62683249
-1.79360628	0.28639185	1.62683141
-1.79463267	0.28729403	1.62683010
-1.79649603	0.28710032	1.62682903
-1.79813719	0.28750372	1.62682760
-1.79968357	0.28682604	1.62682688
-1.80113244	0.28776962	1.62682533
-1.80268323	0.28965792	1.62682319
-1.80455828	0.29024610	1.62682152
-1.80716884	0.29060623	1.62681937
-1.80880594	0.29091340	1.62681806
-1.81125426	0.29093534	1.62681639
-1.81285000	0.29101059	1.62681520
-1.81569493	0.29386097	1.62681150
-1.81818867	0.29421085	1.62680960
-1.82302499	0.29518971	1.62680566
-1.82531095	0.29470897	1.62680435
-1.82849836	0.29476348	1.62680209
-1.83030176	0.29566944	1.62680030
-1.83222556	0.29454079	1.62679958
-1.83325183	0.29544294	1.62679827
-1.83550382	0.29525143	1.62679684
-1.83855212	0.29620215	1.62679410
-1.84054017	0.29653990	1.62679255
-1.84496117	0.29585743	1.62678993
-1.84750748	0.29705635	1.62678742
-1.84905028	0.29628244	1.62678671
-1.85207176	0.29557371	1.62678504
-1.85382211	0.29563063	1.62678385
-1.85683966	0.29466134	1.62678230
-1.86362970	0.29379755	1.62677801
-1.86934435	0.29127866	1.62677550
-1.87917757	0.28616554	1.62677169
-1.88415706	0.28634429	1.62676811
-1.88925672	0.28432414	1.62676573
-1.89059246	0.28518933	1.62676430
-1.89396858	0.28477180	1.62676215
-1.89948726	0.28269699	1.62675953
-1.90242195	0.28142828	1.62675822
-1.90431523	0.28068495	1.62675738
-1.90814018	0.27916986	1.62675560
-1.92063260	0.27451241	1.62674963
-1.92451429	0.27410692	1.62674713
-1.92611003	0.27418226	1.62674594
-1.92904091	0.27265304	1.62674475
-1.93186212	0.27163470	1.62674344
-1.93387663	0.27116227	1.62674224
-1.93511748	0.27094626	1.62674153
-1.93651342	0.27071208	1.62674069
-1.93834662	0.27106827	1.62673926
-1.94217539	0.26981372	1.62673724
-1.94610202	0.26759535	1.62673581
-1.94674337	0.26859170	1.62673485
-1.94849014	0.26838803	1.62673366
-1.95152712	0.26805949	1.62673175
-1.95332694	0.26886952	1.62673008
-1.95525789	0.26793313	1.62672925
-1.95698214	0.26880038	1.62672758
-1.95827258	0.26933742	1.62672627
-1.96101856	0.26837641	1.62672496
-1.96225572	0.26806432	1.62672424
-1.96384740	0.26787901	1.62672329
-1.96467757	0.26873225	1.62672222
-1.96714878	0.26801199	1.62672091
-1.96851003	0.26757371	1.62672019
-1.96910286	0.26863909	1.62671912
-1.97033644	0.26823080	1.62671852
-1.97151327	0.26868957	1.62671745
-1.97271287	0.26840621	1.62671673
-1.97402954	0.26846170	1.62671578
-1.97476149	0.26978534	1.62671447
-1.97708178	0.26967293	1.62671292
-1.97891092	0.26943994	1.62671185
-1.98058963	0.26965022	1.62671053
-1.98157454	0.27064908	1.62670922
-1.98450184	0.27132905	1.62670684
-1.98739517	0.27015746	1.62670541
-1.98945856	0.27027345	1.62670398
-1.99175239	0.27031386	1.62670231
-1.99269533	0.27091646	1.62670124
-1.99404955	0.27045029	1.62670064
-1.99561119	0.27081472	1.62669933
-1.99820673	0.27029717	1.62669778
-1.99947739	0.27002913	1.62669706
-2.00073767	0.27045405	1.62669599
-2.00190353	0.27045989	1.62669516
-2.00326538	0.27051485	1.62669408
-2.00531650	0.27018237	1.62669289
-2.00714612	0.27027804	1.62669158
-2.00885892	0.27036363	1.62669027
-2.01022053	0.27058285	1.62668920
-2.01197124	0.27080405	1.62668788
-2.01383853	0.27087110	1.62668657
-2.01500797	0.27080876	1.62668574
-2.01629448	0.27108544	1.62668467
-2.01750135	0.27115864	1.62668383
-2.01923656	0.27033776	1.62668312
-2.02084374	0.27103043	1.62668157
-2.02427626	0.26974583	1.62667990
-2.02505398	0.27057147	1.62667882
-2.02726126	0.27416945	1.62667513
-2.03044128	0.27370286	1.62667322
-2.03452277	0.27360696	1.62667048
-2.03908324	0.27186394	1.62666833
-2.04021502	0.27215892	1.62666726
-2.04361367	0.27067059	1.62666583
-2.04469633	0.27037698	1.62666523
-2.04908705	0.26843196	1.62666333
-2.05034637	0.26853269	1.62666237
-2.05182910	0.26885837	1.62666118
-2.05411482	0.26821327	1.62665987
-2.05636311	0.26792544	1.62665856
-2.05740881	0.26996595	1.62665653
-2.05995107	0.26876360	1.62665546
-2.06134677	0.26869357	1.62665462
-2.06230545	0.26984549	1.62665319
-2.06390071	0.27008516	1.62665200
-2.06496096	0.27053350	1.62665093
-2.06607389	0.27001899	1.62665045
-2.06679797	0.27115029	1.62664926
-2.06785464	0.27166706	1.62664831
-2.06927729	0.27325654	1.62664628
-2.07199669	0.27294153	1.62664461
-2.07391357	0.27376139	1.62664282
-2.07455111	0.27482593	1.62664175
-2.07606363	0.27443761	1.62664092
-2.07738400	0.27442485	1.62663996
-2.08159375	0.27265114	1.62663805
-2.08391714	0.27197748	1.62663686
-2.08534670	0.27145392	1.62663615
-2.08689737	0.27136552	1.62663507
-2.08807039	0.27156377	1.62663424
-2.08940220	0.27216828	1.62663293
-2.09142423	0.27221698	1.62663150
-2.09344983	0.27252614	1.62662983
-2.09526443	0.27190840	1.62662899
-2.09602284	0.27291495	1.62662780
-2.09846330	0.27241564	1.62662637
-2.09964037	0.27303880	1.62662518
-2.10115290	0.27281469	1.62662435
-2.10266972	0.27285111	1.62662315
-2.10483122	0.27216780	1.62662208
-2.10555172	0.27320307	1.62662101
-2.10741901	0.27327019	1.62661970
-2.10893941	0.27356714	1.62661839
-2.11021066	0.27313018	1.62661779
-2.11136508	0.27449548	1.62661612
-2.11300230	0.27480274	1.62661481
-2.11703491	0.27411819	1.62661242
-2.11860442	0.27500385	1.62661076
-2.12244058	0.27427030	1.62660849
-2.12383652	0.27403593	1.62660766
-2.12558270	0.27383220	1.62660658
-2.12706947	0.27441859	1.62660515
-2.12904978	0.27423519	1.62660396
-2.13138866	0.27460361	1.62660205
-2.13237000	0.27517778	1.62660110
-2.13361430	0.27522224	1.62660015
-2.13649273	0.27531356	1.62659812
-2.13821697	0.27618080	1.62659633
-2.14302254	0.27523965	1.62659359
-2.14426756	0.27528447	1.62659264
-2.14623642	0.27448380	1.62659180
-2.14676094	0.27563429	1.62659073
-2.14862823	0.27570140	1.62658942
-2.15049553	0.27576852	1.62658799
-2.15275145	0.27583742	1.62658644
-2.15491676	0.27508593	1.62658536
-2.15705180	0.27488422	1.62658393
-2.15856838	0.27492064	1.62658286
-2.16179729	0.27504265	1.62658060
-2.16556978	0.27514803	1.62657785
-2.16778803	0.27524579	1.62657619
-2.16927433	0.27583194	1.62657487
-2.17132640	0.27533078	1.62657368
-2.17643428	0.27630132	1.62656951
-2.18058372	0.27562714	1.62656701
-2.18321681	0.27491647	1.62656558
-2.18443155	0.27551091	1.62656438
-2.18648362	0.27500981	1.62656331
-2.18834710	0.27481633	1.62656212
-2.18947506	0.27485085	1.62656128
-2.19208169	0.27495044	1.62655938
-2.19715500	0.27374053	1.62655663
-2.19958806	0.27272022	1.62655544
-2.20094967	0.27277517	1.62655449
-2.20536709	0.27183211	1.62655199
-2.20753217	0.27108067	1.62655091
-2.21152687	0.27042478	1.62654853
-2.22656965	0.26525044	1.62654102
-2.23518896	0.26201260	1.62653697
-2.24167252	0.25897622	1.62653422
-2.25701165	0.24540979	1.62653148
-2.26336288	0.23885167	1.62653089
-2.26812077	0.22737491	1.62653434
-2.26928139	0.22201645	1.62653673
-2.26956320	0.21768594	1.62653911
-2.26947570	0.19713563	1.62655139
-2.26913786	0.18793958	1.62655699
-2.26871848	0.18601763	1.62655842
-2.26829195	0.18357462	1.62656021
-2.26029277	0.09462100	1.62661850
-2.25175595	-0.00383812	1.62668276
-2.24838209	-0.04314071	1.62670851
-2.22684908	-0.11251783	1.62676466
-2.22453117	-0.11906099	1.62677014
-2.21317577	-0.13917464	1.62678993
-2.20717955	-0.14721185	1.62679899
-2.20155430	-0.15144604	1.62680542
-2.20057344	-0.15201992	1.62680638
-2.19677401	-0.15378481	1.62681007
-2.19421220	-0.15602607	1.62681329
-2.18653011	-0.16248935	1.62682247
-2.18542862	-0.16333413	1.62682366
-2.17994642	-0.16836840	1.62683058
-2.17872381	-0.16948384	1.62683201
-2.17748284	-0.16926795	1.62683272
-2.17563772	-0.17040586	1.62683475
-2.17180467	-0.17188162	1.62683833
-2.16800165	-0.17390704	1.62684214
-2.16711903	-0.17313945	1.62684238
-2.16291618	-0.17594850	1.62684691
-2.16107106	-0.17708647	1.62684894
-2.15533257	-0.18107027	1.62685525
-2.15138268	-0.18255597	1.62685895
-2.15043974	-0.18315870	1.62685990
-2.14927006	-0.18342507	1.62686086
-2.11763191	-0.21527386	1.62690187
-2.11492276	-0.21697557	1.62690485
-2.11296082	-0.21812361	1.62690687
-2.11172342	-0.21764731	1.62690747
-2.11038041	-0.21903354	1.62690926
-2.10752463	-0.22019565	1.62691188
-2.09392262	-0.23228377	1.62692857
-2.09222841	-0.23370063	1.62693059
-2.09054208	-0.23459643	1.62693226
-2.08597684	-0.23821759	1.62693763
-2.08421111	-0.23915237	1.62693942
-2.08022666	-0.24281877	1.62694442
-2.07916260	-0.24385655	1.62694573
-2.07779717	-0.24400771	1.62694681
-2.07669902	-0.24459195	1.62694788
-2.07423162	-0.24575222	1.62695038
-2.07115650	-0.24869096	1.62695420
-2.06352305	-0.25703537	1.62696445
-1.96973467	-0.36012042	1.62709117
-1.89065766	-0.44975176	1.62719965
-1.87138796	-0.46877545	1.62722433
-1.84517300	-0.49136326	1.62725604
-1.84288704	-0.49071828	1.62725735
-1.84152913	-0.49051261	1.62725818
-1.83971810	-0.49210393	1.62726033
-1.83728540	-0.49042636	1.62726104
-1.83576488	-0.49072331	1.62726223
-1.83433914	-0.49010366	1.62726295
-1.83335459	-0.49077386	1.62726402
-1.83229077	-0.49148282	1.62726521
-1.83075893	-0.49239716	1.62726676
-1.82911026	-0.49167365	1.62726748
-1.82740521	-0.49305043	1.62726951
-1.81431651	-0.50444102	1.62728536
-1.81245291	-0.50441176	1.62728667
-1.81092525	-0.50506556	1.62728810
-1.77740455	-0.53456312	1.62732911
-1.77362776	-0.53739882	1.62733340
-1.75694680	-0.55252194	1.62735403
-1.75549424	-0.55339736	1.62735558
-1.75304914	-0.55562836	1.62735856
-1.74933314	-0.55709386	1.62736201
-1.74812591	-0.55716723	1.62736297
-1.74577188	-0.55841339	1.62736535
-1.74364769	-0.56006414	1.62736785
-1.74183297	-0.56142306	1.62736988
-1.73785591	-0.56506151	1.62737477
-1.73475444	-0.56702566	1.62737811
-1.73232889	-0.56795394	1.62738037
-1.72339058	-0.57491487	1.62739074
-1.70726061	-0.58953345	1.62741077
-1.70040107	-0.59582907	1.62741923
-1.69908834	-0.59529531	1.62741983
-1.69551587	-0.59723204	1.62742352
-1.69403684	-0.59729719	1.62742460
-1.69243741	-0.59763300	1.62742591
-1.69012094	-0.59907234	1.62742841
-1.68904221	-0.59851813	1.62742877
-1.68715191	-0.59998411	1.62743104
-1.68490756	-0.59927148	1.62743211
-1.68240237	-0.60073185	1.62743473
-1.67885172	-0.60406804	1.62743926
-1.67716908	-0.60486782	1.62744081
-1.67547882	-0.60602415	1.62744272
-1.67189050	-0.60933191	1.62744725
-1.67073262	-0.60865223	1.62744761
-1.66734838	-0.61106116	1.62745142
-1.66538644	-0.61220926	1.62745345
-1.65418756	-0.62262684	1.62746751
-1.59857917	-0.67579925	1.62753785
-1.59254646	-0.67870396	1.62754381
-1.58186114	-0.68825972	1.62755692
-1.57308125	-0.69530714	1.62756729
-1.57097995	-0.69539464	1.62756872
-1.56799185	-0.69760913	1.62757218
-1.56602609	-0.69885349	1.62757432
-1.56454349	-0.69934344	1.62757564
-1.56224620	-0.69947994	1.62757730
-1.56112218	-0.69925392	1.62757802
-1.56025422	-0.70007831	1.62757909
-1.55790389	-0.70122838	1.62758136
-1.55662107	-0.70124435	1.62758231
-1.55483317	-0.70127255	1.62758350
-1.55183768	-0.70318639	1.62758684
-1.55046439	-0.70402288	1.62758827
-1.54909110	-0.70485938	1.62758970
-1.54814410	-0.70572275	1.62759089
-1.54568052	-0.70662236	1.62759316
-1.54390717	-0.70807815	1.62759519
-1.54068863	-0.71038127	1.62759888
-1.53895760	-0.70913541	1.62759936
-1.53735411	-0.70973170	1.62760079
-1.53577721	-0.71080983	1.62760258
-1.53338516	-0.71252042	1.62760520
-1.53241944	-0.71188796	1.62760556
-1.53115928	-0.71313912	1.62760711
-1.53012943	-0.71397293	1.62760842
-1.51974189	-0.72434723	1.62762177
-1.51828599	-0.72301340	1.62762201
-1.51649392	-0.72346640	1.62762356
-1.51138127	-0.72782487	1.62762964
-1.50832140	-0.72955716	1.62763286
-1.50653374	-0.72925651	1.62763393
-1.50309277	-0.73079860	1.62763727
-1.50090456	-0.73144597	1.62763917
-1.49903357	-0.73177361	1.62764072
-1.49712467	-0.73190802	1.62764204
-1.49606085	-0.73278147	1.62764335
-1.49507582	-0.73378062	1.62764466
-1.49341214	-0.73541838	1.62764680
-1.49228382	-0.73578167	1.62764776
-1.48945034	-0.73801458	1.62765110
-1.48749232	-0.73890209	1.62765300
-1.48627365	-0.73975706	1.62765431
-1.48455334	-0.74036372	1.62765586
-1.48294997	-0.74096000	1.62765741
-1.47952414	-0.74376518	1.62766147
-1.47510576	-0.74792600	1.62766695
-1.47412467	-0.74850005	1.62766802
-1.47196686	-0.74969721	1.62767017
-1.47026885	-0.75137466	1.62767243
-1.45264792	-0.76947397	1.62769544
-1.44986749	-0.77069330	1.62769806
-1.44837356	-0.77180070	1.62769985
-1.44566059	-0.77376288	1.62770283
-1.44156301	-0.77717894	1.62770772
-1.43823934	-0.77838206	1.62771082
-1.43623221	-0.78002250	1.62771320
-1.43482125	-0.78066605	1.62771451
-1.43353093	-0.78103882	1.62771571
-1.43062580	-0.78295392	1.62771881
-1.42909789	-0.78377193	1.62772036
-1.42773235	-0.78408748	1.62772155
-1.42675138	-0.78466141	1.62772262
-1.42553651	-0.78525591	1.62772381
-1.41945410	-0.79138333	1.62773168
-1.41753423	-0.78982985	1.62773204
-1.41631567	-0.79068482	1.62773347
-1.41504073	-0.79001552	1.62773395
-1.41365981	-0.79137307	1.62773573
-1.41198516	-0.79115844	1.62773669
-1.41054380	-0.79174536	1.62773812
-1.40918946	-0.79144353	1.62773883
-1.40789938	-0.79181629	1.62774003
-1.40640903	-0.79266304	1.62774158
-1.40428889	-0.79372436	1.62774360
-1.40219486	-0.79576051	1.62774634
-1.39956188	-0.79521424	1.62774789
-1.39816606	-0.79497993	1.62774873
-1.39577806	-0.79593700	1.62775087
-1.39384246	-0.79756653	1.62775326
-1.39144659	-0.79970205	1.62775612
-1.38972235	-0.80056924	1.62775791
-1.38728499	-0.80244362	1.62776077
-1.38537228	-0.80283862	1.62776232
-1.38430834	-0.80371207	1.62776351
-1.38258421	-0.80457926	1.62776530
-1.37986434	-0.80442858	1.62776709
-1.37899649	-0.80525297	1.62776816
-1.37766469	-0.80602193	1.62776959
-1.37641609	-0.80599850	1.62777042
-1.37441659	-0.80711794	1.62777245
-1.37283921	-0.80885321	1.62777460
-1.37048483	-0.81026381	1.62777710
-1.36787832	-0.81036341	1.62777901
-1.36505628	-0.81165045	1.62778175
-1.36294758	-0.81225902	1.62778354
-1.36154389	-0.81271023	1.62778485
-1.35985374	-0.81370217	1.62778652
-1.35889184	-0.81313783	1.62778687
-1.35722435	-0.81487191	1.62778914
-1.35523629	-0.81520975	1.62779069
-1.35407782	-0.81518757	1.62779152
-1.35195005	-0.81709886	1.62779415
-1.35051656	-0.81667155	1.62779486
-1.34949791	-0.81721693	1.62779593
-1.34800386	-0.81832421	1.62779760
-1.34543037	-0.82134706	1.62780118
-1.34260464	-0.82305902	1.62780416
-1.34091818	-0.82395488	1.62780595
-1.33734143	-0.82648081	1.62780988
-1.33654904	-0.82736248	1.62781096
-1.33563972	-0.82825434	1.62781215
-1.33212686	-0.83161944	1.62781656
-1.33004487	-0.83040428	1.62781727
-1.32867551	-0.83098024	1.62781858
-1.32558942	-0.83190238	1.62782133
-1.32434452	-0.83194697	1.62782228
-1.32286954	-0.83191586	1.62782323
-1.32111549	-0.83190459	1.62782443
-1.31985903	-0.83289528	1.62782598
-1.31850100	-0.83285403	1.62782681
-1.31692755	-0.83416456	1.62782872
-1.31472790	-0.83559358	1.62783110
-1.31313241	-0.83566886	1.62783229
-1.31191754	-0.83626324	1.62783349
-1.31042373	-0.83671308	1.62783480
-1.30868435	-0.83862233	1.62783718
-1.30623543	-0.84111404	1.62784028
-1.30439818	-0.84173077	1.62784195
-1.30206275	-0.84249616	1.62784410
-1.30036092	-0.84443414	1.62784636
-1.29858446	-0.84351635	1.62784708
-1.29748273	-0.84436119	1.62784839
-1.29630172	-0.84540904	1.62784982
-1.29298890	-0.84846455	1.62785399
-1.28338563	-0.86094785	1.62786806
-1.27926886	-0.86550218	1.62787366
-1.27793694	-0.86627120	1.62787497
-1.27559435	-0.86690015	1.62787700
-1.27435338	-0.86651993	1.62787771
-1.27249682	-0.86860383	1.62788022
-1.27068198	-0.87029141	1.62788248
-1.26902628	-0.86926723	1.62788308
-1.26513243	-0.87211317	1.62788749
-1.26151860	-0.87197649	1.62788987
-1.25943601	-0.87339532	1.62789214
-1.25713086	-0.87405294	1.62789416
-1.25376511	-0.87812197	1.62789893
-1.24729741	-0.88646054	1.62790847
-1.24381089	-0.89063591	1.62791336
-1.23797762	-0.89570051	1.62792039
-1.23639286	-0.89762831	1.62792265
-1.23267674	-0.89909387	1.62792611
-1.23130727	-0.89966983	1.62792742
-1.23047709	-0.90052283	1.62792850
-1.21734881	-0.91962254	1.62794900
-1.21608102	-0.92106616	1.62795079
-1.21362448	-0.92407888	1.62795424
-1.20722818	-0.93289971	1.62796402
-1.17826676	-0.97254014	1.62800765
-1.17594624	-0.97423995	1.62801039
-1.15680277	-1.00267947	1.62804055
-1.14143670	-1.02564907	1.62806499
-1.04843140	-1.16802561	1.62821436
-0.94502848	-1.29942656	1.62836456
-0.94402826	-1.30113900	1.62836623
-0.94327354	-1.30221379	1.62836742
-0.94387674	-1.30349410	1.62836778
-0.85095811	-1.39785254	1.62848866
-0.85077667	-1.39949358	1.62848973
-0.84910500	-1.40198135	1.62849236
-0.84957969	-1.40421772	1.62849343
-0.84903598	-1.40667117	1.62849522
-0.84966552	-1.40876150	1.62849605
-0.84873343	-1.41055942	1.62849772
-0.84365106	-1.41497445	1.62850392
-0.69436359	-1.47007537	1.62864101
-0.63729191	-1.48755825	1.62869132
-0.60394859	-1.48672867	1.62871408
-0.59987968	-1.48091173	1.62871349
-0.59695268	-1.47912180	1.62871456
-0.59110260	-1.47528195	1.62871635
-0.57982892	-1.46779275	1.62871981
-0.57060760	-1.45833516	1.62872064
-0.56715292	-1.45548677	1.62872136
-0.56330198	-1.45316124	1.62872267
-0.56314015	-1.45102978	1.62872148
-0.56172603	-1.44946408	1.62872159
-0.55645680	-1.44583368	1.62872314
-0.55503887	-1.44452858	1.62872338
-0.55424315	-1.44320095	1.62872314
-0.55344743	-1.44187343	1.62872291
-0.55175763	-1.44056022	1.62872326
-0.54995489	-1.43899643	1.62872362
-0.54942697	-1.43793774	1.62872338
-0.54863143	-1.43661010	1.62872314
-0.54593837	-1.43479991	1.62872398
-0.54478425	-1.43402410	1.62872434
-0.54332149	-1.43057728	1.62872326
-0.54188859	-1.42768037	1.62872255
-0.53617084	-1.42295218	1.62872374
-0.53383625	-1.42059064	1.62872398
-0.53241807	-1.41928542	1.62872422
-0.53046846	-1.41718197	1.62872434
-0.52928793	-1.41559601	1.62872422
-0.52966958	-1.41348100	1.62872267
-0.52859455	-1.41266632	1.62872291
-0.52779907	-1.41133881	1.62872279
-0.52555132	-1.40841699	1.62872255
-0.52449548	-1.40629959	1.62872207
-0.52331907	-1.40445304	1.62872183
-0.52279115	-1.40339434	1.62872148
-0.52173156	-1.40153754	1.62872112
-0.52210152	-1.40020418	1.62872016
-0.52037793	-1.39860153	1.62872040
-0.51996702	-1.39753270	1.62872005
-0.51942068	-1.39514267	1.62871897
-0.51940197	-1.39381146	1.62871826
-0.51728606	-1.39247108	1.62871885
-0.51738447	-1.39112949	1.62871802
-0.51581168	-1.38980603	1.62871838
-0.51657790	-1.38794971	1.62871671
-0.51483190	-1.38527632	1.62871635
-0.51449305	-1.38205564	1.62871468
-0.51342601	-1.38071966	1.62871468
-0.51251328	-1.37940252	1.62871456
-0.51258171	-1.37751126	1.62871337
-0.51178592	-1.37618387	1.62871313
-0.50982469	-1.37486219	1.62871373
-0.50886369	-1.37166369	1.62871242
-0.50935042	-1.37032020	1.62871134
-0.50930184	-1.36843896	1.62871027
-0.50781202	-1.36681616	1.62871039
-0.50725412	-1.36520779	1.62870979
-0.50649685	-1.36143899	1.62870812
-0.50653881	-1.35873759	1.62870646
-0.50636953	-1.35712695	1.62870562
-0.50658870	-1.35551476	1.62870455
-0.50833642	-1.35061479	1.62870038
-0.50843477	-1.34927320	1.62869954
-0.50893730	-1.34672284	1.62869763
-0.50751501	-1.34600735	1.62869823
-0.50848526	-1.34341621	1.62869596
-0.50688231	-1.34170747	1.62869608
-0.50629824	-1.33928859	1.62869513
-0.50702673	-1.33723927	1.62869334
-0.50636339	-1.33502364	1.62869251
-0.50575638	-1.33400381	1.62869239
-0.50649232	-1.33176231	1.62869048
-0.50736469	-1.32804298	1.62868774
-0.50969326	-1.32318830	1.62868321
-0.51021403	-1.32213402	1.62868214
-0.51073849	-1.32114816	1.62868118
-0.51130098	-1.32002604	1.62868023
-0.51155382	-1.31886744	1.62867928
-0.51196927	-1.31704164	1.62867796
-0.51167530	-1.31596255	1.62867749
-0.46219963	-1.29019547	1.62869692
-0.46041226	-1.28758967	1.62869656
-0.33712649	-1.16607428	1.62871087
-0.33313954	-1.16506159	1.62871301
-0.33198535	-1.16428590	1.62871337
-0.32906222	-1.16223574	1.62871420
-0.32766277	-1.16226196	1.62871516
-0.32532758	-1.16236973	1.62871695
-0.32321489	-1.16323888	1.62871885
-0.32123071	-1.16331613	1.62872028
-0.31853390	-1.16176641	1.62872124
-0.31690812	-1.16129208	1.62872219
-0.31500679	-1.16106987	1.62872338
-0.31376588	-1.16085386	1.62872410
-0.30330324	-1.15365028	1.62872708
-0.30019850	-1.15324092	1.62872910
-0.29741824	-1.15462458	1.62873185
-0.29421520	-1.15555680	1.62873459
-0.29175937	-1.15593553	1.62873662
-0.29081208	-1.15696335	1.62873781
-0.28740174	-1.15872598	1.62874126
-0.28273851	-1.16105473	1.62874591
-0.28095043	-1.16108298	1.62874722
-0.27891660	-1.16356134	1.62875009
-0.25217032	-1.14931917	1.62876034
-0.24923950	-1.14778996	1.62876153
-0.24479234	-1.14629710	1.62876368
-0.24351740	-1.14579201	1.62876427
-0.24212539	-1.14529729	1.62876499
-0.23871559	-1.14459050	1.62876701
-0.23685211	-1.14439702	1.62876809
-0.23218226	-1.14214301	1.62877011
-0.22819155	-1.14106238	1.62877226
-0.22353524	-1.14780915	1.62877953
-0.22131634	-1.15054107	1.62878263
-0.21010542	-1.14899468	1.62878954
-0.20606089	-1.15156150	1.62879395
-0.20073318	-1.15661430	1.62880063
-0.19854110	-1.15752244	1.62880278
-0.19703633	-1.15677702	1.62880337
-0.19386381	-1.15578938	1.62880492
-0.19039714	-1.15619230	1.62880766
-0.18840891	-1.15653014	1.62880921
-0.18709195	-1.15872657	1.62881148
-0.18508142	-1.15799367	1.62881243
-0.17736775	-1.15428877	1.62881565
-0.17612678	-1.15390873	1.62881625
-0.17452723	-1.15440893	1.62881768
-0.17278075	-1.15420508	1.62881875
-0.17118496	-1.15444481	1.62882006
-0.16932535	-1.15399075	1.62882102
-0.16677529	-1.15314507	1.62882233
-0.16527033	-1.15240002	1.62882292
-0.15337354	-1.14740288	1.62882829
-0.15223807	-1.14795828	1.62882948
-0.14779025	-1.14893532	1.62883317
-0.14706939	-1.15029919	1.62883449
-0.14556777	-1.15192747	1.62883651
-0.14298713	-1.15283751	1.62883878
-0.13998801	-1.15319967	1.62884116
-0.13787526	-1.15406871	1.62884307
-0.13207793	-1.15184903	1.62884581
-0.12929404	-1.15085948	1.62884724
-0.11939639	-1.14737713	1.62885213
-0.11186004	-1.14443278	1.62885559
-0.11038888	-1.14414120	1.62885642
-0.10752195	-1.14345086	1.62885809
-0.10553765	-1.14352822	1.62885952
-0.10434180	-1.14298439	1.62886000
-0.09854436	-1.14076471	1.62886274
-0.09715271	-1.14026976	1.62886345
-0.08956707	-1.13807869	1.62886739
-0.08793741	-1.13786459	1.62886846
-0.08591545	-1.13791347	1.62886989
-0.08138514	-1.13671982	1.62887239
-0.07570451	-1.13449013	1.62887502
-0.07187587	-1.13323569	1.62887692
-0.06450182	-1.12995291	1.62888014
-0.06233662	-1.12920153	1.62888122
-0.05067372	-1.12418413	1.62888646
-0.04815394	-1.12372375	1.62888789
-0.04614341	-1.12299073	1.62888885
-0.04488695	-1.12381721	1.62889028
-0.02241737	-1.11571622	1.62890112
-0.01977658	-1.11569118	1.62890303
-0.01830953	-1.11513877	1.62890375
-0.01668674	-1.11687374	1.62890589
-0.01581901	-1.11769807	1.62890697
-0.01368397	-1.11749625	1.62890840
-0.01202750	-1.11910617	1.62891042
-0.00983548	-1.12017834	1.62891257
-0.00881308	-1.12082005	1.62891376
-0.00716430	-1.12190866	1.62891555
-0.00577241	-1.12141407	1.62891614
-0.00451982	-1.12197983	1.62891746
0.00136602	-1.12558866	1.62892365
0.04167145	-1.10255456	1.62893820
0.04391599	-1.10184216	1.62893939
0.04565465	-1.10111725	1.62894011
0.05396068	-1.09782004	1.62894404
0.06003362	-1.09585285	1.62894714
0.06281722	-1.09486318	1.62894845
0.06610286	-1.09362519	1.62895000
0.07223195	-1.09029770	1.62895238
0.07362407	-1.08980322	1.62895298
0.08060968	-1.08651876	1.62895596
0.08324623	-1.08606839	1.62895751
0.08490980	-1.08556545	1.62895834
0.10653311	-1.07112277	1.62896502
0.11754966	-1.05958045	1.62896585
0.12568361	-1.04768586	1.62896454
0.12966186	-1.04104853	1.62896335
0.13403529	-1.02983046	1.62895977
0.13485718	-1.02769268	1.62895906
0.14486927	-0.99665660	1.62894773
0.14791727	-0.98025113	1.62894011
0.14808667	-0.97864068	1.62893927
0.14762813	-0.96917391	1.62893331
0.14721936	-0.96292984	1.62892938
0.14657909	-0.95182186	1.62892234
0.14588672	-0.94233483	1.62891626
0.14442635	-0.94093812	1.62891436
0.14372391	-0.93577355	1.62891078
0.14070100	-0.93137836	1.62890613
0.13999385	-0.92348301	1.62890089
0.13763076	-0.91644758	1.62889504
0.13678527	-0.91455239	1.62889338
0.13583320	-0.90848911	1.62888908
0.13328540	-0.90218598	1.62888360
0.13052040	-0.90184450	1.62888145
0.12972385	-0.90037340	1.62888002
0.12875396	-0.89827573	1.62887812
0.12834615	-0.89680672	1.62887692
0.12801021	-0.89551276	1.62887597
0.12702143	-0.89441764	1.62887466
0.12623304	-0.89346790	1.62887347
0.12496066	-0.88929391	1.62887013
0.12342519	-0.88811916	1.62886834
0.12221032	-0.88752478	1.62886715
0.12125117	-0.88341022	1.62886405
0.12025863	-0.88205433	1.62886262
0.11966205	-0.87875223	1.62886024
0.11701763	-0.87851691	1.62885821
0.11604774	-0.87625492	1.62885618
0.11546618	-0.87383038	1.62885439
0.11443204	-0.87224275	1.62885273
0.11300963	-0.87098181	1.62885094
0.11168927	-0.87099445	1.62884998
0.11024809	-0.87073624	1.62884891
0.10977221	-0.86770475	1.62884676
0.10630101	-0.86457151	1.62884247
0.10489386	-0.86402434	1.62884116
0.10423291	-0.86156076	1.62883925
0.10321063	-0.86091924	1.62883818
0.10233891	-0.85983425	1.62883687
0.09969008	-0.85703301	1.62883341
0.09897298	-0.85592967	1.62883222
0.09709817	-0.85534161	1.62883055
0.09596956	-0.85283726	1.62882829
0.09168804	-0.85245925	1.62882507
0.09016746	-0.85216218	1.62882376
0.08832639	-0.85128474	1.62882197
0.08648545	-0.85189110	1.62882102
0.08587074	-0.85090637	1.62882006
0.08536446	-0.84974349	1.62881899
0.08417600	-0.84833896	1.62881732
0.08217949	-0.84501016	1.62881398
0.08138740	-0.84412873	1.62881291
0.07900947	-0.83868510	1.62880802
0.07661641	-0.83219945	1.62880254
0.07466215	-0.83157247	1.62880075
0.07264674	-0.82710552	1.62879670
0.07130349	-0.82571918	1.62879491
0.06971872	-0.82379156	1.62879264
0.06852990	-0.82238650	1.62879097
0.06792617	-0.82119727	1.62878990
0.06376845	-0.81888062	1.62878561
0.06193495	-0.81852436	1.62878418
0.06132746	-0.81691021	1.62878275
0.05975795	-0.81602460	1.62878108
0.05927080	-0.81468093	1.62878001
0.05725551	-0.81021404	1.62877595
0.05559146	-0.80824745	1.62877357
0.05486685	-0.80662298	1.62877214
0.05283713	-0.80605328	1.62877035
0.05158478	-0.80565196	1.62876928
0.05081862	-0.80379575	1.62876761
0.04993922	-0.80235386	1.62876618
0.04894292	-0.80073768	1.62876451
0.04667121	-0.79715675	1.62876081
0.04444170	-0.79627758	1.62875867
0.04207253	-0.79645884	1.62875712
0.03993767	-0.79666072	1.62875581
0.03840947	-0.79584241	1.62875426
0.03658307	-0.79337317	1.62875152
0.03444028	-0.79305375	1.62874985
0.03318429	-0.79255641	1.62874866
0.03186387	-0.79240471	1.62874758
0.03048652	-0.79130739	1.62874603
0.02872497	-0.79096204	1.62874460
0.02797025	-0.78988743	1.62874341
0.02686858	-0.78904253	1.62874210
0.02566904	-0.78932595	1.62874150
0.02493286	-0.78708416	1.62873960
0.02365726	-0.78511941	1.62873757
0.02248001	-0.78433192	1.62873626
0.02081615	-0.78236544	1.62873399
0.01826209	-0.78064537	1.62873113
0.01699728	-0.77963090	1.62872970
0.01536703	-0.77737504	1.62872720
0.01305443	-0.77619648	1.62872481
0.01188499	-0.77609444	1.62872398
0.01117510	-0.77287799	1.62872159
0.00839096	-0.77189100	1.62871909
0.00789988	-0.76962966	1.62871730
0.00644422	-0.76980841	1.62871647
0.00608492	-0.76810610	1.62871516
0.00380635	-0.76696700	1.62871289
0.00300622	-0.76556408	1.62871158
0.00182921	-0.76494104	1.62871039
0.00085557	-0.76406640	1.62870920
-0.00046104	-0.76252729	1.62870729
-0.00098586	-0.76121241	1.62870622
-0.00253993	-0.76136899	1.62870514
-0.00303423	-0.76016164	1.62870407
-0.00349110	-0.75826848	1.62870264
-0.00414342	-0.75731254	1.62870169
-0.00445735	-0.75577402	1.62870049
-0.00498950	-0.75443101	1.62869930
-0.00639671	-0.75388372	1.62869799
-0.00745696	-0.75327075	1.62869692
-0.00885302	-0.75268340	1.62869561
-0.00967175	-0.75079966	1.62869394
-0.01078898	-0.75056040	1.62869298
-0.01202989	-0.75061214	1.62869215
-0.01263362	-0.74942267	1.62869108
-0.01389790	-0.74807513	1.62868929
-0.01521426	-0.74818420	1.62868845
-0.01588613	-0.74576080	1.62868655
-0.01674312	-0.74473184	1.62868536
-0.01785249	-0.74336594	1.62868381
-0.01887870	-0.74246389	1.62868249
-0.01991224	-0.74021453	1.62868047
-0.02093494	-0.73907983	1.62867904
-0.02172393	-0.73598909	1.62867665
-0.02405518	-0.73614180	1.62867522
-0.02484787	-0.73493135	1.62867391
-0.02640957	-0.73473114	1.62867272
-0.02750021	-0.73219836	1.62867045
-0.02824730	-0.73131615	1.62866938
-0.02983218	-0.72938836	1.62866712
-0.03120953	-0.72829103	1.62866557
-0.03225875	-0.72582573	1.62866330
-0.03305537	-0.72402596	1.62866175
-0.03408182	-0.72279525	1.62866020
-0.03440702	-0.71948457	1.62865806
-0.03607488	-0.71709305	1.62865543
-0.03665239	-0.71492916	1.62865376
-0.03833896	-0.71403319	1.62865210
-0.04040629	-0.71349227	1.62865031
-0.04116470	-0.71232146	1.62864912
-0.04162174	-0.71042812	1.62864769
-0.04399461	-0.71018463	1.62864590
-0.04523665	-0.70562524	1.62864232
-0.04876810	-0.70342720	1.62863851
-0.05021286	-0.70307302	1.62863731
-0.05150300	-0.70270026	1.62863612
-0.05202401	-0.70131731	1.62863493
-0.05216020	-0.70000434	1.62863410
-0.05311501	-0.69878411	1.62863266
-0.05401713	-0.69577938	1.62863028
-0.05526203	-0.69557035	1.62862933
-0.05589998	-0.69450569	1.62862825
-0.05594188	-0.69196862	1.62862670
-0.05689681	-0.69058418	1.62862515
-0.05857545	-0.69004518	1.62862372
-0.05933416	-0.68870974	1.62862241
-0.05992329	-0.68576413	1.62862027
-0.06043315	-0.68302184	1.62861824
-0.06117308	-0.68051952	1.62861621
-0.04645431	-0.50834638	1.62852454
-0.04622477	-0.50563663	1.62852311
-0.04468596	-0.50460225	1.62852359
-0.04131776	-0.50119406	1.62852395
-0.03989965	-0.49988884	1.62852418
-0.03822166	-0.49779373	1.62852407
-0.03705275	-0.49542606	1.62852347
-0.03635162	-0.49301744	1.62852252
-0.03474504	-0.49140465	1.62852275
-0.03450775	-0.48905170	1.62852144
-0.03404456	-0.48636216	1.62852025
-0.03375059	-0.48528302	1.62851977
-0.03175563	-0.48350763	1.62852013
-0.03046960	-0.48115039	1.62851965
-0.02912289	-0.48032755	1.62852013
-0.02908212	-0.47792518	1.62851870
-0.02638519	-0.47654000	1.62851977
-0.02732903	-0.47330332	1.62851715
-0.02673328	-0.47166622	1.62851667
-0.02528518	-0.46981123	1.62851655
-0.02438468	-0.46524239	1.62851441
-0.02447271	-0.45957893	1.62851107
-0.02463943	-0.45634604	1.62850904
-0.02440608	-0.45389676	1.62850773
-0.02399528	-0.45282769	1.62850738
-0.02467114	-0.44932222	1.62850487
-0.02427232	-0.44500190	1.62850249
-0.02497464	-0.44230664	1.62850046
-0.02475995	-0.44118857	1.62849998
-0.02505457	-0.43963343	1.62849879
-0.02491909	-0.43847674	1.62849820
-0.02464098	-0.43388575	1.62849569
-0.02510166	-0.43173188	1.62849414
-0.02411747	-0.43009686	1.62849379
-0.02429539	-0.42805898	1.62849247
-0.02354467	-0.42689663	1.62849236
-0.02290368	-0.42558759	1.62849200
-0.02246284	-0.42396885	1.62849140
-0.02251226	-0.42272300	1.62849057
-0.02128237	-0.42238289	1.62849128
-0.01944178	-0.42079043	1.62849164
-0.01889157	-0.41866106	1.62849069
-0.01747346	-0.41735590	1.62849092
-0.01451647	-0.41501629	1.62849164
-0.01407933	-0.41313720	1.62849081
-0.01224279	-0.41128409	1.62849104
-0.01195240	-0.40994465	1.62849045
-0.01179451	-0.40755260	1.62848914
-0.01101047	-0.40544343	1.62848842
-0.00991327	-0.40355784	1.62848806
-0.00993228	-0.40225530	1.62848723
-0.00868034	-0.40035129	1.62848699
-0.00735295	-0.39822572	1.62848663
-0.00798380	-0.39488375	1.62848425
-0.00718796	-0.39388502	1.62848425
-0.00657350	-0.39289325	1.62848401
-0.00628334	-0.39138937	1.62848341
-0.00520849	-0.39073884	1.62848377
-0.00366193	-0.39006120	1.62848437
-0.00357187	-0.38841194	1.62848353
-0.00339478	-0.38699412	1.62848282
-0.00232750	-0.38582265	1.62848282
-0.00161475	-0.38419586	1.62848234
-0.00109464	-0.38261610	1.62848175
-0.00080460	-0.38127643	1.62848127
-0.00004667	-0.37981331	1.62848091
0.00051129	-0.37820488	1.62848032
0.00089544	-0.37531227	1.62847888
0.00157791	-0.37423503	1.62847877
0.00208277	-0.37177736	1.62847757
0.00256151	-0.36996585	1.62847686
0.00239086	-0.36647224	1.62847471
0.00236797	-0.36507338	1.62847388
0.00214893	-0.36378980	1.62847292
0.00248045	-0.36235332	1.62847233
0.00240451	-0.36010534	1.62847090
0.00307196	-0.35815042	1.62847018
0.00357342	-0.35608977	1.62846935
0.00406700	-0.35466278	1.62846887
0.00387418	-0.35240465	1.62846732
0.00392658	-0.35078412	1.62846649
0.00464314	-0.34941775	1.62846613
0.00477862	-0.34809661	1.62846541
0.00541925	-0.34481078	1.62846398
0.00561851	-0.34265053	1.62846279
0.00591248	-0.34124285	1.62846220
0.00599879	-0.33916885	1.62846100
0.00667006	-0.33780307	1.62846065
0.00661248	-0.33405918	1.62845838
0.00736660	-0.33249986	1.62845802
0.00802630	-0.33002388	1.62845707
0.01012677	-0.32764149	1.62845707
0.01148045	-0.32470578	1.62845623
0.01220012	-0.32096571	1.62845457
0.01492316	-0.31860584	1.62845504
0.01683903	-0.31679171	1.62845540
0.01677841	-0.31542152	1.62845445
0.01980644	-0.31013018	1.62845349
0.01997203	-0.30825925	1.62845254
0.02116752	-0.30771518	1.62845302
0.02145785	-0.30637568	1.62845242
0.02313221	-0.30402005	1.62845218
0.01967049	-0.27657443	1.62843347
0.01972288	-0.27495378	1.62843263
0.01966870	-0.26900083	1.62842906
0.02000749	-0.26578009	1.62842739
0.02034622	-0.26255929	1.62842572
0.02141726	-0.26148415	1.62842584
0.02121282	-0.25827986	1.62842381
0.02171409	-0.25556189	1.62842250
0.02203411	-0.25367242	1.62842155
0.02216595	-0.25209081	1.62842071
0.02237284	-0.25045156	1.62841988
0.02239168	-0.24912040	1.62841916
0.02322876	-0.24802478	1.62841904
0.02309966	-0.24459897	1.62841702
0.02263021	-0.23698449	1.62841213
0.02280670	-0.23342544	1.62841010
0.02239066	-0.22912994	1.62840736
0.01917589	-0.19418716	1.62838435
0.01920944	-0.19175696	1.62838292
0.01911110	-0.19041547	1.62838209
0.02039713	-0.19019881	1.62838280
0.02058440	-0.18281096	1.62837863
0.02034879	-0.17521697	1.62837398
0.02069533	-0.17268163	1.62837267
0.02094764	-0.17137057	1.62837207
0.02098048	-0.16597769	1.62836885
0.02071530	-0.16140324	1.62836599
0.02011025	-0.15511009	1.62836182
0.01932395	-0.14717588	1.62835658
0.02008146	-0.14554814	1.62835622
0.01985049	-0.14084899	1.62835324
0.02035910	-0.13848752	1.62835217
0.02088320	-0.13716841	1.62835181
0.02105254	-0.13555792	1.62835097
0.02187467	-0.13374904	1.62835050
0.02287799	-0.13325226	1.62835085
0.02372605	-0.13030410	1.62834966
0.02554792	-0.12987855	1.62835073
0.02611673	-0.12658212	1.62834918
0.02746713	-0.12585545	1.62834966
0.02908528	-0.12486011	1.62835026
