//X	Y	Z
-0.90210903	0.59203929	2.05846548
-0.90305638	0.59307247	2.05846500
-0.90522194	0.59478909	2.05846357
-0.90892988	0.59326518	2.05846095
-0.91319233	0.59233946	2.05845809
-0.91533518	0.59266007	2.05845666
-0.91696483	0.59244591	2.05845571
-0.91901261	0.59151405	2.05845428
-0.92056698	0.59152460	2.05845308
-0.92258906	0.59157431	2.05845189
-0.92384160	0.59214109	2.05845094
-0.92459249	0.59295672	2.05845046
-0.92909271	0.59231162	2.05844736
-0.93034917	0.59313965	2.05844665
-0.93394750	0.59195709	2.05844426
-0.93546408	0.59199440	2.05844307
-0.93717533	0.59156376	2.05844188
-0.93853331	0.59135675	2.05844116
-0.93970293	0.59162587	2.05844021
-0.94083470	0.59192169	2.05843949
-0.94158918	0.59282714	2.05843902
-0.94371653	0.59210300	2.05843759
-0.94628924	0.59248954	2.05843592
-0.94915628	0.59196872	2.05843401
-0.95008749	0.59161443	2.05843329
-0.95179659	0.59160811	2.05843210
-0.95353919	0.59114248	2.05843091
-0.95444876	0.59220248	2.05843043
-0.95624083	0.59249377	2.05842924
-0.95880187	0.59209663	2.05842757
-0.95980603	0.59423786	2.05842686
-0.96209586	0.59401917	2.05842543
-0.96376717	0.59403950	2.05842423
-0.96570617	0.59379154	2.05842304
-0.96686816	0.59583431	2.05842233
-0.97073472	0.59455484	2.05841970
-0.97215283	0.59554559	2.05841875
-0.97447693	0.59521043	2.05841708
-0.97518390	0.59621572	2.05841660
-0.97693348	0.59592980	2.05841541
-0.97814828	0.59652334	2.05841470
-0.97928083	0.59716189	2.05841398
-0.98122716	0.59726495	2.05841279
-0.98241889	0.59858727	2.05841208
-0.98520225	0.59742612	2.05841017
-0.98757511	0.59750521	2.05840850
-0.98908389	0.59702003	2.05840755
-0.99025351	0.59728920	2.05840659
-0.99141890	0.59712571	2.05840588
-0.99238473	0.59682626	2.05840516
-0.99390471	0.59695327	2.05840421
-0.99506700	0.59687144	2.05840349
-0.99746603	0.59614015	2.05840182
-0.99948031	0.59566754	2.05840039
-1.00851882	0.59222609	2.05839419
-1.01060486	0.59143877	2.05839276
-1.01174009	0.59182441	2.05839181
-1.01278508	0.59156144	2.05839109
-1.01395082	0.59156930	2.05839038
-1.01499581	0.59130627	2.05838966
-1.01636147	0.59162176	2.05838871
-1.01849270	0.59115875	2.05838728
-1.01904678	0.59242886	2.05838704
-1.02114797	0.59251505	2.05838561
-1.02370906	0.59211797	2.05838394
-1.02643347	0.59172559	2.05838203
-1.02736461	0.59221470	2.05838132
-1.02911496	0.59227157	2.05838037
-1.03041339	0.59266186	2.05837941
-1.03192997	0.59269929	2.05837846
-1.03294492	0.59298533	2.05837774
-1.03453660	0.59279788	2.05837655
-1.03602195	0.59287006	2.05837560
-1.03868210	0.59186220	2.05837369
-1.03936172	0.59316373	2.05837345
-1.04173851	0.59350407	2.05837178
-1.04410744	0.59332186	2.05837035
-1.04675722	0.59288794	2.05836844
-1.05012977	0.59237957	2.05836606
-1.05122721	0.59279191	2.05836535
-1.05285335	0.59248799	2.05836439
-1.05443776	0.59194946	2.05836320
-1.05552435	0.59192097	2.05836248
-1.05700660	0.59207475	2.05836153
-1.05839884	0.59175116	2.05836058
-1.05960977	0.59208351	2.05835986
-1.06044376	0.59319675	2.05835938
-1.06512105	0.59146333	2.05835605
-1.06956816	0.58997142	2.05835295
-1.07073390	0.58997941	2.05835223
-1.07329118	0.58932108	2.05835032
-1.07515073	0.58886534	2.05834913
-1.07631266	0.58861202	2.05834842
-1.07957184	0.58818382	2.05834603
-1.08101261	0.58827424	2.05834508
-1.08214056	0.58830887	2.05834436
-1.08373237	0.58812141	2.05834341
-1.08566368	0.58735108	2.05834198
-1.08790016	0.58611435	2.05834031
-1.09110272	0.58457816	2.05833817
-1.09349787	0.58358562	2.05833650
-1.09413612	0.58252817	2.05833602
-1.09545541	0.58200496	2.05833507
-1.09784019	0.58074313	2.05833340
-1.09906983	0.57991409	2.05833244
-1.10092556	0.57919705	2.05833125
-1.10215890	0.57845789	2.05833030
-1.10378075	0.57772130	2.05832934
-1.10647774	0.57617265	2.05832744
-1.10836339	0.57490659	2.05832601
-1.10990226	0.57387239	2.05832481
-1.11253142	0.57289946	2.05832314
-1.11391938	0.57214338	2.05832219
-1.11906028	0.57018775	2.05831861
-1.12045217	0.56969285	2.05831766
-1.12156522	0.56885415	2.05831671
-1.12438619	0.56766611	2.05831480
-1.12437069	0.56662124	2.05831480
-1.12668335	0.56550270	2.05831313
-1.12811267	0.56480962	2.05831218
-1.12903285	0.56401432	2.05831146
-1.12975347	0.56291187	2.05831099
-1.13048458	0.56224990	2.05831051
-1.13156343	0.56169897	2.05830956
-1.13395441	0.56027395	2.05830789
-1.13941431	0.55803996	2.05830407
-1.14075708	0.55695951	2.05830312
-1.14214110	0.55594224	2.05830216
-1.14391005	0.55466640	2.05830097
-1.14501905	0.55356634	2.05830002
-1.14751959	0.55180013	2.05829835
-1.14981365	0.55056161	2.05829668
-1.15289915	0.54901558	2.05829453
-1.15745175	0.54674995	2.05829144
-1.16005409	0.54411989	2.05828953
-1.16286016	0.54205871	2.05828738
-1.16469300	0.53994578	2.05828619
-1.16524708	0.53807646	2.05828571
-1.16681993	0.53675425	2.05828452
-1.16660845	0.53566331	2.05828452
-1.16740799	0.53459710	2.05828404
-1.16727209	0.53345263	2.05828404
-1.16835141	0.53307301	2.05828333
-1.16912007	0.53221321	2.05828261
-1.17000258	0.53144467	2.05828214
-1.17059529	0.52989137	2.05828166
-1.17135692	0.52885193	2.05828094
-1.17304599	0.52719676	2.05827975
-1.17286873	0.52598923	2.05827975
-1.17441452	0.52513468	2.05827880
-1.17551970	0.52377349	2.05827785
-1.17752242	0.52251720	2.05827641
-1.17878819	0.52141362	2.05827546
-1.18009710	0.52062112	2.05827451
-1.18136394	0.51942265	2.05827379
-1.18259752	0.51885480	2.05827284
-1.18316674	0.51785892	2.05827236
-1.18447566	0.51706636	2.05827141
-1.18448710	0.51555389	2.05827141
-1.18726671	0.51413161	2.05826950
-1.18693471	0.51294094	2.05826950
-1.18769288	0.51181161	2.05826902
-1.18873370	0.51111591	2.05826831
-1.18976355	0.50997955	2.05826759
-1.19150233	0.50925273	2.05826640
-1.19249010	0.50771040	2.05826545
-1.19227529	0.50652939	2.05826569
-1.19217718	0.50535834	2.05826569
-1.19402480	0.50394756	2.05826426
-1.19502068	0.50309902	2.05826354
-1.19476795	0.50194484	2.05826378
-1.19688749	0.50069821	2.05826211
-1.19695115	0.49968994	2.05826211
-1.19907117	0.49861470	2.05826068
-1.20012689	0.49649656	2.05825973
-1.20105100	0.49596256	2.05825901
-1.20323861	0.49414027	2.05825758
-1.20521080	0.49096563	2.05825591
-1.20565951	0.48987016	2.05825567
-1.20536470	0.48831010	2.05825567
-1.20722079	0.48776451	2.05825448
-1.20833325	0.48675427	2.05825377
-1.20912158	0.48507580	2.05825305
-1.20898521	0.48376009	2.05825305
-1.21070433	0.48239931	2.05825186
-1.21363521	0.48087022	2.05824971
-1.21400821	0.47982815	2.05824947
-1.21492851	0.47903287	2.05824876
-1.21719527	0.47724700	2.05824709
-1.21729660	0.47621199	2.05824709
-1.21870160	0.47573373	2.05824614
-1.22015595	0.47516891	2.05824494
-1.22049141	0.47415337	2.05824471
-1.22219276	0.47362462	2.05824351
-1.22308064	0.47235024	2.05824280
-1.22512877	0.47158968	2.05824137
-1.22556984	0.46997178	2.05824113
-1.22697639	0.46788293	2.05823994
-1.22621942	0.46510595	2.05824041
-1.22581792	0.46363419	2.05824065
-1.22743344	0.46306077	2.05823946
-1.22879338	0.46225795	2.05823851
-1.22850263	0.46113044	2.05823851
-1.22999024	0.45993498	2.05823755
-1.23063517	0.45888564	2.05823708
-1.23151374	0.45785600	2.05823636
-1.23735321	0.45604062	2.05823231
-1.23720562	0.45411262	2.05823231
-1.23696291	0.45305660	2.05823255
-1.24160671	0.45178229	2.05822921
-1.24275732	0.45091677	2.05822849
-1.24289632	0.44968376	2.05822825
-1.24313402	0.44766846	2.05822802
-1.24354482	0.44659966	2.05822754
-1.24524570	0.44589967	2.05822635
-1.24658477	0.44455788	2.05822539
-1.24734998	0.44131219	2.05822468
-1.24706852	0.43764415	2.05822468
-1.24833965	0.43687829	2.05822396
-1.24953175	0.43607590	2.05822301
-1.24982905	0.43508705	2.05822277
-1.25331771	0.43194985	2.05822015
-1.25314426	0.43083218	2.05822015
-1.25461113	0.43011236	2.05821919
-1.25721347	0.42748249	2.05821729
-1.25745082	0.42529601	2.05821705
-1.26007199	0.42380059	2.05821514
-1.26250100	0.42252019	2.05821347
-1.26282930	0.42115393	2.05821323
-1.26433802	0.42066878	2.05821204
-1.26646137	0.41968316	2.05821061
-1.26682341	0.41802904	2.05821037
-1.26859605	0.41701433	2.05820918
-1.26895809	0.41535988	2.05820870
-1.26956534	0.41450861	2.05820823
-1.27102864	0.41352782	2.05820727
-1.27319717	0.41286671	2.05820584
-1.27309918	0.41169575	2.05820584
-1.27386475	0.41091749	2.05820513
-1.27497733	0.40990731	2.05820441
-1.27598453	0.40967086	2.05820370
-1.27713466	0.40863416	2.05820274
-1.27801335	0.40760431	2.05820227
-1.27904677	0.40655762	2.05820155
-1.27984619	0.40549147	2.05820084
-1.28176212	0.40367630	2.05819941
-1.28336883	0.40206632	2.05819821
-1.28563559	0.40028054	2.05819654
-1.28755546	0.39872652	2.05819535
-1.28777015	0.39761144	2.05819511
-1.29042161	0.39556700	2.05819321
-1.29036486	0.39445904	2.05819321
-1.29103971	0.39286065	2.05819249
-1.29230309	0.39157236	2.05819154
-1.29350579	0.38891500	2.05819058
-1.29344904	0.38780698	2.05819058
-1.29420686	0.38650620	2.05819011
-1.29418409	0.38511047	2.05819011
-1.29497969	0.38378301	2.05818939
-1.29582429	0.38304120	2.05818868
-1.29623866	0.37976626	2.05818820
-1.29835844	0.37851962	2.05818677
-1.29862189	0.37552279	2.05818653
-1.29917979	0.37391451	2.05818605
-1.29942858	0.37251160	2.05818582
-1.30045033	0.37068143	2.05818486
-1.30218148	0.36943221	2.05818367
-1.30306399	0.36866361	2.05818319
-1.30291653	0.36673564	2.05818295
-1.30383718	0.36611176	2.05818248
-1.30434692	0.36426070	2.05818200
-1.30518806	0.36342904	2.05818129
-1.30613077	0.36156237	2.05818057
-1.30654502	0.36058331	2.05818033
-1.30835950	0.35980314	2.05817890
-1.30866861	0.35730219	2.05817866
-1.30841541	0.35597658	2.05817866
-1.30944490	0.35466868	2.05817795
-1.30966330	0.35364339	2.05817771
-1.30952752	0.35249904	2.05817771
-1.31173396	0.35181126	2.05817628
-1.31385946	0.35083944	2.05817485
-1.31516063	0.34952441	2.05817389
-1.31695962	0.34769940	2.05817246
-1.31826067	0.34638444	2.05817151
-1.31902242	0.34534496	2.05817103
-1.32006741	0.34508190	2.05817032
-1.32275653	0.34301087	2.05816841
-1.32404995	0.34117344	2.05816746
-1.32460785	0.33956528	2.05816698
-1.32631612	0.33692029	2.05816555
-1.32788122	0.33507580	2.05816436
-1.32798457	0.33344507	2.05816436
-1.32932937	0.33322155	2.05816340
-1.33061397	0.33264354	2.05816245
-1.33180630	0.33201256	2.05816150
-1.33339393	0.33139256	2.05816054
-1.33539724	0.33047891	2.05815911
-1.33713567	0.32958084	2.05815792
-1.33824897	0.32891339	2.05815721
-1.33940697	0.32839888	2.05815625
-1.34052634	0.32756844	2.05815554
-1.34183574	0.32694718	2.05815458
-1.34232569	0.32591483	2.05815411
-1.34329152	0.32561526	2.05815363
-1.34406042	0.32475552	2.05815291
-1.34576166	0.32422677	2.05815172
-1.34597301	0.32302177	2.05815148
-1.34725153	0.32260698	2.05815077
-1.34845006	0.32181296	2.05814981
-1.34945333	0.32131547	2.05814910
-1.35130525	0.32033727	2.05814791
-1.35191214	0.31931463	2.05814743
-1.35329664	0.31846869	2.05814648
-1.35503149	0.31748071	2.05814505
-1.35552204	0.31661966	2.05814481
-1.35627747	0.31574321	2.05814433
-1.35723639	0.31526411	2.05814362
-1.35878658	0.31484216	2.05814242
-1.37206316	0.31298539	2.05813336
-1.37555623	0.31257674	2.05813098
-1.37721586	0.31181353	2.05813003
-1.37861156	0.31157973	2.05812907
-1.38019216	0.31078005	2.05812788
-1.38232374	0.31048849	2.05812645
-1.38549268	0.30941147	2.05812430
-1.38534093	0.30705091	2.05812407
-1.38649201	0.30635676	2.05812335
-1.38750267	0.30621022	2.05812263
-1.38900292	0.30486000	2.05812168
-1.39011538	0.30384988	2.05812073
-1.39114487	0.30254197	2.05812001
-1.39276671	0.30180553	2.05811882
-1.39327574	0.29961172	2.05811834
-1.39461851	0.29853126	2.05811739
-1.39479554	0.29744288	2.05811715
-1.39499855	0.29537281	2.05811691
-1.39531600	0.29373676	2.05811667
-1.39656365	0.29352826	2.05811596
-1.39662027	0.29234022	2.05811572
-1.39756644	0.29056337	2.05811501
-1.39809430	0.28950435	2.05811453
-1.39897907	0.28831151	2.05811381
-1.39965773	0.28697431	2.05811334
-1.40061951	0.28624225	2.05811262
-1.40092075	0.28321868	2.05811238
-1.40246034	0.28252727	2.05811119
-1.40255451	0.28114122	2.05811119
-1.40699947	0.28091714	2.05810809
-1.40835738	0.28071013	2.05810714
-1.41031885	0.27939069	2.05810571
-1.41458893	0.27355179	2.05810261
-1.41845894	0.27236211	2.05809999
-1.42059398	0.27216041	2.05809855
-1.42237067	0.27140692	2.05809712
-1.42477345	0.27093685	2.05809546
-1.42787385	0.27026415	2.05809355
-1.43195939	0.26813090	2.05809069
-1.43313575	0.26628372	2.05808973
-1.43681383	0.26530898	2.05808711
-1.43968821	0.26513928	2.05808520
-1.44067216	0.26333553	2.05808449
-1.44168305	0.26336041	2.05808377
-1.44465554	0.26206601	2.05808163
-1.44577563	0.26157805	2.05808091
-1.44685030	0.26059455	2.05808020
-1.44949138	0.26057675	2.05807829
-1.45082974	0.25906363	2.05807734
-1.49315977	0.26117751	2.05804896
-1.49466872	0.26069239	2.05804801
-1.49563789	0.26048276	2.05804729
-1.49694693	0.25969014	2.05804634
-1.49766695	0.25841612	2.05804586
-1.50136399	0.25874740	2.05804348
-1.50157857	0.25746095	2.05804324
-1.50313306	0.25747156	2.05804205
-1.50503802	0.25751147	2.05804086
-1.50642598	0.25675538	2.05803990
-1.51405001	0.25700492	2.05803466
-1.51583052	0.25651264	2.05803347
-1.51784468	0.25604001	2.05803227
-1.52187717	0.25535581	2.05802941
-1.52314830	0.25458992	2.05802846
-1.58705354	0.26251066	2.05798602
-1.71260202	0.27989879	2.05790281
-1.71323991	0.28096578	2.05790234
-1.80383241	0.26200029	2.05784035
-1.80800462	0.26272178	2.05783772
-1.80948353	0.26278573	2.05783653
-1.81092429	0.26287639	2.05783558
-1.81373858	0.26380479	2.05783391
-1.81570792	0.26530379	2.05783272
-1.81708121	0.26614162	2.05783176
-1.82270157	0.26500875	2.05782795
-1.82674527	0.26493677	2.05782509
-1.84027839	0.26219952	2.05781603
-1.89359379	0.25068140	2.05777931
-1.89685011	0.25050595	2.05777717
-1.89761162	0.25159115	2.05777669
-1.89817393	0.25271147	2.05777645
-1.89924550	0.25410536	2.05777574
-1.90096581	0.25471133	2.05777478
-1.90574145	0.25432032	2.05777144
-1.91027951	0.25364852	2.05776834
-1.91276920	0.25373736	2.05776668
-1.91612291	0.25439042	2.05776453
-1.91879725	0.25391322	2.05776262
-1.92827368	0.25335586	2.05775619
-1.92914891	0.25453228	2.05775571
-1.92974889	0.25562608	2.05775547
-1.93487930	0.25552556	2.05775189
-1.93924022	0.25594220	2.05774903
-1.94063973	0.25596961	2.05774808
-1.94390655	0.25606382	2.05774593
-1.94530225	0.25583008	2.05774498
-1.94686055	0.25610191	2.05774403
-2.02185988	0.24427134	2.05769277
-2.02283740	0.24705142	2.05769229
-2.02353907	0.24957740	2.05769205
-2.02844405	0.25244707	2.05768895
-2.10415578	0.22605917	2.05763650
-2.10508037	0.22799250	2.05763602
-2.10454988	0.21883944	2.05763578
-2.09716368	0.07204965	2.05763221
-2.09453034	-0.01187872	2.05762911
-2.09541273	-0.01264725	2.05762839
-2.09525228	-0.03781793	2.05762696
-2.09640288	-0.03885481	2.05762625
-2.09772253	-0.04150249	2.05762506
-2.09790540	-0.04964186	2.05762458
-2.09842968	-0.05096214	2.05762410
-2.09857607	-0.05396879	2.05762386
-2.09882021	-0.05827171	2.05762339
-2.09869003	-0.06663834	2.05762291
-2.09860182	-0.07230330	2.05762267
-2.09989905	-0.07387949	2.05762172
-2.09998536	-0.07578795	2.05762148
-2.10130525	-0.07843564	2.05762053
-2.10136151	-0.07979496	2.05762053
-2.10215330	-0.08138358	2.05761981
-2.10278606	-0.08568382	2.05761909
-2.10290909	-0.09272507	2.05761862
-2.10324764	-0.09594668	2.05761814
-2.10404325	-0.09727408	2.05761766
-2.10448050	-0.09915324	2.05761719
-2.10554790	-0.10048775	2.05761647
-2.10629749	-0.10477824	2.05761552
-2.09800386	-0.13047208	2.05761981
-2.09535122	-0.13353372	2.05762124
-2.09240437	-0.13551661	2.05762315
-2.08072662	-0.14642879	2.05763030
-2.07647061	-0.15008661	2.05763292
-2.07448244	-0.15042421	2.05763435
-2.06807566	-0.15739250	2.05763817
-2.06587577	-0.15882111	2.05763960
-2.06220865	-0.16216883	2.05764198
-2.06007290	-0.16443446	2.05764318
-2.05464673	-0.17082879	2.05764651
-2.05330753	-0.17195436	2.05764723
-2.05165863	-0.17287484	2.05764842
-2.05035305	-0.17445977	2.05764914
-2.00545359	-0.22892904	2.05767608
-1.88660467	-0.35339957	2.05774856
-1.88587594	-0.35528666	2.05774903
-1.88553977	-0.35690987	2.05774903
-1.88399661	-0.35860419	2.05774999
-1.88350296	-0.35995764	2.05775023
-1.88336730	-0.36110196	2.05775023
-1.88283932	-0.36233887	2.05775070
-1.88380051	-0.36324227	2.05774999
-1.88397384	-0.36459193	2.05774975
-1.88512039	-0.36589000	2.05774879
-1.88531959	-0.36804989	2.05774856
-1.88574910	-0.37045139	2.05774808
-1.88526201	-0.37179652	2.05774832
-1.88586891	-0.37281927	2.05774808
-1.88440084	-0.37473837	2.05774879
-1.88396263	-0.37566924	2.05774903
-1.88324594	-0.37660140	2.05774951
-1.88474298	-0.37787014	2.05774832
-1.88418436	-0.37890065	2.05774879
-1.88305986	-0.38114142	2.05774927
-1.88312352	-0.38214976	2.05774927
-1.88225174	-0.38323635	2.05774975
-1.88085568	-0.38547000	2.05775070
-1.87015510	-0.39819393	2.05775714
-1.86955190	-0.39920607	2.05775738
-1.86901164	-0.40156937	2.05775762
-1.86816287	-0.40355611	2.05775809
-1.86810613	-0.40466407	2.05775809
-1.86698139	-0.40690482	2.05775857
-1.86746359	-0.40845960	2.05775833
-1.86524439	-0.41136560	2.05775952
-1.86468482	-0.41273877	2.05775976
-1.86458302	-0.41417113	2.05775976
-1.86323237	-0.41590911	2.05776072
-1.86313391	-0.41725156	2.05776072
-1.86420870	-0.41823509	2.05775976
-1.86318934	-0.42124969	2.05776048
-1.86207604	-0.42287821	2.05776095
-1.86138916	-0.42453074	2.05776143
-1.85958886	-0.42781189	2.05776238
-1.85830569	-0.43029696	2.05776310
-1.85746408	-0.43193263	2.05776358
-1.85688639	-0.43409780	2.05776381
-1.85545635	-0.43604359	2.05776477
-1.85244131	-0.43991816	2.05776644
-1.84883010	-0.44462514	2.05776858
-1.84608293	-0.44876811	2.05777025
-1.81908226	-0.47943211	2.05778646
-1.75243688	-0.53503454	2.05782819
-1.75051701	-0.53348064	2.05782938
-1.74709511	-0.53602517	2.05783153
-1.73966527	-0.54150587	2.05783629
-1.72727513	-0.55062157	2.05784416
-1.72420847	-0.55253291	2.05784607
-1.71911407	-0.55476838	2.05784941
-1.69757974	-0.57260108	2.05786276
-1.69644785	-0.57289696	2.05786347
-1.65116394	-0.60975468	2.05789161
-1.64790440	-0.61179382	2.05789375
-1.64514983	-0.61399174	2.05789542
-1.64393115	-0.61484647	2.05789638
-1.62902021	-0.62614059	2.05790567
-1.62736070	-0.62537742	2.05790687
-1.62582636	-0.62373912	2.05790782
-1.62228680	-0.62663621	2.05791020
-1.61800218	-0.62905955	2.05791283
-1.61651492	-0.62998855	2.05791378
-1.61333060	-0.63225240	2.05791593
-1.60747051	-0.63684905	2.05791950
-1.60660648	-0.63741326	2.05791998
-1.60504103	-0.63803607	2.05792093
-1.60393918	-0.63888097	2.05792165
-1.60241878	-0.63917947	2.05792284
-1.60033607	-0.64059830	2.05792403
-1.59896660	-0.64117491	2.05792499
-1.59742773	-0.64014071	2.05792594
-1.59660149	-0.64073157	2.05792665
-1.59508312	-0.64017326	2.05792761
-1.59366798	-0.64124554	2.05792856
-1.59249103	-0.64186573	2.05792928
-1.59060836	-0.64297712	2.05793047
-1.58864260	-0.64438623	2.05793166
-1.58767319	-0.64417648	2.05793238
-1.58617902	-0.64528537	2.05793333
-1.58508515	-0.64560783	2.05793405
-1.57918096	-0.65001482	2.05793762
-1.57760763	-0.65116012	2.05793881
-1.57624197	-0.65147543	2.05793953
-1.57460093	-0.65204501	2.05794072
-1.57216358	-0.65375441	2.05794215
-1.57056355	-0.65426064	2.05794334
-1.56721723	-0.65685838	2.05794525
-1.56549311	-0.65772563	2.05794644
-1.54763913	-0.67320889	2.05795765
-1.54614878	-0.67405647	2.05795860
-1.54202509	-0.67665976	2.05796123
-1.53934264	-0.67670488	2.05796289
-1.53702629	-0.67814338	2.05796432
-1.53577363	-0.67871022	2.05796528
-1.53354681	-0.67984265	2.05796671
-1.53209043	-0.68097812	2.05796742
-1.53036237	-0.68210632	2.05796862
-1.52856660	-0.68265885	2.05796981
-1.52663863	-0.68409467	2.05797100
-1.52534080	-0.68498594	2.05797172
-1.52349186	-0.68638521	2.05797291
-1.52110767	-0.68724781	2.05797458
-1.51768935	-0.68953121	2.05797672
-1.51581049	-0.69038147	2.05797791
-1.51322627	-0.69155157	2.05797958
-1.51024246	-0.69316518	2.05798149
-1.50674534	-0.69548488	2.05798364
-1.50552666	-0.69633955	2.05798459
-1.50348520	-0.69769526	2.05798578
-1.50227046	-0.69828880	2.05798650
-1.49900699	-0.70058912	2.05798864
-1.49736953	-0.70089728	2.05798960
-1.49403441	-0.70288301	2.05799174
-1.49215937	-0.70347196	2.05799294
-1.49035966	-0.70428574	2.05799413
-1.48886931	-0.70513344	2.05799508
-1.47105527	-0.72106761	2.05800629
-1.46933126	-0.72193474	2.05800724
-1.46760321	-0.72306305	2.05800843
-1.46623755	-0.72337842	2.05800939
-1.46486807	-0.72395492	2.05801010
-1.46124029	-0.72647256	2.05801249
-1.45891106	-0.72691286	2.05801392
-1.45730090	-0.72751731	2.05801511
-1.45614290	-0.72700280	2.05801582
-1.45539260	-0.72764695	2.05801630
-1.45406461	-0.72798896	2.05801725
-1.45158577	-0.72993290	2.05801868
-1.44839561	-0.73186237	2.05802083
-1.44659615	-0.73250484	2.05802202
-1.44561291	-0.73181105	2.05802274
-1.44340920	-0.73367214	2.05802393
-1.44236422	-0.73340917	2.05802464
-1.44106257	-0.73456144	2.05802560
-1.43836474	-0.73565155	2.05802727
-1.43759918	-0.73487318	2.05802774
-1.43629766	-0.73602557	2.05802870
-1.43473220	-0.73664838	2.05802965
-1.43367243	-0.73708737	2.05803037
-1.43106985	-0.73904949	2.05803204
-1.42988956	-0.73975945	2.05803275
-1.42792726	-0.74107867	2.05803394
-1.42694676	-0.74148130	2.05803466
-1.42561078	-0.74251717	2.05803537
-1.42424130	-0.74309373	2.05803633
-1.42326021	-0.74366760	2.05803704
-1.42227590	-0.74433154	2.05803752
-1.42067254	-0.74492764	2.05803871
-1.41934097	-0.74553078	2.05803943
-1.41754496	-0.74608350	2.05804062
-1.41530418	-0.74757510	2.05804205
-1.41275525	-0.74980021	2.05804372
-1.41125941	-0.75031322	2.05804467
-1.40906358	-0.75148070	2.05804610
-1.40777755	-0.75158834	2.05804682
-1.40656996	-0.75183076	2.05804777
-1.40560293	-0.75204539	2.05804825
-1.40465665	-0.75256449	2.05804896
-1.40359783	-0.75266081	2.05804968
-1.40225482	-0.75387627	2.05805039
-1.39391768	-0.76185620	2.05805564
-1.39110708	-0.76269460	2.05805755
-1.39001667	-0.76275605	2.05805826
-1.38885415	-0.76284540	2.05805898
-1.38718796	-0.76209044	2.05806017
-1.38624525	-0.76251966	2.05806065
-1.38498759	-0.76301837	2.05806160
-1.38415504	-0.76361758	2.05806208
-1.38282359	-0.76404947	2.05806303
-1.38147604	-0.76441628	2.05806375
-1.38048124	-0.76450622	2.05806446
-1.37871528	-0.76560789	2.05806565
-1.37748170	-0.76503998	2.05806637
-1.37644005	-0.76553077	2.05806708
-1.37496531	-0.76678592	2.05806804
-1.37254548	-0.76888967	2.05806947
-1.36999345	-0.77103305	2.05807114
-1.36743760	-0.77343762	2.05807281
-1.36196160	-0.77718318	2.05807614
-1.35922635	-0.77807516	2.05807805
-1.35609913	-0.77905959	2.05807996
-1.35461283	-0.77964592	2.05808091
-1.35302067	-0.77962983	2.05808210
-1.35115314	-0.77969658	2.05808330
-1.35002887	-0.77964139	2.05808401
-1.34857607	-0.78068691	2.05808496
-1.34396839	-0.78471684	2.05808783
-1.33971155	-0.78642154	2.05809069
-1.33830476	-0.78679991	2.05809140
-1.33650541	-0.78744233	2.05809259
-1.33501935	-0.78785735	2.05809355
-1.33129776	-0.79026997	2.05809593
-1.32815540	-0.78983188	2.05809808
-1.32638609	-0.79102343	2.05809927
-1.32542026	-0.79072392	2.05809999
-1.32303596	-0.79158658	2.05810142
-1.32199097	-0.79132354	2.05810213
-1.32002902	-0.79247147	2.05810356
-1.31815481	-0.79271764	2.05810475
-1.31718135	-0.79294050	2.05810523
-1.31580794	-0.79377824	2.05810618
-1.31448352	-0.79403073	2.05810714
-1.31345773	-0.79475749	2.05810761
-1.31045830	-0.79758728	2.05810952
-1.30905092	-0.79813719	2.05811048
-1.30806994	-0.79871124	2.05811119
-1.30681729	-0.79927808	2.05811191
-1.30559886	-0.80013263	2.05811262
-1.30418384	-0.80120492	2.05811357
-1.30281425	-0.80178154	2.05811453
-1.30068207	-0.80395740	2.05811572
-1.29912806	-0.80379671	2.05811691
-1.29768300	-0.80431986	2.05811787
-1.29418182	-0.80690086	2.05812001
-1.29126215	-0.80705553	2.05812192
-1.29039836	-0.80761951	2.05812240
-1.28915298	-0.80783546	2.05812335
-1.28801394	-0.80848223	2.05812407
-1.28691602	-0.80906606	2.05812478
-1.28510904	-0.81023067	2.05812597
-1.28398871	-0.80974299	2.05812669
-1.28288996	-0.81066954	2.05812740
-1.28074765	-0.81311470	2.05812860
-1.27828062	-0.81410360	2.05813026
-1.27728069	-0.81351638	2.05813098
-1.27610338	-0.81430787	2.05813169
-1.27489591	-0.81455034	2.05813241
-1.27206612	-0.81652367	2.05813432
-1.27097631	-0.81658483	2.05813503
-1.26991236	-0.81745642	2.05813575
-1.26763690	-0.81883180	2.05813718
-1.26661086	-0.81973010	2.05813766
-1.26335812	-0.82388550	2.05813956
-1.25989068	-0.82692564	2.05814171
-1.25875521	-0.82731146	2.05814266
-1.25559807	-0.82545072	2.05814481
-1.25457931	-0.82599795	2.05814552
-1.25147104	-0.82584786	2.05814743
-1.24966526	-0.82649839	2.05814862
-1.24845409	-0.82683086	2.05814958
-1.24618888	-0.82810783	2.05815101
-1.24382710	-0.83004206	2.05815244
-1.24226522	-0.83040369	2.05815339
-1.24085784	-0.83095372	2.05815434
-1.23964298	-0.83154726	2.05815506
-1.23827374	-0.83212364	2.05815601
-1.23710442	-0.83222157	2.05815673
-1.23598421	-0.83173376	2.05815768
-1.23502958	-0.83311796	2.05815816
-1.23380697	-0.83423388	2.05815887
-1.23244905	-0.83402687	2.05815983
-1.23142266	-0.83509642	2.05816054
-1.22947609	-0.83519965	2.05816174
-1.22803557	-0.83511895	2.05816269
-1.22605062	-0.83783406	2.05816388
-1.22391129	-0.84036070	2.05816531
-1.21978426	-0.84305388	2.05816793
-1.21869397	-0.84311533	2.05816865
-1.21748304	-0.84344745	2.05816936
-1.21665931	-0.84446251	2.05816984
-1.21508992	-0.84534651	2.05817080
-1.21412039	-0.84513706	2.05817151
-1.21336555	-0.84621382	2.05817199
-1.21201849	-0.84786177	2.05817270
-1.20935202	-0.84669095	2.05817461
-1.20778263	-0.84757495	2.05817556
-1.20557094	-0.84995860	2.05817699
-1.20313382	-0.85166800	2.05817842
-1.20183599	-0.85255921	2.05817938
-1.20089674	-0.85289848	2.05817986
-1.20030069	-0.85373098	2.05818033
-1.19922733	-0.85435802	2.05818105
-1.19848967	-0.85515696	2.05818152
-1.19725943	-0.85679531	2.05818224
-1.19617283	-0.85676682	2.05818295
-1.19418406	-0.85957187	2.05818415
-1.19160676	-0.86285812	2.05818558
-1.18973124	-0.86591464	2.05818677
-1.18835783	-0.86675245	2.05818748
-1.18740320	-0.86813653	2.05818820
-1.18623781	-0.86797327	2.05818892
-1.18484521	-0.87011695	2.05818963
-1.18401110	-0.87123030	2.05819011
-1.18207157	-0.87344974	2.05819130
-1.18082309	-0.87375510	2.05819225
-1.17959273	-0.87539345	2.05819297
-1.17826891	-0.87547427	2.05819392
-1.17592609	-0.87610257	2.05819535
-1.17494905	-0.87641513	2.05819607
-1.17296779	-0.87886918	2.05819726
-1.17047024	-0.87948036	2.05819869
-1.16948557	-0.88031542	2.05819941
-1.16752386	-0.88146335	2.05820060
-1.16416621	-0.88237745	2.05820298
-1.16213608	-0.88541698	2.05820417
-1.15972877	-0.88767552	2.05820560
-1.15829849	-0.88962132	2.05820632
-1.15672135	-0.89102781	2.05820727
-1.15574455	-0.89134043	2.05820799
-1.07778311	-1.04525924	2.05825138
-1.06880772	-1.06494224	2.05825615
-1.03644609	-1.12342489	2.05827451
-0.99992537	-1.15479422	2.05829716
-0.83542180	-1.20075083	2.05840492
-0.83348233	-1.20297027	2.05840611
-0.83244479	-1.20465183	2.05840683
-0.83181071	-1.20545769	2.05840707
-0.83049351	-1.20765507	2.05840802
-0.82978046	-1.20849717	2.05840826
-0.82688236	-1.21236193	2.05841017
-0.82578444	-1.21294582	2.05841088
-0.82420349	-1.21461344	2.05841184
-0.82185698	-1.21550274	2.05841327
-0.81730694	-1.21808195	2.05841613
-0.81421703	-1.21926451	2.05841827
-0.81291550	-1.22041690	2.05841899
-0.81192285	-1.22177446	2.05841947
-0.80996102	-1.22292244	2.05842090
-0.80764472	-1.22436070	2.05842233
-0.80423796	-1.22586048	2.05842447
-0.80200064	-1.22726238	2.05842590
-0.79951429	-1.22955739	2.05842733
-0.79668850	-1.23126936	2.05842924
-0.79390764	-1.23265707	2.05843115
-0.79275310	-1.23434877	2.05843163
-0.79164022	-1.23580599	2.05843234
-0.79166216	-1.23704875	2.05843234
-0.79044384	-1.23773229	2.05843306
-0.78945911	-1.23856711	2.05843377
-0.78885859	-1.23983240	2.05843401
-0.78825861	-1.24092591	2.05843425
-0.78754163	-1.24202943	2.05843472
-0.78572661	-1.24371684	2.05843592
-0.78211558	-1.24842393	2.05843806
-0.77881813	-1.25043631	2.05844021
-0.77712017	-1.25211370	2.05844116
-0.77178943	-1.25478816	2.05844450
-0.75153029	-1.27754593	2.05845690
-0.72898912	-1.30415475	2.05847049
-0.63186604	-1.30493677	2.05853558
-0.61038786	-1.29860675	2.05855036
-0.60375702	-1.29503167	2.05855513
-0.54991382	-1.26739717	2.05859280
-0.54879022	-1.26470327	2.05859375
-0.44411674	-1.17944276	2.05866909
-0.36949828	-1.11982167	2.05872273
-0.36518338	-1.11727512	2.05872583
-0.36316901	-1.11680257	2.05872726
-0.35920879	-1.11396575	2.05873013
-0.35777524	-1.11370528	2.05873108
-0.34884775	-1.10779476	2.05873728
-0.34718409	-1.10729289	2.05873847
-0.34540755	-1.10653937	2.05873966
-0.34464696	-1.10728180	2.05874014
-0.34278348	-1.10708725	2.05874157
-0.33962011	-1.10506344	2.05874372
-0.33849868	-1.10508978	2.05874443
-0.33762482	-1.10575199	2.05874515
-0.33572298	-1.10570228	2.05874634
-0.33434618	-1.10662997	2.05874729
-0.33270893	-1.10693812	2.05874825
-0.33046073	-1.10648489	2.05874991
-0.32867652	-1.10625374	2.05875111
-0.32720518	-1.10596681	2.05875206
-0.32511571	-1.10526943	2.05875349
-0.32205582	-1.10470498	2.05875564
-0.31881610	-1.10297060	2.05875778
-0.31623957	-1.10132241	2.05875969
-0.31522891	-1.10117590	2.05876040
-0.31292287	-1.10004878	2.05876207
-0.30967310	-1.09841275	2.05876422
-0.30807361	-1.09874749	2.05876517
-0.30293861	-1.09695518	2.05876875
-0.30010495	-1.09918976	2.05877066
-0.29271591	-1.09448493	2.05877590
-0.29109406	-1.09374833	2.05877709
-0.28903794	-1.09351027	2.05877829
-0.28678197	-1.09357953	2.05877995
-0.28326952	-1.09235191	2.05878234
-0.28200924	-1.09344137	2.05878305
-0.28038341	-1.09296596	2.05878425
-0.27874607	-1.09327435	2.05878520
-0.27696604	-1.09261072	2.05878663
-0.27564555	-1.09260166	2.05878735
-0.27412891	-1.09263885	2.05878854
-0.27299714	-1.09293485	2.05878925
-0.26964724	-1.09332669	2.05879140
-0.26779151	-1.09260976	2.05879283
-0.26477706	-1.09401691	2.05879474
-0.24710768	-1.08684003	2.05880690
-0.24258435	-1.08546638	2.05881000
-0.24021930	-1.08502293	2.05881166
-0.23931742	-1.08556044	2.05881214
-0.23656708	-1.08520114	2.05881405
-0.23338658	-1.08490789	2.05881619
-0.23237145	-1.08519399	2.05881691
-0.23061335	-1.08577323	2.05881810
-0.22661483	-1.08537698	2.05882072
-0.16486585	-1.05136669	2.05886436
-0.16370404	-1.05111337	2.05886507
-0.16237617	-1.05145538	2.05886602
-0.15958828	-1.05089808	2.05886793
-0.15807950	-1.05041289	2.05886889
-0.15679324	-1.05052066	2.05886984
-0.15512204	-1.05054104	2.05887079
-0.15306222	-1.05056393	2.05887222
-0.14880753	-1.04911566	2.05887532
-0.14780021	-1.04887950	2.05887580
-0.14602375	-1.04812598	2.05887723
-0.14432269	-1.04742587	2.05887842
-0.14353007	-1.04847598	2.05887890
-0.14167053	-1.04802012	2.05888009
-0.14004099	-1.04780602	2.05888128
-0.13623083	-1.04788578	2.05888367
-0.13482738	-1.04817450	2.05888462
-0.13320148	-1.04769921	2.05888581
-0.12816966	-1.04625618	2.05888915
-0.12475580	-1.04581106	2.05889153
-0.12286228	-1.04506743	2.05889297
-0.12134951	-1.04484355	2.05889392
-0.11822587	-1.04573822	2.05889606
-0.11544609	-1.04448724	2.05889797
-0.11316007	-1.04400730	2.05889940
-0.11038011	-1.04275632	2.05890131
-0.10632151	-1.04126191	2.05890417
-0.10403937	-1.04052079	2.05890584
-0.04178816	-1.00872910	2.05894947
-0.01611471	-0.99192691	2.05896783
-0.01461369	-0.99091935	2.05896878
-0.01345956	-0.99014366	2.05896950
-0.00174373	-0.98138040	2.05897808
0.00591242	-0.97376865	2.05898356
0.00954413	-0.96983081	2.05898619
0.01577443	-0.96300179	2.05899072
0.02527803	-0.95168328	2.05899787
0.02775586	-0.94852132	2.05899978
0.03055370	-0.94347030	2.05900192
0.04135585	-0.91015947	2.05901122
0.04283738	-0.90537876	2.05901241
0.04597718	-0.88801211	2.05901551
0.04578406	-0.88558811	2.05901551
0.04492623	-0.87797308	2.05901551
0.04463810	-0.87200069	2.05901551
0.04331720	-0.86954236	2.05901480
0.04271328	-0.86818743	2.05901456
0.04249805	-0.86683530	2.05901432
0.04172635	-0.85731173	2.05901456
0.04127324	-0.85567868	2.05901432
0.04094094	-0.85431665	2.05901408
0.04027653	-0.85159254	2.05901384
0.03904176	-0.84722549	2.05901337
0.03859270	-0.84585398	2.05901313
0.03711736	-0.84587967	2.05901194
0.03700376	-0.84366375	2.05901217
0.03595847	-0.84145951	2.05901146
0.03509408	-0.84072387	2.05901098
0.03457701	-0.83763200	2.05901074
0.03420055	-0.83500719	2.05901074
0.03302366	-0.83438706	2.05901003
0.03234792	-0.83334661	2.05900955
0.03193110	-0.83245385	2.05900931
0.03138590	-0.83161139	2.05900908
0.03128481	-0.83052182	2.05900908
0.03064722	-0.82962614	2.05900860
0.03034461	-0.82754368	2.05900860
0.03008872	-0.82647097	2.05900836
0.02930337	-0.82347590	2.05900812
0.02828795	-0.82284725	2.05900741
0.02815497	-0.82162118	2.05900741
0.02800518	-0.82011735	2.05900741
0.02703482	-0.81981313	2.05900693
0.02669197	-0.81818134	2.05900669
0.02636135	-0.81605262	2.05900669
0.02583241	-0.81447262	2.05900621
0.02549243	-0.81258827	2.05900621
0.02515244	-0.81070375	2.05900598
0.02468055	-0.80793619	2.05900598
0.02394468	-0.80569816	2.05900550
0.02295208	-0.80434054	2.05900502
0.02250671	-0.80322993	2.05900478
0.02152205	-0.80239493	2.05900407
0.02096331	-0.80136442	2.05900383
0.02012932	-0.80025101	2.05900335
0.01935673	-0.79855376	2.05900288
0.01859379	-0.79678321	2.05900240
0.01853693	-0.79567510	2.05900264
0.01792961	-0.79423046	2.05900216
0.01752543	-0.79318291	2.05900192
0.01695973	-0.79197264	2.05900168
0.01688141	-0.78998303	2.05900168
0.01578552	-0.78880376	2.05900097
0.01543969	-0.78725374	2.05900097
0.01469880	-0.78653628	2.05900049
0.01436025	-0.78533721	2.05900025
0.01366967	-0.78342366	2.05900002
0.01266187	-0.78119242	2.05899954
0.01145065	-0.78068894	2.05899858
0.01118559	-0.77840841	2.05899858
0.01011425	-0.77718574	2.05899787
0.00889593	-0.77650225	2.05899715
0.00859332	-0.77441972	2.05899715
0.00829554	-0.77294135	2.05899692
0.00688726	-0.77204865	2.05899620
0.00672519	-0.76941860	2.05899620
0.00615507	-0.76777565	2.05899596
0.00547600	-0.76664555	2.05899549
0.00501513	-0.76449001	2.05899525
0.00385672	-0.76253736	2.05899453
0.00180429	-0.76056933	2.05899334
0.00051379	-0.76002920	2.05899262
-0.00039816	-0.75794119	2.05899191
-0.00097686	-0.75671446	2.05899167
-0.00117654	-0.75512582	2.05899167
-0.00167471	-0.75316834	2.05899143
-0.00186378	-0.75100589	2.05899143
-0.00282240	-0.74936038	2.05899096
-0.00353569	-0.74851799	2.05899048
-0.00507480	-0.74708515	2.05898952
-0.00616544	-0.74685234	2.05898881
-0.00651014	-0.74436384	2.05898881
-0.00755590	-0.74344081	2.05898809
-0.00841218	-0.74194634	2.05898762
-0.00915319	-0.74038547	2.05898714
-0.00992846	-0.73978448	2.05898666
-0.01023161	-0.73881203	2.05898643
-0.01109904	-0.73815799	2.05898595
-0.01192576	-0.73739564	2.05898547
-0.01260418	-0.73660821	2.05898499
-0.01304626	-0.73541617	2.05898476
-0.01414037	-0.73509371	2.05898404
-0.01474851	-0.73330611	2.05898380
-0.01577467	-0.73240781	2.05898309
-0.01706362	-0.73110074	2.05898237
-0.01758784	-0.72995377	2.05898213
-0.01882219	-0.72805411	2.05898142
-0.02011639	-0.72725278	2.05898046
-0.02041042	-0.72603548	2.05898046
-0.02131611	-0.72523683	2.05897999
-0.02237588	-0.72479755	2.05897927
-0.02255362	-0.72324753	2.05897927
-0.02362925	-0.72159213	2.05897856
-0.02439946	-0.72031403	2.05897808
-0.02476519	-0.71856785	2.05897808
-0.02572006	-0.71718347	2.05897737
-0.02586401	-0.71618891	2.05897737
-0.02624226	-0.71186376	2.05897737
-0.02633679	-0.71078259	2.05897737
-0.02735990	-0.70750672	2.05897689
-0.02797902	-0.70527834	2.05897665
-0.02856392	-0.70276213	2.05897641
-0.02901334	-0.70139021	2.05897617
-0.02922106	-0.70038921	2.05897593
-0.02956116	-0.69850481	2.05897593
-0.03016865	-0.69705993	2.05897570
-0.03028256	-0.69467258	2.05897570
-0.03062636	-0.69252712	2.05897546
-0.03119642	-0.69088417	2.05897522
-0.03198874	-0.69000542	2.05897474
-0.03247184	-0.68892145	2.05897450
-0.03317022	-0.68648541	2.05897427
-0.03415442	-0.68599284	2.05897355
-0.03460711	-0.68453115	2.05897331
-0.03508669	-0.68353724	2.05897307
-0.03530502	-0.68226653	2.05897307
-0.03586793	-0.68097454	2.05897260
-0.03652442	-0.67877322	2.05897236
-0.03752095	-0.67715448	2.05897188
-0.03804153	-0.67626858	2.05897164
-0.03856343	-0.67486840	2.05897117
-0.03928816	-0.67324257	2.05897093
-0.03977507	-0.67189753	2.05897069
-0.04049975	-0.67027164	2.05897021
-0.04105526	-0.66703486	2.05896997
-0.04205132	-0.66558748	2.05896950
-0.04243284	-0.66346860	2.05896926
-0.04318333	-0.66282451	2.05896878
-0.04355735	-0.66122776	2.05896878
-0.04369354	-0.65991205	2.05896878
-0.04400361	-0.65747845	2.05896854
-0.04480726	-0.65581620	2.05896807
-0.04645157	-0.65532833	2.05896711
-0.04644096	-0.65347308	2.05896711
-0.04651743	-0.65088773	2.05896735
-0.04723436	-0.64978433	2.05896688
-0.04770344	-0.64463913	2.05896688
-0.04941589	-0.64455557	2.05896568
-0.04994428	-0.64314729	2.05896544
-0.05040109	-0.64125317	2.05896521
-0.05114126	-0.63858253	2.05896497
-0.05201650	-0.63740605	2.05896449
-0.05297905	-0.63549930	2.05896378
-0.05497909	-0.63191080	2.05896282
-0.05068624	-0.45954543	2.05897570
-0.04978180	-0.45523807	2.05897665
-0.04973710	-0.45309502	2.05897689
-0.05077171	-0.44903564	2.05897641
-0.05375242	-0.44734055	2.05897450
-0.07633018	-0.27590370	2.05896926
-0.07597291	-0.27134955	2.05896974
-0.07528633	-0.27053475	2.05897045
-0.07460886	-0.26409149	2.05897117
-0.07440561	-0.26219285	2.05897141
-0.07424009	-0.26032078	2.05897164
-0.07410097	-0.25925893	2.05897188
-0.07299966	-0.25763655	2.05897260
-0.07309413	-0.25655535	2.05897260
-0.07281178	-0.25469306	2.05897284
-0.07224995	-0.25334620	2.05897331
-0.07210767	-0.24990702	2.05897379
-0.07119495	-0.24858940	2.05897450
-0.07105583	-0.24752754	2.05897450
-0.06977761	-0.24694149	2.05897546
-0.06854391	-0.24424887	2.05897641
-0.06855309	-0.24304101	2.05897641
-0.06798702	-0.24212661	2.05897689
-0.06762040	-0.24107629	2.05897713
-0.06763661	-0.23968880	2.05897737
-0.06662595	-0.23954229	2.05897808
-0.06528783	-0.23785776	2.05897903
-0.06401634	-0.23726335	2.05897999
-0.06329203	-0.23642190	2.05898046
-0.06280160	-0.23556086	2.05898070
-0.06137967	-0.23451674	2.05898190
-0.06011248	-0.23348963	2.05898261
-0.06010634	-0.23103064	2.05898285
-0.05943799	-0.22942406	2.05898333
-0.05879313	-0.22624996	2.05898404
-0.05778277	-0.22593215	2.05898476
-0.05571133	-0.22444290	2.05898619
-0.05570841	-0.22206520	2.05898643
-0.05482966	-0.22103572	2.05898690
-0.05371696	-0.22019669	2.05898786
-0.05358887	-0.21852270	2.05898809
-0.05298573	-0.21723889	2.05898857
-0.05229926	-0.21642412	2.05898905
-0.05161685	-0.21517697	2.05898952
-0.05048174	-0.21326643	2.05899048
-0.04940295	-0.21271554	2.05899119
-0.04835492	-0.21007499	2.05899191
-0.04783082	-0.20875493	2.05899239
-0.04754865	-0.20442545	2.05899286
-0.04608917	-0.20335466	2.05899382
-0.04595739	-0.20177063	2.05899405
-0.04540384	-0.19743381	2.05899477
-0.04534751	-0.19607455	2.05899477
-0.04495597	-0.19369970	2.05899525
-0.04349619	-0.19262889	2.05899620
-0.04297209	-0.19130874	2.05899668
-0.04257673	-0.18919492	2.05899715
-0.04132456	-0.18729436	2.05899811
-0.04075897	-0.18620867	2.05899858
-0.04035556	-0.18461752	2.05899882
-0.04007709	-0.18249410	2.05899906
-0.03908885	-0.18112308	2.05900002
-0.03846335	-0.17876777	2.05900049
-0.03779238	-0.17690820	2.05900097
-0.03680414	-0.17553718	2.05900168
-0.03612542	-0.17420003	2.05900240
-0.03533363	-0.17261142	2.05900288
-0.03466272	-0.17075181	2.05900359
-0.03347468	-0.16968814	2.05900431
-0.03319216	-0.16782604	2.05900478
-0.03303826	-0.16517031	2.05900502
-0.03095216	-0.16438313	2.05900645
-0.03100896	-0.16327502	2.05900645
-0.03060204	-0.16194502	2.05900669
-0.02978003	-0.15980729	2.05900741
-0.02917296	-0.15878487	2.05900788
-0.02867967	-0.15554622	2.05900836
-0.02851415	-0.15367419	2.05900860
-0.02843535	-0.15124345	2.05900884
-0.02783579	-0.14986965	2.05900931
-0.02777255	-0.14639407	2.05900955
-0.02733165	-0.14477605	2.05901003
-0.02712059	-0.14339972	2.05901027
-0.02654028	-0.14072007	2.05901074
-0.02580142	-0.13828471	2.05901146
-0.02548879	-0.13587350	2.05901170
-0.02527857	-0.13185848	2.05901217
-0.02497399	-0.12892464	2.05901241
-0.02442706	-0.12670437	2.05901289
-0.02396381	-0.12401478	2.05901337
-0.02410424	-0.11997057	2.05901361
-0.02364522	-0.11455255	2.05901432
-0.02354813	-0.11078905	2.05901456
-0.02334470	-0.10889035	2.05901480
-0.02429444	-0.08046338	2.05901575
-0.02395904	-0.07944810	2.05901599
-0.02333713	-0.07700281	2.05901670
-0.02288866	-0.07573605	2.05901694
-0.02267027	-0.07471079	2.05901718
-0.02195734	-0.07325697	2.05901766
-0.02151239	-0.07190023	2.05901814
-0.02136970	-0.07092835	2.05901837
-0.02088296	-0.06980625	2.05901861
-0.02032125	-0.06845916	2.05901909
-0.01995200	-0.06715580	2.05901957
-0.01962018	-0.06605047	2.05901980
-0.01852667	-0.06390564	2.05902052
-0.01820242	-0.06227791	2.05902100
-0.01745629	-0.06019361	2.05902147
-0.01712829	-0.05882724	2.05902195
-0.01689488	-0.05637944	2.05902219
-0.01692623	-0.05182245	2.05902243
-0.01687008	-0.05046292	2.05902243
-0.01700759	-0.04404112	2.05902290
-0.01654792	-0.04109047	2.05902338
-0.01646239	-0.03654342	2.05902362
-0.01632661	-0.03539187	2.05902386
-0.01626647	-0.03429368	2.05902386
-0.01590824	-0.03237822	2.05902433
-0.01547551	-0.02777036	2.05902481
-0.01477444	-0.02536170	2.05902553
-0.01418644	-0.02320445	2.05902600
-0.01398313	-0.02130575	2.05902624
-0.01376122	-0.01807446	2.05902648
-0.01371270	-0.01619254	2.05902672
-0.01351321	-0.01403277	2.05902696
-0.01304597	-0.01160452	2.05902743
-0.01267707	-0.00783381	2.05902791
-0.01313573	0.01942454	2.05902910
-0.01292634	0.02104846	2.05902934
-0.01224726	0.02221428	2.05902982
-0.01150030	0.02395593	2.05903053
-0.01140702	0.02568482	2.05903077
-0.01029754	0.02661354	2.05903149
-0.00955486	0.02878752	2.05903220
-0.00853306	0.03061792	2.05903292
-0.00699842	0.03438058	2.05903411
-0.00651234	0.03567424	2.05903459
-0.00583738	0.03727249	2.05903506
-0.00523788	0.03864625	2.05903554
-0.00482678	0.03971498	2.05903602
-0.00454450	0.04157733	2.05903625
-0.00378245	0.04244554	2.05903673
-0.00334537	0.04432467	2.05903721
-0.00317204	0.04567429	2.05903745
-0.00318778	0.04918613	2.05903769
-0.00285298	0.05266910	2.05903792
-0.00274038	0.05538787	2.05903816
-0.00227690	0.05807717	2.05903864
-0.00186986	0.05940723	2.05903912
-0.00138414	0.06087232	2.05903935
-0.00125939	0.06263599	2.05903959
-0.00165629	0.06562852	2.05903959
-0.00175482	0.06697102	2.05903959
-0.00208306	0.06807172	2.05903935
-0.00245309	0.06940706	2.05903935
-0.00396013	0.09649218	2.05903983
-0.00442141	0.10111496	2.05903983
-0.00488216	0.10327037	2.05903959
-0.00503349	0.10545962	2.05903959
-0.00570869	0.10632849	2.05903935
-0.00593960	0.10872567	2.05903912
-0.00607532	0.10986982	2.05903912
-0.00668752	0.11421444	2.05903912
-0.00774020	0.11447399	2.05903840
-0.00783467	0.11555512	2.05903840
-0.00812906	0.13642159	2.05903935
-0.00858587	0.13831568	2.05903912
-0.00915599	0.13995859	2.05903888
-0.00940222	0.14569636	2.05903912
-0.00950110	0.14950614	2.05903912
-0.00985998	0.15252511	2.05903912
-0.01074332	0.15439528	2.05903864
-0.01139247	0.15607451	2.05903840
-0.01176685	0.15784258	2.05903816
-0.01229960	0.15968359	2.05903792
-0.01245844	0.16239494	2.05903792
-0.01286995	0.16379356	2.05903769
-0.01293522	0.16576672	2.05903792
-0.01360357	0.16875187	2.05903769
-0.01382273	0.17036533	2.05903745
-0.01395899	0.17168111	2.05903745
-0.01391876	0.17655280	2.05903792
-0.01475251	0.17766595	2.05903745
-0.01640499	0.17884767	2.05903625
-0.01651108	0.18071254	2.05903625
-0.01658726	0.18312654	2.05903649
-0.01801074	0.18965578	2.05903578
-0.01919550	0.19079837	2.05903506
-0.01958460	0.19326848	2.05903506
-0.02010554	0.19432575	2.05903482
-0.02062994	0.19547266	2.05903435
-0.02112854	0.19760141	2.05903435
-0.02122319	0.19868279	2.05903435
-0.02219689	0.20120169	2.05903363
-0.02266151	0.20361820	2.05903363
-0.02349150	0.20447029	2.05903316
-0.02347308	0.20580305	2.05903316
-0.02440155	0.20654520	2.05903268
-0.02449608	0.20907874	2.05903268
-0.02488494	0.21009624	2.05903244
-0.02566618	0.21181522	2.05903196
-0.02616364	0.21342996	2.05903172
-0.02664357	0.21543887	2.05903149
-0.02702147	0.21729660	2.05903149
-0.02774984	0.21901244	2.05903101
-0.02784473	0.22026494	2.05903101
-0.02802604	0.22190504	2.05903101
-0.02835453	0.22300601	2.05903077
-0.02838975	0.23012003	2.05903125
-0.02907330	0.23168293	2.05903101
-0.02937156	0.23333272	2.05903077
-0.02923656	0.23712298	2.05903101
-0.02928662	0.24034737	2.05903125
-0.02851242	0.25990933	2.05903292
-0.03042549	0.26047176	2.05903172
-0.03194243	0.26297638	2.05903077
-0.03297812	0.26525387	2.05903029
-0.03369081	0.26592466	2.05902982
-0.03363055	0.26702282	2.05902982
-0.03375995	0.27045491	2.05903006
-0.03389329	0.27414832	2.05903006
-0.03481054	0.27573076	2.05902958
-0.03492022	0.27768531	2.05902958
-0.03573227	0.28004158	2.05902934
-0.03686041	0.28024745	2.05902863
-0.03689063	0.28199434	2.05902863
-0.03767997	0.28295469	2.05902815
-0.03878838	0.28397909	2.05902743
-0.03876650	0.28522214	2.05902743
-0.03890282	0.28653795	2.05902743
-0.03968382	0.28910035	2.05902719
-0.04124928	0.28972301	2.05902624
-0.04171365	0.29196849	2.05902600
-0.04202282	0.29405928	2.05902576
-0.04219639	0.29517704	2.05902576
-0.04231781	0.29791534	2.05902600
-0.04280865	0.29952168	2.05902576
-0.04392970	0.30082917	2.05902505
-0.04387283	0.30201709	2.05902505
-0.04401684	0.30385527	2.05902505
-0.04400963	0.30580020	2.05902529
-0.04381782	0.30848235	2.05902553
-0.04487389	0.30883157	2.05902481
-0.04492724	0.30984971	2.05902481
-0.04508257	0.31230026	2.05902481
-0.04624134	0.31442440	2.05902433
-0.04684114	0.31534687	2.05902386
-0.04673952	0.31638175	2.05902410
-0.04753584	0.31752187	2.05902362
-0.04849046	0.31890595	2.05902290
-0.04932070	0.31992933	2.05902243
-0.05069011	0.32033473	2.05902171
-0.05149806	0.32242966	2.05902123
-0.05292439	0.32411423	2.05902028
-0.05383354	0.32500258	2.05901980
-0.05483383	0.32688266	2.05901909
-0.05594784	0.32824492	2.05901861
-0.05669218	0.32905218	2.05901814
-0.05702454	0.33041418	2.05901790
-0.05692643	0.33153909	2.05901814
-0.05738658	0.33335185	2.05901790
-0.05772310	0.33514643	2.05901766
-0.05778372	0.33651555	2.05901790
-0.05784047	0.33762354	2.05901790
-0.05817318	0.33915690	2.05901766
-0.05880797	0.34030542	2.05901742
-0.05853212	0.34217602	2.05901766
-0.05943739	0.34280330	2.05901694
-0.05976963	0.34416535	2.05901694
-0.06024593	0.34506959	2.05901670
-0.06057733	0.34608895	2.05901647
-0.06098175	0.34730771	2.05901623
-0.06119633	0.34831727	2.05901623
-0.06133264	0.34963310	2.05901623
-0.06177759	0.35057220	2.05901599
-0.06195670	0.35263667	2.05901599
-0.06283075	0.35329890	2.05901527
-0.06268805	0.35427088	2.05901551
-0.06337023	0.35531944	2.05901504
-0.06351417	0.35715765	2.05901504
-0.06380486	0.35828522	2.05901504
-0.06464690	0.36009216	2.05901456
-0.06473368	0.36294702	2.05901456
-0.06529248	0.36397752	2.05901432
-0.06534570	0.36499572	2.05901432
-0.06560242	0.36641115	2.05901432
-0.06602198	0.36850333	2.05901408
-0.06681377	0.36921072	2.05901361
-0.06715423	0.37126654	2.05901361
-0.06817687	0.37207505	2.05901289
-0.06851602	0.37361670	2.05901265
-0.06911653	0.37488189	2.05901241
-0.06944144	0.37589279	2.05901217
-0.06953329	0.37722695	2.05901217
-0.06889284	0.38100469	2.05901289
-0.05642933	0.55304521	2.05903149
-0.05556613	0.55511975	2.05903220
-0.05519688	0.55642313	2.05903244
-0.05291820	0.55725396	2.05903411
-0.05152643	0.55774891	2.05903506
-0.05058765	0.55987674	2.05903578
-0.04956234	0.56391305	2.05903673
-0.04930615	0.56496495	2.05903697
-0.04861963	0.56577975	2.05903745
-0.04767394	0.57002389	2.05903840
-0.04612350	0.57027459	2.05903935
-0.04576200	0.57210040	2.05903959
-0.04477370	0.57347131	2.05904055
-0.04380435	0.57368100	2.05904102
-0.04255992	0.57610399	2.05904198
-0.04230374	0.57715595	2.05904222
-0.04110795	0.57769704	2.05904317
-0.04010159	0.58057213	2.05904388
-0.03889507	0.58296829	2.05904484
-0.03817469	0.58407098	2.05904555
-0.03745466	0.58534503	2.05904603
-0.03682882	0.58752900	2.05904651
-0.03619945	0.58962303	2.05904722
-0.03548676	0.59124810	2.05904770
-0.03487980	0.59227073	2.05904818
-0.03417099	0.59415698	2.05904889
-0.03348839	0.59523308	2.05904937
-0.03264755	0.59623611	2.05904984
-0.03161162	0.60212761	2.05905104
-0.03089118	0.60323024	2.05905151
-0.02962905	0.60962456	2.05905271
-0.02919590	0.61176485	2.05905318
-0.02819604	0.61235231	2.05905390
-0.02763039	0.61343807	2.05905437
-0.02737796	0.61475122	2.05905461
-0.02574110	0.61691022	2.05905581
