//X	Y	Z
-0.02665062	-1.88619196	0.96021974
-0.02613442	-1.88373303	0.96024978
-0.02700536	-1.88164186	0.96028215
-0.02737467	-1.87996244	0.96030647
-0.02639410	-1.87746108	0.96033472
-0.02619535	-1.87598634	0.96035331
-0.03564458	-1.85501862	0.96068156
-0.03287923	-1.85227859	0.96070373
-0.03464396	-1.84792042	0.96077096
-0.03557168	-1.84581590	0.96080381
-0.04889323	-1.82858896	0.96110231
-0.04992478	-1.82623720	0.96113896
-0.05294572	-1.82113230	0.96122265
-0.05486013	-1.81613922	0.96129906
-0.05521849	-1.81408596	0.96132827
-0.05458647	-1.81242442	0.96134710
-0.05596823	-1.80906487	0.96139902
-0.05853841	-1.80463326	0.96147138
-0.06145237	-1.79835653	0.96157008
-0.06258875	-1.79483342	0.96162289
-0.06308861	-1.79319096	0.96164739
-0.06493612	-1.79002714	0.96169907
-0.06535840	-1.78476048	0.96177143
-0.06468059	-1.78348613	0.96178490
-0.06544039	-1.78176415	0.96181178
-0.06623407	-1.78016913	0.96183711
-0.06660224	-1.77837169	0.96186298
-0.06481908	-1.77628553	0.96188152
-0.07116078	-1.76388264	0.96207964
-0.07195200	-1.76201618	0.96210861
-0.07566302	-1.75359774	0.96223998
-0.07526428	-1.75157237	0.96226490
-0.07377961	-1.74914074	0.96228957
-0.07431224	-1.74750745	0.96231407
-0.07368037	-1.74584579	0.96233296
-0.07475771	-1.74002814	0.96241605
-0.07591614	-1.73721766	0.96245944
-0.07665724	-1.73416591	0.96250397
-0.07739839	-1.73111379	0.96254843
-0.07962067	-1.72799706	0.96260148
-0.08089784	-1.72580862	0.96263725
-0.08296543	-1.72267759	0.96268970
-0.08685133	-1.71887040	0.96276051
-0.08885272	-1.71664488	0.96280056
-0.09151533	-1.71359324	0.96285498
-0.09230585	-1.71265078	0.96287161
-0.09385397	-1.71075654	0.96290487
-0.09538458	-1.70768607	0.96295375
-0.09603341	-1.70633268	0.96297508
-0.09608006	-1.70502150	0.96299285
-0.09748648	-1.70271635	0.96303082
-0.09794272	-1.70069075	0.96306014
-0.09797704	-1.69885206	0.96308482
-0.08577779	-1.68503451	0.96320570
-0.06822272	-1.51297092	0.96540684
-0.06457442	-1.51287198	0.96538925
-0.06408425	-1.51162136	0.96540338
-0.06261609	-1.51128972	0.96540022
-0.06154495	-1.50863898	0.96542996
-0.05930670	-1.50873172	0.96541715
-0.05798796	-1.50668824	0.96543753
-0.05679202	-1.50680423	0.96542978
-0.05511103	-1.50631833	0.96542752
-0.05163964	-1.50386775	0.96544218
-0.05034679	-1.50303221	0.96544665
-0.04779270	-1.50229406	0.96544325
-0.04551130	-1.50000262	0.96546191
-0.04390141	-1.49926019	0.96546346
-0.04182605	-1.49832177	0.96546525
-0.03958955	-1.49656677	0.96547705
-0.03743143	-1.49443364	0.96549428
-0.03366810	-1.49313092	0.96549213
-0.03119832	-1.49173975	0.96549785
-0.02873742	-1.48837924	0.96552986
-0.02704494	-1.48644233	0.96554691
-0.02436381	-1.48304904	0.96557820
-0.02359547	-1.48162568	0.96559322
-0.02216888	-1.47933388	0.96561635
-0.02034430	-1.47920775	0.96560854
-0.01883920	-1.47729409	0.96562624
-0.01688075	-1.47571170	0.96563721
-0.01565819	-1.47554362	0.96563309
-0.01415235	-1.47455370	0.96563846
-0.01336375	-1.47364855	0.96564645
-0.01181198	-1.47304606	0.96564645
-0.01027281	-1.47297108	0.96563947
-0.00892667	-1.47264445	0.96563685
-0.00775710	-1.47196722	0.96563983
-0.00644385	-1.47164989	0.96563721
-0.00315676	-1.47291827	0.96560329
-0.00214775	-1.47198045	0.96561056
-0.00025913	-1.47198927	0.96560067
0.00229063	-1.47282410	0.96557635
0.00359170	-1.47303402	0.96556681
0.00559582	-1.47183895	0.96557236
0.00671957	-1.47077453	0.96558070
0.00834377	-1.47027516	0.96557891
0.00977282	-1.47075522	0.96556515
0.01133079	-1.46935046	0.96557575
0.01268277	-1.46929884	0.96556944
0.01548357	-1.46824396	0.96556902
0.01704116	-1.46791637	0.96556526
0.01845034	-1.46680105	0.96557283
0.02006206	-1.46682894	0.96556413
0.02131722	-1.46665156	0.96556002
0.02270700	-1.46594191	0.96556222
0.02404577	-1.46549368	0.96556127
0.02508012	-1.46442497	0.96557015
0.02660497	-1.46410668	0.96556652
0.02809849	-1.46364427	0.96556491
0.02954112	-1.46344352	0.96556014
0.03140353	-1.46265912	0.96556091
0.03346748	-1.46317196	0.96554339
0.03592578	-1.46323192	0.96552986
0.03825459	-1.46317565	0.96551853
0.04093299	-1.46320307	0.96550429
0.04362357	-1.46270323	0.96549702
0.04843187	-1.46414900	0.96545285
0.05102853	-1.46010280	0.96549332
0.05227647	-1.45980370	0.96549082
0.05401845	-1.46087229	0.96546757
0.05611486	-1.46137583	0.96544999
0.05782424	-1.46245348	0.96542680
0.05969563	-1.46363854	0.96540129
0.06192737	-1.46453369	0.96537781
0.06321006	-1.46499598	0.96536499
0.06443134	-1.46498120	0.96535885
0.06676027	-1.46492481	0.96534759
0.07030234	-1.46692169	0.96530259
0.07591680	-1.46628606	0.96528202
0.07829611	-1.46396685	0.96530056
0.08070305	-1.46536577	0.96526945
0.08363499	-1.46627522	0.96524215
0.08654653	-1.46666670	0.96522188
0.09088930	-1.46830857	0.96517748
0.09198335	-1.46894765	0.96516329
0.09319346	-1.46930683	0.96515226
0.09487026	-1.47039378	0.96512908
0.09779063	-1.47275448	0.96508253
0.10013250	-1.47309446	0.96506584
0.10139450	-1.47411609	0.96504569
0.10259243	-1.47500253	0.96502769
0.10393119	-1.47455418	0.96502674
0.10724684	-1.47738624	0.96497184
0.11262539	-1.47980714	0.96491170
0.11533727	-1.48074925	0.96488512
0.12217689	-1.48783195	0.96475530
0.12548022	-1.49119115	0.96469349
0.13184835	-1.49819493	0.96456718
0.13474685	-1.49818981	0.96455222
0.13765490	-1.50107789	0.96449870
0.14015903	-1.50152540	0.96447974
0.14146492	-1.50108624	0.96447885
0.14326586	-1.50293887	0.96444482
0.14666426	-1.50457609	0.96440542
0.14809532	-1.50582647	0.96438134
0.15078677	-1.50625062	0.96436173
0.15389538	-1.50951171	0.96430218
0.15746875	-1.51165283	0.96425515
0.15993521	-1.51275873	0.96422768
0.16488156	-1.51629019	0.96415496
0.16869982	-1.51734412	0.96412116
0.17060404	-1.51744270	0.96411002
0.17211036	-1.51845407	0.96408874
0.17394899	-1.51964855	0.96406329
0.17601313	-1.52219772	0.96401864
0.17775995	-1.52369463	0.96398962
0.18184954	-1.52849197	0.96390456
0.18421282	-1.53027415	0.96386856
0.18672910	-1.53019428	0.96385658
0.19124684	-1.53541839	0.96376359
0.19357230	-1.53785872	0.96371901
0.19602716	-1.54041553	0.96367228
0.20098512	-1.54249585	0.96361887
0.20410442	-1.54338193	0.96359092
0.20699131	-1.54482794	0.96355665
0.20838892	-1.54516363	0.96354496
0.20992327	-1.54573750	0.96352935
0.21188448	-1.54584956	0.96351773
0.21288772	-1.54663777	0.96350199
0.21446046	-1.54747748	0.96348268
0.21578693	-1.54755652	0.96347475
0.21788345	-1.54806006	0.96345717
0.21918352	-1.54734612	0.96345997
0.22041929	-1.54757452	0.96345049
0.22184166	-1.54685545	0.96345276
0.22317648	-1.54690278	0.96344519
0.22462723	-1.54774737	0.96342641
0.22676942	-1.54863834	0.96340346
0.22800502	-1.54886663	0.96339399
0.22895029	-1.54979491	0.96337676
0.23007694	-1.55042481	0.96336251
0.23100975	-1.55188036	0.96333832
0.23307297	-1.55146945	0.96333307
0.23383912	-1.55238914	0.96331686
0.23507601	-1.55246413	0.96330947
0.23616967	-1.55418050	0.96328092
0.23794423	-1.55523992	0.96325761
0.23928881	-1.55506659	0.96325296
0.23989919	-1.55615413	0.96323532
0.24182981	-1.55704594	0.96321344
0.24265763	-1.55840755	0.96319097
0.24445286	-1.55890775	0.96317506
0.24612531	-1.56156743	0.96313095
0.24757391	-1.56164157	0.96312243
0.24905872	-1.56432474	0.96307904
0.24992751	-1.56564546	0.96305692
0.25230312	-1.56690025	0.96302789
0.25514001	-1.56953180	0.96297812
0.25790632	-1.57283068	0.96291989
0.26223272	-1.58168745	0.96277946
0.26676041	-1.59184134	0.96262074
0.27200797	-1.59849012	0.96250498
0.27791899	-1.60254431	0.96242034
0.28040993	-1.60259521	0.96240681
0.28213581	-1.60157275	0.96241146
0.30527824	-1.58456850	0.96251810
0.30646390	-1.58598232	0.96249312
0.30931729	-1.58651376	0.96247125
0.31051436	-1.58647645	0.96246552
0.31308538	-1.58875322	0.96242189
0.31652939	-1.59077787	0.96237707
0.31797719	-1.58992815	0.96238089
0.31942868	-1.59169674	0.96234983
0.32087204	-1.59241962	0.96233273
0.32251540	-1.59259200	0.96232188
0.32447019	-1.59350610	0.96229959
0.32711154	-1.59511578	0.96226448
0.32933235	-1.59638476	0.96223605
0.33100092	-1.59642613	0.96222687
0.33192790	-1.59760690	0.96220636
0.33430332	-1.59886169	0.96217734
0.33704877	-1.60071862	0.96213835
0.33980605	-1.60204804	0.96210635
0.34167492	-1.60353994	0.96207678
0.34350565	-1.60368884	0.96206534
0.34486103	-1.60425425	0.96205080
0.34596434	-1.60571504	0.96202564
0.34830204	-1.60762775	0.96198803
0.35130978	-1.61233604	0.96190971
0.37384602	-1.66166246	0.96113586
0.37545139	-1.66249299	0.96111649
0.37808388	-1.66213298	0.96110767
0.38653356	-1.68282366	0.96078825
0.38878703	-1.68408346	0.96075982
0.39161706	-1.68240237	0.96076751
0.39301401	-1.68181419	0.96076810
0.39861178	-1.68327844	0.96071965
0.40785289	-1.67910075	0.96072739
0.41570628	-1.68567371	0.96059918
0.41697460	-1.68589282	0.96058965
0.42114297	-1.68795455	0.96054059
0.42648208	-1.68918586	0.96049654
0.42748547	-1.68997431	0.96048087
0.42940596	-1.68904996	0.96048319
0.43117541	-1.69079340	0.96045083
0.43248820	-1.69155335	0.96043390
0.43458772	-1.69375110	0.96039373
0.43599474	-1.69494367	0.96037054
0.43714547	-1.69563150	0.96035546
0.43840277	-1.69622445	0.96034104
0.43989074	-1.69748831	0.96031648
0.44086736	-1.69856083	0.96029711
0.44195998	-1.69938874	0.96028042
0.44334161	-1.70071197	0.96025568
0.44524354	-1.70111728	0.96024042
0.44608352	-1.70198679	0.96022445
0.44760162	-1.70354819	0.96019578
0.44884443	-1.70389819	0.96018469
0.45134509	-1.70684242	0.96013254
0.45250165	-1.70780504	0.96011370
0.45460629	-1.70935416	0.96008217
0.45669055	-1.71038508	0.96005768
0.45856687	-1.71092117	0.96004081
0.45984071	-1.71249270	0.96001327
0.46124089	-1.71252143	0.96000564
0.46335605	-1.71477389	0.95996463
0.46512341	-1.71571171	0.95994300
0.46709788	-1.71622014	0.95992601
0.46984598	-1.71977127	0.95986444
0.47167027	-1.72072244	0.95984232
0.47404274	-1.72339678	0.95979440
0.47614801	-1.72586966	0.95975059
0.47785819	-1.72787118	0.95971507
0.47895223	-1.72851014	0.95970088
0.48089391	-1.72902799	0.95968390
0.48226693	-1.73041844	0.95965827
0.48359334	-1.73049760	0.95965034
0.48441520	-1.73158431	0.95963162
0.48556858	-1.73193002	0.95962101
0.48664320	-1.73297489	0.95960152
0.48888510	-1.73568606	0.95955384
0.49145603	-1.73796272	0.95951015
0.49304909	-1.73932052	0.95948380
0.49480432	-1.74078560	0.95945525
0.49798757	-1.74180651	0.95942515
0.49967223	-1.74393916	0.95938802
0.50709927	-1.75501156	0.95920199
0.51083922	-1.76080239	0.95910549
0.51278245	-1.76316786	0.95906395
0.51617742	-1.76730204	0.95899129
0.51809871	-1.76730156	0.95898134
0.51945055	-1.76725006	0.95897502
0.52189648	-1.76783752	0.95895451
0.52556956	-1.77179885	0.95888269
0.52831483	-1.77365565	0.95884377
0.53009963	-1.77341723	0.95883769
0.53235984	-1.77587581	0.95879322
0.53428924	-1.77692080	0.95876932
0.53559029	-1.77713084	0.95875978
0.53659344	-1.77791917	0.95874405
0.53849024	-1.77897358	0.95872021
0.54130173	-1.78173578	0.95866883
0.54366028	-1.77997589	0.95868003
0.54496211	-1.78110957	0.95865822
0.54733247	-1.78301322	0.95862055
0.55024397	-1.78340471	0.95860028
0.55197084	-1.78330612	0.95859265
0.55373818	-1.78424382	0.95857102
0.55588847	-1.78618026	0.95853406
0.55778521	-1.78723454	0.95851016
0.55898315	-1.78812099	0.95849216
0.56146604	-1.78712654	0.95849258
0.56377041	-1.78812468	0.95846730
0.56573749	-1.78851151	0.95845199
0.56928098	-1.78724146	0.95845056
0.57033712	-1.78853893	0.95842779
0.57225847	-1.78853846	0.95841783
0.57472897	-1.78807127	0.95841128
0.57769883	-1.79140103	0.95835149
0.57911670	-1.79225492	0.95833278
0.58102572	-1.79278183	0.95831591
0.58208710	-1.79343033	0.95830172
0.58600497	-1.79630435	0.95824319
0.58876336	-1.79855776	0.95819885
0.59011096	-1.80007887	0.95817161
0.59124959	-1.80125880	0.95814997
0.59279895	-1.80299962	0.95811880
0.59476256	-1.80588317	0.95807022
0.59709156	-1.80582666	0.95805889
0.59904349	-1.80504656	0.95805913
0.60030544	-1.80606818	0.95803899
0.60178149	-1.80678201	0.95802188
0.60357440	-1.80758905	0.95800179
0.60584527	-1.80767250	0.95798892
0.60787511	-1.80838323	0.95796895
0.60925961	-1.80832231	0.95796257
0.61019254	-1.80977798	0.95793837
0.61219323	-1.81107974	0.95791066
0.61404413	-1.81174660	0.95789218
0.61601847	-1.81225514	0.95787519
0.61723471	-1.81288934	0.95786047
0.61827779	-1.81378984	0.95784307
0.62032211	-1.81470823	0.95782024
0.62145603	-1.81545985	0.95780432
0.62265384	-1.81634641	0.95778632
0.62442064	-1.81636000	0.95777696
0.62566936	-1.81698513	0.95776218
0.62682140	-1.81748414	0.95774955
0.62905455	-1.81822586	0.95772815
0.63086480	-1.81785643	0.95772368
0.63187021	-1.81941533	0.95769769
0.63296425	-1.82005441	0.95768350
0.63537741	-1.82065105	0.95766306
0.63636243	-1.82169175	0.95764410
0.63768172	-1.82164943	0.95763785
0.63910794	-1.82354867	0.95760512
0.64115852	-1.82366490	0.95759296
0.64246023	-1.82479870	0.95757109
0.64677632	-1.82976794	0.95748258
0.64986753	-1.83420515	0.95740741
0.65170622	-1.83539963	0.95738196
0.65282059	-1.83655691	0.95736080
0.65398669	-1.83837640	0.95733052
0.65523040	-1.83965015	0.95730710
0.65721780	-1.84055531	0.95728475
0.65835047	-1.84146023	0.95726681
0.65975624	-1.84284151	0.95724118
0.66092145	-1.84373713	0.95722318
0.66189420	-1.84530497	0.95719725
0.66315097	-1.84697545	0.95716852
0.66434222	-1.84666300	0.95716649
0.66608357	-1.84880877	0.95712888
0.66729689	-1.85086226	0.95709527
0.66863561	-1.85041404	0.95709425
0.66982198	-1.85275173	0.95705700
0.67149067	-1.85279322	0.95704782
0.67235947	-1.85411382	0.95702571
0.67397809	-1.85534084	0.95700097
0.67560399	-1.85668933	0.95697457
0.67739594	-1.85657239	0.95696688
0.67825150	-1.85749650	0.95695013
0.67942297	-1.85866725	0.95692843
0.68049347	-1.86020756	0.95690238
0.68198276	-1.86131787	0.95687985
0.68371457	-1.86057055	0.95688087
0.68486965	-1.86276388	0.95684564
0.68628556	-1.86284745	0.95683724
0.68727076	-1.86388803	0.95681822
0.68827391	-1.86467648	0.95680255
0.68907154	-1.86574042	0.95678425
0.69052804	-1.86686003	0.95676178
0.69217259	-1.86687887	0.95675302
0.69298601	-1.86799741	0.95673388
0.69398904	-1.86882114	0.95671773
0.69508302	-1.86946023	0.95670354
0.69614446	-1.87010860	0.95668942
0.69668937	-1.87121451	0.95667183
0.69785970	-1.87146115	0.95666248
0.69872856	-1.87278175	0.95664042
0.69984293	-1.87393904	0.95661920
0.70062113	-1.87540901	0.95659560
0.70188564	-1.87608838	0.95657998
0.70260942	-1.87723804	0.95656097
0.70319426	-1.87842083	0.95654213
0.70437479	-1.88048363	0.95650858
0.70623451	-1.88312006	0.95646381
0.70789814	-1.88381052	0.95644599
0.70901763	-1.88431871	0.95643342
0.70977026	-1.88591933	0.95640820
0.71144855	-1.88577569	0.95640141
0.71209610	-1.88728237	0.95637798
0.71325022	-1.88855195	0.95635509
0.71474588	-1.88885999	0.95634323
0.71562564	-1.88980675	0.95632607
0.71650571	-1.89075351	0.95630890
0.71712434	-1.89180923	0.95629162
0.71780437	-1.89330673	0.95626819
0.71897984	-1.89601827	0.95622593
0.72126311	-1.90068960	0.95615190
0.72376835	-1.90717578	0.95605254
0.73088264	-1.90527523	0.95604098
0.73258948	-1.90665960	0.95601368
0.73379147	-1.90908718	0.95597512
0.73617816	-1.90996790	0.95595104
0.73810667	-1.91320300	0.95589793
0.73941976	-1.91288555	0.95589536
0.74001050	-1.91437888	0.95587242
0.74100018	-1.91584802	0.95584774
0.74177355	-1.91688943	0.95582986
0.74314255	-1.91673875	0.95582473
0.74403894	-1.91869915	0.95579398
0.74533391	-1.91863418	0.95578814
0.74598861	-1.92026246	0.95576310
0.74736804	-1.92085040	0.95574808
0.74821013	-1.92245531	0.95572233
0.74876821	-1.92395782	0.95569944
0.75007796	-1.92613697	0.95566362
0.75103128	-1.92811084	0.95563239
0.75246149	-1.92843735	0.95562065
0.75327307	-1.93082190	0.95558465
0.75516176	-1.93083072	0.95557475
0.75651574	-1.93154955	0.95555818
0.75702667	-1.93281817	0.95553863
0.75798631	-1.93398976	0.95551807
0.75920367	-1.93447030	0.95550537
0.76015615	-1.93552017	0.95548642
0.76164412	-1.93678403	0.95546186
0.76364475	-1.93808568	0.95543420
0.76561701	-1.93782377	0.95542747
0.76695746	-1.93922329	0.95540184
0.76838386	-1.94004524	0.95538354
0.76888764	-1.94119239	0.95536566
0.76984012	-1.94224226	0.95534670
0.77186662	-1.94233561	0.95533496
0.77257347	-1.94354892	0.95531511
0.77409708	-1.94338417	0.95530945
0.77496123	-1.94427645	0.95529306
0.77567792	-1.94526911	0.95527613
0.77719510	-1.94594216	0.95525932
0.77878821	-1.94729972	0.95523298
0.77957809	-1.94931960	0.95520198
0.78111374	-1.94974005	0.95518845
0.78238195	-1.94995928	0.95517892
0.78355527	-1.95190024	0.95514703
0.78416896	-1.95356953	0.95512158
0.78579473	-1.95491803	0.95509517
0.78691757	-1.95604360	0.95507437
0.78814560	-1.95722771	0.95505226
0.78898966	-1.95960283	0.95501626
0.79197472	-1.96102142	0.95498186
0.79305631	-1.96218801	0.95496076
0.79459143	-1.96368551	0.95493281
0.79655433	-1.96564543	0.95489657
0.80055898	-1.96575177	0.95487440
0.80256569	-1.97244334	0.95477486
0.80399060	-1.97449613	0.95474011
0.80502939	-1.97696972	0.95470178
0.80680913	-1.97738004	0.95468712
0.80791640	-1.97841573	0.95466757
0.81208813	-1.97798085	0.95465177
0.81350613	-1.97883463	0.95463306
0.81454206	-1.97961366	0.95461732
0.81630754	-1.97978091	0.95460594
0.81770003	-1.98076570	0.95458561
0.81892264	-1.98059726	0.95458150
0.82064927	-1.98049903	0.95457387
0.82843924	-1.97966743	0.95454460
0.83111751	-1.97969508	0.95453036
0.83343410	-1.98016572	0.95451206
0.83598381	-1.98100066	0.95448774
0.83870006	-1.98037016	0.95448208
0.84025961	-1.98081315	0.95446807
0.84231037	-1.98092914	0.95445591
0.84308410	-1.98397207	0.95441139
0.84446228	-1.98471355	0.95439434
0.84531796	-1.98563743	0.95437759
0.84663814	-1.98651886	0.95435905
0.84841782	-1.98692942	0.95434433
0.85013938	-1.98747969	0.95432806
0.85161561	-1.98819351	0.95431095
0.85295510	-1.98866940	0.95429766
0.85496086	-1.98932195	0.95427859
0.85557103	-1.99040961	0.95426095
0.85879928	-1.99089408	0.95423776
0.86014396	-1.99072075	0.95423311
0.86132163	-1.99108911	0.95422208
0.86258852	-1.99457562	0.95416909
0.86483902	-1.99414086	0.95416319
0.86582494	-1.99610543	0.95413190
0.86782551	-1.99740720	0.95410424
0.86986399	-1.99805069	0.95408511
0.87183619	-1.99778867	0.95407838
0.87233013	-1.99915648	0.95405757
0.87389898	-2.00357008	0.95399064
0.87573338	-2.00633693	0.95394433
0.88571560	-2.00521088	0.95390761
0.88779175	-2.00519609	0.95389700
0.88920557	-2.00762296	0.95385736
0.89106882	-2.00776243	0.95384586
0.90171862	-2.00354624	0.95384687
0.91236764	-1.99840653	0.95386016
0.92007667	-1.99131143	0.95391470
0.92149818	-1.98966861	0.95392925
0.91990942	-1.98673820	0.95397651
0.91819125	-1.98369122	0.95402598
0.91740429	-1.98025179	0.95407587
0.91607535	-1.97740102	0.95412076
0.91571712	-1.97534776	0.95414996
0.91546810	-1.96670067	0.95426643
0.91498125	-1.96545458	0.95428556
0.91437745	-1.96356487	0.95431387
0.91326225	-1.96148372	0.95434737
0.91241640	-1.95726049	0.95440799
0.91112697	-1.95559931	0.95443684
0.91098881	-1.95351350	0.95446533
0.91028118	-1.95137620	0.95449746
0.90965623	-1.94804454	0.95454508
0.90674257	-1.94688249	0.95457566
0.90663195	-1.94543624	0.95459551
0.90565407	-1.94451737	0.95461279
0.90437770	-1.94325256	0.95463628
0.90258408	-1.94152188	0.95466858
0.90183330	-1.93557668	0.95475167
0.90075493	-1.93191361	0.95480609
0.89842963	-1.92947316	0.95485061
0.89587098	-1.92666912	0.95490122
0.89550042	-1.92514312	0.95492351
0.89479268	-1.92300594	0.95495564
0.89358169	-1.92172289	0.95497900
0.89086097	-1.91881156	0.95503187
0.88887262	-1.91698265	0.95506656
0.88692999	-1.91554081	0.95509583
0.88669956	-1.91175652	0.95514739
0.88521022	-1.91064596	0.95516992
0.88509768	-1.90842938	0.95520002
0.88234007	-1.90709972	0.95523202
0.88237619	-1.90459383	0.95526522
0.88137794	-1.90315652	0.95528954
0.87871468	-1.89918137	0.95535630
0.87820590	-1.89556932	0.95540702
0.87278390	-1.89553285	0.95543563
0.87190104	-1.89289165	0.95547539
0.87019098	-1.89089012	0.95551091
0.86949641	-1.88914943	0.95553768
0.86858189	-1.88744140	0.95556515
0.86824393	-1.88590622	0.95558739
0.86709011	-1.88355947	0.95562464
0.86605418	-1.88278031	0.95564038
0.86526895	-1.88118887	0.95566565
0.86440742	-1.87998986	0.95568609
0.86347932	-1.87788522	0.95571893
0.86155009	-1.87684011	0.95574284
0.86119092	-1.87386298	0.95578432
0.86076236	-1.87247705	0.95580500
0.85935664	-1.87109590	0.95583069
0.85867363	-1.86790407	0.95587677
0.85747492	-1.86609364	0.95590711
0.85710418	-1.86456764	0.95592934
0.85633844	-1.86257029	0.95595992
0.85565543	-1.85937858	0.95600599
0.85416627	-1.85826814	0.95602846
0.85190773	-1.85765731	0.95604831
0.84983671	-1.85702312	0.95606750
0.84828943	-1.85605264	0.95608842
0.84797812	-1.85423326	0.95611429
0.84732854	-1.85195613	0.95614797
0.84691209	-1.85004282	0.95617563
0.84548450	-1.84629583	0.95623296
0.84325063	-1.84463024	0.95626670
0.83593917	-1.84366107	0.95631748
0.83445072	-1.84347439	0.95632768
0.83284408	-1.84279740	0.95634502
0.83255321	-1.84149623	0.95636386
0.83247393	-1.84019423	0.95638162
0.83091307	-1.83990479	0.95639354
0.82948983	-1.83969975	0.95640367
0.82927418	-1.83815956	0.95642531
0.82832897	-1.83723116	0.95644259
0.82764155	-1.83561230	0.95646769
0.82660997	-1.83326030	0.95650434
0.82587767	-1.83217788	0.95652258
0.82463491	-1.83182788	0.95653367
0.82441306	-1.83001280	0.95655900
0.82243705	-1.82765627	0.95660067
0.81687891	-1.82630444	0.95664746
0.81544793	-1.82505393	0.95667154
0.81123841	-1.82303333	0.95672023
0.80660355	-1.82024372	0.95678139
0.80490220	-1.82021153	0.95679069
0.78926957	-1.82140076	0.95685583
0.78884804	-1.82013607	0.95687485
0.78738332	-1.81797123	0.95691127
0.78676730	-1.81660867	0.95693260
0.78607190	-1.81394410	0.95697170
0.78292799	-1.81411266	0.95698577
0.78207135	-1.81226480	0.95701480
0.78142369	-1.80564308	0.95710635
0.78003907	-1.80570388	0.95711273
0.77809936	-1.80084169	0.95718753
0.77620250	-1.79978740	0.95721143
0.77489996	-1.79772973	0.95724559
0.77363145	-1.79751062	0.95725507
0.77304089	-1.79601741	0.95727801
0.77160090	-1.79279745	0.95732838
0.77099717	-1.79090774	0.95735669
0.77040565	-1.78849053	0.95739192
0.76916993	-1.78826213	0.95740139
0.76837069	-1.78535032	0.95744431
0.76690614	-1.78318512	0.95748073
0.76579100	-1.78110409	0.95751423
0.76405960	-1.77766049	0.95756906
0.76333964	-1.77605057	0.95759428
0.76203692	-1.77399302	0.95762843
0.76028097	-1.77160394	0.95766932
0.75907433	-1.76874816	0.95771360
0.75699353	-1.76522064	0.95777142
0.75569260	-1.76501071	0.95778096
0.75528347	-1.76321900	0.95780694
0.75373703	-1.76317239	0.95781553
0.75220275	-1.76259851	0.95783114
0.75106120	-1.75972438	0.95787537
0.74973750	-1.75622463	0.95792884
0.74913383	-1.75433493	0.95795715
0.74735403	-1.75392437	0.95797181
0.74578476	-1.75058806	0.95802438
0.74343550	-1.75012648	0.95804274
0.74248230	-1.74815273	0.95807397
0.74135387	-1.74567509	0.95811278
0.73937869	-1.74424243	0.95814210
0.73826426	-1.74308538	0.95816332
0.73768091	-1.74171352	0.95818460
0.73656130	-1.74120533	0.95819718
0.73535538	-1.73927331	0.95822912
0.73383451	-1.73909593	0.95823938
0.73349559	-1.73663712	0.95827389
0.73162442	-1.73545194	0.95829940
0.73020035	-1.73432314	0.95832181
0.72917676	-1.73301685	0.95834452
0.72739613	-1.73168230	0.95837152
0.72582769	-1.72926998	0.95841175
0.72436309	-1.72710490	0.95844817
0.72262836	-1.72615790	0.95846981
0.72164249	-1.72419357	0.95850110
0.72091013	-1.72311091	0.95851928
0.72007310	-1.72085714	0.95855367
0.71744490	-1.71964431	0.95858341
0.71672487	-1.71803451	0.95860857
0.71565461	-1.71541667	0.95864904
0.71422625	-1.71074581	0.95871866
0.71183109	-1.70989668	0.95874238
0.71111125	-1.70828676	0.95876753
0.71062446	-1.70704103	0.95878667
0.71039039	-1.70575321	0.95880502
0.70893884	-1.70398450	0.95883608
0.70707989	-1.70227218	0.95886856
0.70522100	-1.70055974	0.95890099
0.70475376	-1.69890809	0.95892543
0.70440257	-1.69697630	0.95895296
0.70193630	-1.69587088	0.95898044
0.70068038	-1.69512439	0.95899689
0.69966912	-1.69329035	0.95902658
0.69734275	-1.68992651	0.95908344
0.69535613	-1.68994522	0.95909351
0.69515473	-1.68864810	0.95911181
0.69275343	-1.68860137	0.95912486
0.69209063	-1.68592763	0.95916390
0.69101608	-1.68488264	0.95918339
0.69056189	-1.68362761	0.95920247
0.68893528	-1.68135512	0.95924115
0.68716794	-1.68041754	0.95926285
0.68599546	-1.67940032	0.95928246
0.68499231	-1.67861199	0.95929813
0.68373609	-1.67786551	0.95931458
0.68211114	-1.67744076	0.95932865
0.68102950	-1.67627454	0.95934981
0.67971361	-1.67382002	0.95938933
0.67845786	-1.67307377	0.95940578
0.67723429	-1.67231798	0.95942217
0.67660260	-1.67086577	0.95944482
0.67556834	-1.66885591	0.95947695
0.67407900	-1.66774559	0.95949942
0.67043358	-1.66750240	0.95952159
0.66912025	-1.66474128	0.95956516
0.66621900	-1.66305208	0.95960265
0.66620499	-1.66173148	0.95962036
0.66301328	-1.66074228	0.95965004
0.66217709	-1.65941250	0.95967209
0.66085064	-1.65933335	0.95968002
0.65923923	-1.65822792	0.95970309
0.65692258	-1.65775704	0.95972139
0.65683615	-1.65633345	0.95974082
0.65571070	-1.65555012	0.95975703
0.65480202	-1.65411711	0.95978087
0.65403837	-1.65289044	0.95980114
0.65278238	-1.65214396	0.95981759
0.65128088	-1.65156090	0.95983315
0.64902020	-1.65017962	0.95986325
0.64713663	-1.64952195	0.95988178
0.64493251	-1.64926648	0.95989662
0.64346218	-1.64882755	0.95991004
0.64345539	-1.64762878	0.95992607
0.64247304	-1.64624596	0.95994955
0.64120460	-1.64602685	0.95995909
0.64050156	-1.64435339	0.95998502
0.63962853	-1.64149165	0.96002764
0.63518274	-1.64052653	0.96006352
0.63416433	-1.63857102	0.96009487
0.63284135	-1.63599527	0.96013606
0.62996751	-1.63494563	0.96016490
0.62829268	-1.63262808	0.96020442
0.62591791	-1.63229728	0.96022117
0.62426758	-1.63200343	0.96023363
0.62376761	-1.63036084	0.96025807
0.62213671	-1.62966132	0.96027589
0.62046599	-1.62884915	0.96029532
0.61876982	-1.62816799	0.96031320
0.61765033	-1.62765980	0.96032578
0.61757874	-1.62540197	0.96035624
0.61613876	-1.62218237	0.96040654
0.61488271	-1.62143588	0.96042299
0.61416280	-1.61982596	0.96044821
0.61292702	-1.61959767	0.96045762
0.61216205	-1.61852431	0.96047592
0.61142981	-1.61744165	0.96049410
0.61078823	-1.61620998	0.96051383
0.60981554	-1.61464214	0.96053976
0.60822308	-1.61420822	0.96055382
0.60788518	-1.61267304	0.96057600
0.60662925	-1.61192656	0.96059245
0.60580027	-1.61071825	0.96061283
0.60484707	-1.60874462	0.96064407
0.60388148	-1.60729802	0.96066833
0.60184824	-1.60600567	0.96069610
0.60139328	-1.60382652	0.96072745
0.59981245	-1.60194159	0.96076077
0.59861457	-1.60105515	0.96077877
0.59738398	-1.60017788	0.96079683
0.59654772	-1.59884787	0.96081889
0.59529179	-1.59810150	0.96083534
0.59445560	-1.59677160	0.96085739
0.59222889	-1.59522760	0.96088952
0.59158021	-1.59387422	0.96091092
0.59042084	-1.59325361	0.96092516
0.58871067	-1.59125197	0.96096069
0.58765447	-1.58995461	0.96098346
0.58663082	-1.58864832	0.96100616
0.58536959	-1.58855081	0.96101397
0.58425021	-1.58804250	0.96102655
0.58383965	-1.58640432	0.96105051
0.58257139	-1.58618498	0.96105999
0.58148450	-1.58566737	0.96107250
0.58137274	-1.58437467	0.96109033
0.58036220	-1.58346486	0.96110767
0.57938319	-1.58269906	0.96112293
0.57914698	-1.58064079	0.96115160
0.57729208	-1.58046937	0.96116346
0.57657611	-1.57836390	0.96119523
0.57535255	-1.57760835	0.96121162
0.57313991	-1.57738471	0.96122611
0.57177281	-1.57626939	0.96124804
0.57067883	-1.57563019	0.96126223
0.57069027	-1.57417893	0.96128148
0.57019985	-1.57031465	0.96133548
0.56874841	-1.56854653	0.96136659
0.56513929	-1.56783354	0.96139479
0.56393623	-1.56759620	0.96140414
0.56360418	-1.56633592	0.96142268
0.56276679	-1.56515932	0.96144265
0.56203437	-1.56407690	0.96146089
0.56125247	-1.56310260	0.96147794
0.56109363	-1.56157577	0.96149909
0.55910522	-1.55974674	0.96153373
0.55816644	-1.55801606	0.96156168
0.55715525	-1.55618238	0.96159136
0.55591142	-1.55490875	0.96161473
0.55578631	-1.55321932	0.96163791
0.55435532	-1.55196905	0.96166199
0.55298305	-1.55150247	0.96167529
0.55160356	-1.55091429	0.96169025
0.55060023	-1.55012608	0.96170598
0.54978073	-1.54669607	0.96175593
0.54602069	-1.54550219	0.96179128
0.54488802	-1.54459727	0.96180922
0.54355359	-1.54347265	0.96183109
0.54233015	-1.54271698	0.96184748
0.54204190	-1.54110897	0.96187043
0.54090202	-1.54008257	0.96188998
0.53989065	-1.53824866	0.96191967
0.53774476	-1.53781807	0.96193653
0.53647292	-1.53701711	0.96195376
0.53565836	-1.53601670	0.96197134
0.53473151	-1.53483605	0.96199185
0.53389525	-1.53350616	0.96201390
0.53235000	-1.53330624	0.96202457
0.53140873	-1.53188252	0.96204841
0.53105259	-1.53059959	0.96206737
0.52995121	-1.52983904	0.96208322
0.52896029	-1.52852333	0.96210587
0.52835011	-1.52743578	0.96212351
0.52787054	-1.52631140	0.96214098
0.52627659	-1.52402985	0.96217960
0.52578992	-1.52278399	0.96219873
0.52420980	-1.52182281	0.96221972
0.52381372	-1.52042747	0.96224034
0.52263623	-1.52005923	0.96225137
0.52187848	-1.51910746	0.96226799
0.51964539	-1.51836574	0.96228945
0.51924956	-1.51697063	0.96231008
0.51828390	-1.51552415	0.96233433
0.51610816	-1.51371861	0.96236968
0.51402986	-1.51296282	0.96239048
0.51289725	-1.51205790	0.96240842
0.51170397	-1.51159978	0.96242070
0.51096696	-1.51008892	0.96244466
0.51068103	-1.50610220	0.96249920
0.50637180	-1.50537527	0.96253121
0.50669205	-1.50297165	0.96256161
0.50377458	-1.50230515	0.96258557
0.50269282	-1.50113869	0.96260673
0.50171506	-1.50021970	0.96262401
0.50023806	-1.49858201	0.96265352
0.49925172	-1.49773002	0.96266997
0.49768233	-1.49747217	0.96268153
0.49691737	-1.49639893	0.96269977
0.49579066	-1.49580419	0.96271354
0.49503800	-1.49416828	0.96273923
0.49463266	-1.49191630	0.96277136
0.49331856	-1.49131000	0.96278620
0.49199381	-1.49000013	0.96281052
0.49104726	-1.48922515	0.96282578
0.49030900	-1.48786759	0.96284765
0.48889506	-1.48648298	0.96287346
0.48786739	-1.48570740	0.96288908
0.48701167	-1.48478329	0.96290582
0.48588505	-1.48415339	0.96292007
0.48540545	-1.48302889	0.96293753
0.48452562	-1.48208237	0.96295470
0.48331323	-1.48095274	0.96297604
0.48263240	-1.47853136	0.96301180
0.48041081	-1.47633851	0.96305251
0.47889480	-1.47551227	0.96307141
0.47830546	-1.47386563	0.96309638
0.47630554	-1.47348773	0.96311176
0.47537145	-1.47218549	0.96313399
0.47461367	-1.47123373	0.96315056
0.47369304	-1.46925080	0.96318173
0.47222418	-1.46865857	0.96319723
0.47131687	-1.46707213	0.96322310
0.47127020	-1.46576083	0.96324080
0.47043401	-1.46443093	0.96326286
0.46981061	-1.46294689	0.96328586
0.46828377	-1.46249461	0.96329975
0.46565038	-1.46193063	0.96332091
0.46440667	-1.46065676	0.96334434
0.46435279	-1.45922399	0.96336371
0.46303862	-1.45861745	0.96337861
0.46106565	-1.45795560	0.96339762
0.46093339	-1.45614457	0.96342248
0.45868206	-1.45565534	0.96344066
0.45700404	-1.45472169	0.96346176
0.45581943	-1.45423174	0.96347445
0.45583215	-1.45262718	0.96349573
0.45491105	-1.45172155	0.96351254
0.45397308	-1.45091462	0.96352816
0.45338851	-1.44969654	0.96354741
0.45159388	-1.44704175	0.96359211
0.44681621	-1.44481635	0.96364647
0.44737601	-1.44197440	0.96368146
0.44541320	-1.44001460	0.96371770
0.44362366	-1.43671107	0.96377099
0.43986729	-1.43302035	0.96383965
0.43550622	-1.43163085	0.96388072
0.43474847	-1.43067932	0.96389735
0.43193668	-1.42899430	0.96393436
0.43119386	-1.42717302	0.96396244
0.42719263	-1.42456973	0.96401787
0.42343253	-1.42337584	0.96405327
0.42110282	-1.42250848	0.96407688
0.42046630	-1.42062771	0.96410525
0.41938388	-1.41853726	0.96413869
0.41656741	-1.41642392	0.96418142
0.41547322	-1.41578484	0.96419561
0.41574267	-1.41364288	0.96422273
0.40217602	-1.40988779	0.96434307
0.40147638	-1.40879595	0.96436119
0.39921066	-1.40806353	0.96438271
0.39906019	-1.40650499	0.96440423
0.39767489	-1.40564203	0.96442294
0.39577809	-1.40458763	0.96444678
0.39290440	-1.40353811	0.96447569
0.38914427	-1.40234411	0.96451104
0.38680023	-1.40123367	0.96453798
0.38570842	-1.40032279	0.96455580
0.38481426	-1.39913309	0.96457624
0.38432747	-1.39788711	0.96459538
0.38369817	-1.39612806	0.96462208
0.38260940	-1.39484000	0.96464485
0.38135320	-1.39409351	0.96466130
0.38040012	-1.39211977	0.96469253
0.37933066	-1.39042604	0.96472067
0.37807375	-1.38875556	0.96474940
0.37736702	-1.38754237	0.96476924
0.37474591	-1.38645101	0.96479738
0.37504792	-1.38429976	0.96482444
0.37261856	-1.38161206	0.96487284
0.36498743	-1.37885535	0.96494907
0.36431327	-1.37763286	0.96496886
0.36121860	-1.37569213	0.96501076
0.35884908	-1.37471235	0.96503609
0.35702348	-1.37391460	0.96505618
0.35617626	-1.37295854	0.96507329
0.35457677	-1.37240314	0.96508896
0.35307512	-1.37182021	0.96510452
0.35227880	-1.37060261	0.96512485
0.35086092	-1.36974883	0.96514362
0.34955406	-1.36926389	0.96515679
0.34788316	-1.36845207	0.96517628
0.34757787	-1.36690760	0.96519846
0.34628329	-1.36589539	0.96521866
0.34538108	-1.36366010	0.96525311
0.34441540	-1.36221361	0.96527737
0.34189117	-1.36124802	0.96530330
0.34201506	-1.35689855	0.96536058
0.33358470	-1.35122979	0.96547979
0.33108693	-1.34998000	0.96550936
0.33063069	-1.34795439	0.96553874
0.32871565	-1.34715235	0.96555930
0.32820353	-1.34603739	0.96557683
0.32730216	-1.34472585	0.96559900
0.32660234	-1.34363413	0.96561712
0.32601884	-1.34226239	0.96563846
0.32428411	-1.34131551	0.96566004
0.32327381	-1.34040546	0.96567738
0.32064536	-1.33919251	0.96570718
0.31951874	-1.33856273	0.96572143
0.31847483	-1.33673811	0.96575111
0.31738076	-1.33609903	0.96576530
0.31611294	-1.33480263	0.96578914
0.31519315	-1.33374345	0.96580803
0.31358042	-1.33279145	0.96582907
0.31309378	-1.33154559	0.96584815
0.31261414	-1.33042109	0.96586561
0.31184930	-1.32934785	0.96588391
0.31089696	-1.32829809	0.96590281
0.31006536	-1.32739651	0.96591914
0.30934867	-1.32640362	0.96593606
0.30840340	-1.32547545	0.96595335
0.30738497	-1.32352006	0.96598464
0.30616081	-1.32184052	0.96601337
0.30515021	-1.32093060	0.96603072
0.30307841	-1.31937242	0.96606219
0.30160233	-1.31865859	0.96607935
0.30022919	-1.31726825	0.96610498
0.29821557	-1.31557012	0.96613806
0.29765505	-1.31437433	0.96615690
0.29527959	-1.31311953	0.96618593
0.29367405	-1.31228912	0.96620530
0.29266348	-1.31137931	0.96622264
0.28925207	-1.30934525	0.96626741
0.28811237	-1.30831897	0.96628702
0.28736687	-1.30683982	0.96631056
0.28325418	-1.30494487	0.96635711
0.28254721	-1.30373156	0.96637696
0.28136379	-1.30308819	0.96639162
0.28015047	-1.30103469	0.96642530
0.27883637	-1.30042827	0.96644014
0.26927370	-1.29585600	0.96655059
0.26891541	-1.29380262	0.96657979
0.26484632	-1.29155993	0.96663076
0.26218668	-1.29020286	0.96666265
0.26130694	-1.28925598	0.96667981
0.26052791	-1.28686225	0.96671575
0.24810636	-1.28037095	0.96686655
0.24549764	-1.27875209	0.96690160
0.24331385	-1.27590120	0.96695089
0.24183702	-1.27426350	0.96698040
0.24010226	-1.27331650	0.96700197
0.23544285	-1.26850307	0.96709025
0.23078173	-1.26488531	0.96716261
0.22953805	-1.26361144	0.96718597
0.22690901	-1.26147449	0.96722811
0.22566530	-1.26020074	0.96725148
0.22347632	-1.25799870	0.96729219
0.21831711	-1.25462127	0.96736389
0.21421108	-1.25084674	0.96743542
0.20981114	-1.25026882	0.96746594
0.20833427	-1.24863124	0.96749538
0.20642520	-1.24810421	0.96751231
0.20396006	-1.24684513	0.96754187
0.21936221	-1.07626593	0.96973437
0.22006363	-1.07301307	0.96977407
0.22230187	-1.07310593	0.96976125
0.22300515	-1.07170093	0.96977633
0.22406024	-1.06695926	0.96983403
0.22492132	-1.06104219	0.96990836
0.22520368	-1.05929673	0.96993017
0.22549853	-1.05702412	0.96995890
0.22598000	-1.05380392	0.96999931
0.22743955	-1.05042577	0.97003675
0.23502475	-1.01064491	0.97052741
0.25222403	-0.89898473	0.97192574
0.25346756	-0.89514351	0.97197044
0.25522125	-0.89164710	0.97200793
0.25618079	-0.88662636	0.97206986
0.25663760	-0.88446087	0.97209632
0.25573456	-0.88130164	0.97214311
0.25528550	-0.87939757	0.97217077
0.25353053	-0.87793249	0.97219938
0.25194439	-0.87669635	0.97222412
0.25190294	-0.87473625	0.97225040
0.25077549	-0.87318242	0.97227693
0.24857941	-0.87085867	0.97231930
0.24773008	-0.86913234	0.97234666
0.24415234	-0.86856389	0.97237277
0.24171789	-0.86652517	0.97241259
0.24125671	-0.86514837	0.97243327
0.26396143	-0.69356906	0.97460133
0.26727074	-0.69101113	0.97461826
0.26834214	-0.68836045	0.97464800
0.26956469	-0.68819213	0.97464389
0.27016973	-0.68681496	0.97465909
0.27108806	-0.68602622	0.97466487
0.27162907	-0.68451393	0.97468221
0.27356482	-0.68475676	0.97466892
0.27588570	-0.68365473	0.97467160
0.27806935	-0.68139082	0.97469044
0.27938265	-0.68107343	0.97468787
0.28277272	-0.68166542	0.97466242
0.28475580	-0.67902839	0.97468728
0.28883523	-0.67689478	0.97469455
0.28983685	-0.67583531	0.97470349
0.29087347	-0.67242342	0.97474355
0.29200369	-0.67055666	0.97476256
0.29315996	-0.66948295	0.97477090
0.29502374	-0.66854525	0.97477371
0.29619926	-0.66814303	0.97477299
0.29802907	-0.66736805	0.97477382
0.29998744	-0.66578567	0.97478479
0.30351269	-0.66476786	0.97478008
0.30557558	-0.66435671	0.97477484
0.30699784	-0.66363776	0.97477704
0.30931789	-0.66161203	0.97479200
0.31056595	-0.66131294	0.97478956
0.31116271	-0.66000271	0.97480392
0.31287369	-0.65981454	0.97479755
0.31376356	-0.65746224	0.97482425
0.31570321	-0.65720952	0.97481757
0.31903458	-0.65701747	0.97480291
0.32365882	-0.65599000	0.97479260
0.32567608	-0.65519142	0.97479284
0.32798398	-0.65369296	0.97480083
0.32991764	-0.65316534	0.97479784
0.33210906	-0.65194690	0.97480273
0.33477342	-0.65065390	0.97480613
0.33673167	-0.64907157	0.97481704
0.33815414	-0.64835238	0.97481924
0.33926684	-0.64766192	0.97482270
0.33996993	-0.64625698	0.97483778
0.34125569	-0.64529991	0.97484386
0.34315872	-0.64555192	0.97483063
0.34426960	-0.64409089	0.97484434
0.34827423	-0.64419746	0.97482216
0.34959012	-0.64045954	0.97486520
0.35199454	-0.63908672	0.97487098
0.35303411	-0.63736922	0.97488850
0.35414094	-0.63640374	0.97489560
0.35820445	-0.63729417	0.97486269
0.36002123	-0.63612264	0.97486889
0.36129302	-0.63384509	0.97489268
0.36347216	-0.63315392	0.97489059
0.36492819	-0.63023591	0.97492188
0.36858863	-0.62960970	0.97491127
0.37049526	-0.62736487	0.97493130
0.37295252	-0.62650120	0.97493005
0.37594044	-0.62650025	0.97491461
0.37765336	-0.62508118	0.97492462
0.38205671	-0.62316251	0.97492737
0.38461798	-0.62258136	0.97492188
0.38715985	-0.62233543	0.97491199
0.38944292	-0.62189162	0.97490603
0.39230782	-0.62097180	0.97490346
0.39562690	-0.62130713	0.97488183
0.39773506	-0.62035942	0.97488350
0.40040243	-0.61149013	0.97498780
0.40208417	-0.61192811	0.97497326
0.40666795	-0.61294281	0.97493601
0.40760425	-0.61190176	0.97494507
0.40895373	-0.60907853	0.97497565
0.41365117	-0.59469229	0.97514296
0.41486797	-0.59424913	0.97514254
0.41690025	-0.59461761	0.97512710
0.41967160	-0.59523118	0.97510457
0.42084706	-0.59175044	0.97514486
0.42490637	-0.58598506	0.97520065
0.42883646	-0.58525336	0.97519004
0.43032759	-0.58509779	0.97518438
0.43119514	-0.58349335	0.97520125
0.43179780	-0.58242285	0.97521240
0.43279517	-0.57985765	0.97524142
0.43533754	-0.57545596	0.97528684
0.43815535	-0.57433736	0.97528714
0.43979061	-0.57346427	0.97529030
0.44103003	-0.57319713	0.97528744
0.44255543	-0.57180154	0.97529817
0.44341385	-0.56930512	0.97532696
0.44560662	-0.56789792	0.97533435
0.44675493	-0.56685609	0.97534227
0.44764769	-0.56512094	0.97536075
0.44917864	-0.56507766	0.97535342
0.45134521	-0.56294799	0.97537053
0.45340824	-0.56250155	0.97536582
0.45445561	-0.56182945	0.97536933
0.45547044	-0.56116658	0.97537291
0.45669097	-0.56022781	0.97537911
0.45743981	-0.55921030	0.97538877
0.45990849	-0.56004423	0.97536486
0.46086711	-0.55822003	0.97538424
0.46229136	-0.55827165	0.97537613
0.46336427	-0.55746871	0.97538126
0.46463913	-0.55688548	0.97538245
0.46624380	-0.55679202	0.97537535
0.46797913	-0.55354786	0.97540963
0.46859860	-0.55241370	0.97542149
0.46954086	-0.55164766	0.97542679
0.48115462	-0.52956593	0.97566080
0.48219413	-0.52784848	0.97567832
0.49003053	-0.52521443	0.97567278
0.49245414	-0.52451330	0.97566956
0.49758393	-0.52032363	0.97569883
0.50048512	-0.51689792	0.97572941
0.50177628	-0.51421452	0.97575849
0.50435174	-0.51491857	0.97573578
0.50674653	-0.51576757	0.97571206
0.51033515	-0.51700413	0.97567695
0.51228702	-0.51622415	0.97567725
0.51519692	-0.51172447	0.97572213
0.51795006	-0.51255500	0.97569680
0.51896477	-0.51189220	0.97570038
0.52236414	-0.50826114	0.97573113
0.52423000	-0.50498021	0.97576517
0.52617311	-0.50223076	0.97579169
0.52774870	-0.49964970	0.97581792
0.53027219	-0.49969140	0.97580433
0.53241795	-0.49808565	0.97581458
0.53436399	-0.49703065	0.97581857
0.54015905	-0.49828637	0.97577178
0.54098034	-0.49737182	0.97577971
0.54399681	-0.49274227	0.97582579
0.54995608	-0.49484047	0.97576696
0.55052739	-0.49362579	0.97578019
0.55425811	-0.48925370	0.97581911
0.55992478	-0.49128145	0.97576272
0.56167960	-0.48763153	0.97580224
0.56449938	-0.48524708	0.97581941
0.56605166	-0.48556858	0.97580707
0.56697005	-0.48373786	0.97582674
0.57066977	-0.47918633	0.97586817
0.57446927	-0.47849143	0.97585773
0.57639420	-0.47599441	0.97588104
0.57835251	-0.47441202	0.97589195
0.58276224	-0.47165564	0.97590584
0.58487964	-0.46852151	0.97593665
0.58621681	-0.46619022	0.97596073
0.58772993	-0.46532202	0.97596449
0.58864081	-0.46441168	0.97597188
0.59900033	-0.46908915	0.97585589
0.60741019	-0.46912464	0.97581190
0.61048371	-0.46962342	0.97578931
0.61290932	-0.46969283	0.97577584
0.62201774	-0.46170276	0.97583508
0.62417585	-0.45956966	0.97585231
0.64077568	-0.45348123	0.97584742
0.64503580	-0.44704697	0.97591102
0.64630836	-0.44569328	0.97592247
0.64756775	-0.44394305	0.97593927
0.64906955	-0.44452608	0.97592372
0.65137643	-0.44210371	0.97594404
0.67320466	-0.43580025	0.97591496
0.67789143	-0.43305996	0.97592717
0.67811507	-0.43053058	0.97595972
0.67909116	-0.42960188	0.97596699
0.67733723	-0.40844753	0.97625792
0.67913437	-0.40768164	0.97625875
0.68227351	-0.40708470	0.97625047
0.68539643	-0.40547416	0.97625577
0.69126868	-0.40414751	0.97624302
0.69477433	-0.39222839	0.97638363
0.69721222	-0.39177033	0.97637707
0.69992673	-0.38929194	0.97639602
0.70307499	-0.38755056	0.97640294
0.70653391	-0.38562733	0.97641063
0.70849222	-0.38404500	0.97642154
0.71070850	-0.38177189	0.97644037
0.71287882	-0.37911135	0.97646457
0.72079223	-0.37500772	0.97647822
0.72161502	-0.37082610	0.97652966
0.72267485	-0.36962664	0.97654015
0.72272414	-0.36751732	0.97656798
0.72461116	-0.36567840	0.97658271
0.72669882	-0.36421254	0.97659141
0.72857440	-0.36382478	0.97658688
0.73619264	-0.36307123	0.97655743
0.73723549	-0.35885704	0.97660816
0.73960978	-0.35718676	0.97661811
0.74186027	-0.35675222	0.97661227
0.75018758	-0.35486871	0.97659421
0.75214219	-0.35066807	0.97664005
0.75398421	-0.34936565	0.97664785
0.75463659	-0.34822229	0.97665972
0.75672495	-0.34768030	0.97665608
0.75952381	-0.34585494	0.97666591
0.75974739	-0.34332579	0.97669846
0.76133674	-0.34206516	0.97670698
0.76193601	-0.34041277	0.97672594
0.76323372	-0.34000579	0.97672462
0.76446474	-0.33980569	0.97672093
0.76639837	-0.33927798	0.97671789
0.76652479	-0.33770010	0.97673827
0.76808113	-0.33756143	0.97673208
0.77014530	-0.33699688	0.97672892
0.77487212	-0.33637005	0.97671276
0.77606136	-0.33528724	0.97672099
0.77974653	-0.33360621	0.97672433
0.78090286	-0.33253264	0.97673261
0.78402901	-0.33153901	0.97672969
0.78532195	-0.33070344	0.97673410
0.78715175	-0.32992846	0.97673494
0.78845191	-0.32921451	0.97673774
0.78858441	-0.32791165	0.97675437
0.79009223	-0.32769242	0.97674948
0.79169482	-0.32682848	0.97675270
0.79257435	-0.32577392	0.97676218
0.79384047	-0.32522264	0.97676301
0.79581130	-0.32311291	0.97678089
0.80160338	-0.32267427	0.97675669
0.80263042	-0.32148400	0.97676724
0.80381954	-0.32040107	0.97677553
0.80489147	-0.31867421	0.97679299
0.80636686	-0.31846413	0.97678810
0.80682373	-0.31629881	0.97681457
0.80869067	-0.31594288	0.97680968
0.80970562	-0.31527999	0.97681326
0.81342041	-0.31500921	0.97679758
0.81598586	-0.31282005	0.97681350
0.81866848	-0.31127489	0.97682017
0.81875557	-0.30850726	0.97685659
0.82000357	-0.30820826	0.97685409
0.82152975	-0.30773661	0.97685248
0.82319248	-0.30750313	0.97684693
0.82484794	-0.30714810	0.97684312
0.82638645	-0.30614913	0.97684848
0.82826126	-0.30483747	0.97685623
0.83002067	-0.30472982	0.97684854
0.83237815	-0.30312315	0.97685772
0.83232462	-0.30061305	0.97689146
0.83230346	-0.29917103	0.97691077
0.83460832	-0.29909211	0.97689986
0.83656651	-0.29750955	0.97691083
0.83830488	-0.29595995	0.97692245
0.83994722	-0.29520819	0.97692394
0.84219688	-0.29384980	0.97693038
0.84328210	-0.29251960	0.97694248
0.84405565	-0.29044724	0.97696608
0.84578878	-0.28954652	0.97696912
0.84647143	-0.28762338	0.97699118
0.84699440	-0.28636348	0.97700524
0.84855914	-0.28615761	0.97699988
0.85030556	-0.28565332	0.97699755
0.85241330	-0.28470558	0.97699928
0.85411406	-0.28381395	0.97700232
0.85429811	-0.28009492	0.97705090
0.85514379	-0.27920318	0.97705841
0.85580313	-0.27818137	0.97706860
0.85750359	-0.27728981	0.97707170
0.85883510	-0.27671993	0.97707236
0.86014843	-0.27640253	0.97706980
0.86150551	-0.27570200	0.97707212
0.86303085	-0.27430648	0.97708279
0.86444807	-0.27423638	0.97707641
0.86687714	-0.27180904	0.97709614
0.86848855	-0.26980066	0.97711456
0.87133861	-0.26975030	0.97710043
0.87231481	-0.26882154	0.97710776
0.87554818	-0.26865709	0.97709322
0.87649179	-0.26773769	0.97710055
0.87859976	-0.26679003	0.97710228
0.87981427	-0.26557630	0.97711211
0.88131499	-0.26523542	0.97710890
0.88173312	-0.26280433	0.97713912
0.88316143	-0.26236027	0.97713763
0.88523674	-0.26142180	0.97713941
0.88629651	-0.26022238	0.97714990
0.88764840	-0.26017070	0.97714359
0.89097971	-0.25997865	0.97712886
0.89220148	-0.25888664	0.97713709
0.89384377	-0.25813490	0.97713858
0.89661801	-0.25736439	0.97713447
0.89818132	-0.25531060	0.97715372
0.90006918	-0.25439560	0.97715616
0.90215886	-0.25370026	0.97715455
0.90337259	-0.25156277	0.97717679
0.90554452	-0.25075006	0.97717637
0.90774250	-0.24872929	0.97719187
0.90953463	-0.24861228	0.97718418
0.91087770	-0.24659139	0.97720408
0.91180432	-0.24265707	0.97725171
0.91343451	-0.24243277	0.97724628
0.91448182	-0.24176055	0.97724980
0.91575527	-0.24133086	0.97724891
0.91779280	-0.24105048	0.97724211
0.91901386	-0.23903447	0.97726262
0.92070544	-0.23617351	0.97729200
0.92403674	-0.23598152	0.97727728
0.92642391	-0.23578513	0.97726750
0.92947072	-0.23037577	0.97732377
0.92979836	-0.22809380	0.97735250
0.93110788	-0.22515815	0.97738481
0.93247128	-0.22365528	0.97739780
0.93460393	-0.22165287	0.97741342
0.93493569	-0.21779817	0.97746301
0.93889457	-0.21751738	0.97744626
0.94003785	-0.21604723	0.97745991
0.94444126	-0.21412838	0.97746265
0.93318212	-0.20687366	0.97761762
0.92600608	-0.21141082	0.97759438
0.92439801	-0.21400100	0.97756821
0.92313838	-0.21575129	0.97755140
0.92100930	-0.21525693	0.97756904
0.90955472	-0.21828735	0.97758800
0.89694023	-0.23619539	0.97741479
0.89412189	-0.23842639	0.97739971
0.89170140	-0.23770827	0.97742182
0.88982242	-0.24059254	0.97739309
0.88876265	-0.24179202	0.97738260
0.88617021	-0.24426544	0.97736311
0.87758172	-0.24110770	0.97744966
0.87236130	-0.24748313	0.97739178
0.86409402	-0.25926787	0.97727764
0.85663891	-0.25793880	0.97733396
0.85132068	-0.25814962	0.97735870
0.84399617	-0.26809096	0.97726423
0.84269100	-0.26945382	0.97725278
0.83978105	-0.27091026	0.97724849
0.83637846	-0.27084571	0.97726697
0.82544494	-0.26565349	0.97739279
0.81371582	-0.28278202	0.97722536
0.81217015	-0.28365940	0.97722167
0.80837131	-0.28839189	0.97717834
0.80568069	-0.28889191	0.97718561
0.80412173	-0.28937268	0.97718728
0.80303657	-0.29070294	0.97717518
0.80173141	-0.29206586	0.97716379
0.80034250	-0.29369938	0.97714925
0.79864198	-0.29459113	0.97714615
0.79669613	-0.29564607	0.97714216
0.79263854	-0.30014545	0.97710329
0.75005531	-0.28721577	0.97749609
0.74606210	-0.28565788	0.97753757
0.73933774	-0.28867865	0.97753215
0.73770767	-0.28890288	0.97753763
0.73579216	-0.28917813	0.97754389
0.73367274	-0.29157716	0.97752291
0.73091424	-0.29551607	0.97748470
0.72957462	-0.29504031	0.97749799
0.72598374	-0.29407531	0.97752947
0.72269887	-0.29557854	0.97752643
0.72147220	-0.29731959	0.97750962
0.71343881	-0.29600638	0.97756869
0.71230787	-0.29694933	0.97756201
0.70786190	-0.30217636	0.97751540
0.70255506	-0.29893470	0.97758609
0.70146090	-0.29829562	0.97760028
0.69397390	-0.30920684	0.97749370
0.69264764	-0.30912775	0.97750163
0.69042671	-0.30785877	0.97753006
0.68792915	-0.30660903	0.97755963
0.68653154	-0.30627328	0.97757137
