//X	Y	Z
-0.58198404	0.15423293	2.95522308
-0.58627450	0.12737438	2.95510840
-0.58622038	0.12482374	2.95509791
-0.58605582	0.12424585	2.95509577
-0.58599025	0.12282252	2.95509005
-0.58571041	0.12213130	2.95508766
-0.58600777	0.11784384	2.95506978
-0.58615869	0.11641263	2.95506382
-0.58574730	0.11587840	2.95506191
-0.58561313	0.11526477	2.95505953
-0.58569527	0.11402871	2.95505452
-0.58548421	0.11314238	2.95505118
-0.58572340	0.11085653	2.95504141
-0.58552605	0.10956705	2.95503640
-0.58525234	0.10864253	2.95503306
-0.58495814	0.10830814	2.95503187
-0.58488750	0.10780213	2.95502996
-0.58469266	0.10664527	2.95502543
-0.58462995	0.10540117	2.95502043
-0.58432764	0.10519030	2.95501995
-0.58426541	0.10337785	2.95501256
-0.58425409	0.10270770	2.95500994
-0.58405685	0.10141809	2.95500493
-0.58407927	0.10093777	2.95500278
-0.58378255	0.10044730	2.95500112
-0.58345890	0.09960349	2.95499802
-0.58359963	0.09820957	2.95499229
-0.58366293	0.09588186	2.95498276
-0.58346003	0.09546326	2.95498109
-0.58358943	0.09339923	2.95497251
-0.58282107	0.09306055	2.95497203
-0.58197618	0.09067485	2.95496321
-0.58109003	0.08888396	2.95495701
-0.58095586	0.08706427	2.95494962
-0.57992685	0.08655760	2.95494890
-0.57945532	0.08429719	2.95494008
-0.57910436	0.08246218	2.95493293
-0.57887924	0.08195581	2.95493126
-0.57886869	0.08074053	2.95492625
-0.57854772	0.08005261	2.95492387
-0.57839143	0.07935113	2.95492125
-0.57835591	0.07848357	2.95491767
-0.57734048	0.07816526	2.95491743
-0.57708800	0.07725911	2.95491409
-0.57689071	0.07596952	2.95490909
-0.57688814	0.07522215	2.95490599
-0.57635868	0.07439528	2.95490313
-0.57611448	0.07398015	2.95490170
-0.57560426	0.07247060	2.95489621
-0.57556874	0.07160300	2.95489264
-0.57529461	0.07004065	2.95488667
-0.57472664	0.06937314	2.95488453
-0.57457864	0.06795668	2.95487905
-0.57381320	0.06659105	2.95487428
-0.57299829	0.06594387	2.95487261
-0.57293260	0.06452053	2.95486689
-0.57219470	0.06355461	2.95486355
-0.57189018	0.06261954	2.95486021
-0.57134420	0.06203993	2.95485854
-0.57103711	0.06035737	2.95485187
-0.57057047	0.05959184	2.95484924
-0.57063395	0.05908484	2.95484710
-0.57040358	0.05826654	2.95484400
-0.56987685	0.05700424	2.95483947
-0.56927037	0.05649599	2.95483828
-0.56869954	0.05626396	2.95483780
-0.56871068	0.05570485	2.95483565
-0.56830448	0.05545923	2.95483494
-0.56798065	0.05520682	2.95483446
-0.56763208	0.05471060	2.95483279
-0.56723970	0.05406181	2.95483065
-0.56690228	0.05362117	2.95482922
-0.56637269	0.05338573	2.95482874
-0.56603235	0.05276587	2.95482659
-0.56417727	0.05096513	2.95482135
-0.56385076	0.05055682	2.95482016
-0.56234413	0.04984372	2.95481896
-0.56236899	0.04888150	2.95481491
-0.56113970	0.04811230	2.95481324
-0.55936414	0.04674027	2.95480967
-0.55780542	0.04538362	2.95480585
-0.55579644	0.04422020	2.95480347
-0.55459189	0.04248879	2.95479774
-0.55418301	0.04208727	2.95479655
-0.55322272	0.04077093	2.95479226
-0.55338478	0.04000998	2.95478892
-0.55161488	0.03835836	2.95478415
-0.55112630	0.03811957	2.95478368
-0.55063784	0.03788079	2.95478344
-0.54992718	0.03670001	2.95477939
-0.54963923	0.03613228	2.95477724
-0.54924685	0.03489213	2.95477271
-0.54735625	0.03281520	2.95476651
-0.54610759	0.03152271	2.95476246
-0.54533929	0.03118400	2.95476198
-0.54530370	0.03031642	2.95475864
-0.54372567	0.02964247	2.95475769
-0.54286700	0.02825129	2.95475292
-0.54234570	0.02730084	2.95474958
-0.54149789	0.02594198	2.95474505
-0.54127842	0.02515607	2.95474195
-0.54135007	0.02452542	2.95473933
-0.54102355	0.02411710	2.95473814
-0.54067773	0.02377681	2.95473719
-0.54054898	0.02288364	2.95473361
-0.54043376	0.02217884	2.95473075
-0.54043120	0.02143147	2.95472789
-0.54007483	0.01987588	2.95472193
-0.53983068	0.01946074	2.95472050
-0.53950411	0.01905243	2.95471907
-0.53923804	0.01795796	2.95471501
-0.53891152	0.01754966	2.95471358
-0.53851634	0.01733637	2.95471334
-0.53886533	0.01605826	2.95470762
-0.53892022	0.01565170	2.95470595
-0.53928292	0.01456182	2.95470095
-0.53908533	0.01386379	2.95469832
-0.53872627	0.01215230	2.95469189
-0.53816092	0.01164073	2.95469046
-0.53784567	0.01008182	2.95468426
-0.53707445	0.00958729	2.95468330
-0.53705829	0.00865156	2.95467949
-0.53664094	0.00835048	2.95467877
-0.53677571	0.00778107	2.95467615
-0.53662473	0.00739155	2.95467472
-0.53633398	0.00666790	2.95467210
-0.53650182	0.00624202	2.95467019
-0.53643036	0.00507502	2.95466542
-0.60259527	-0.15392108	2.95394039
-0.60433829	-0.15444356	2.95393634
-0.60552722	-0.15721965	2.95392370
-0.61068898	-0.17956473	2.95382643
-0.61198747	-0.18076484	2.95381999
-0.61318898	-0.18578160	2.95379806
-0.61373293	-0.18710899	2.95379210
-0.61551714	-0.18763497	2.95378804
-0.61650926	-0.19288354	2.95376539
-0.61697108	-0.19600168	2.95375204
-0.61749005	-0.19698150	2.95374751
-0.61826175	-0.19885260	2.95373893
-0.61881393	-0.20091832	2.95372987
-0.61990994	-0.20431148	2.95371485
-0.62121785	-0.21036685	2.95368862
-0.62131459	-0.21373396	2.95367479
-0.61962694	-0.22680900	2.95362329
-0.61910862	-0.22878638	2.95361567
-0.61811298	-0.23215313	2.95360303
-0.61646992	-0.23602480	2.95358920
-0.61494148	-0.23800863	2.95358276
-0.61260617	-0.24017179	2.95357656
-0.61015302	-0.24319574	2.95356703
-0.60930771	-0.24321580	2.95356798
-0.60813874	-0.24467102	2.95356321
-0.60668701	-0.24579066	2.95356035
-0.60479367	-0.24743210	2.95355582
-0.60402793	-0.24820620	2.95355368
-0.60285884	-0.24847865	2.95355368
-0.60241437	-0.24915640	2.95355153
-0.60124522	-0.25002015	2.95354939
-0.60076231	-0.25053853	2.95354772
-0.59898663	-0.25131911	2.95354652
-0.59830338	-0.25150871	2.95354652
-0.59785855	-0.25159493	2.95354676
-0.59725225	-0.25210315	2.95354533
-0.48477274	-0.38324538	2.95313787
-0.48475084	-0.38392475	2.95313501
-0.48470163	-0.38438919	2.95313334
-0.48487172	-0.38468227	2.95313191
-0.48467162	-0.38553634	2.95312858
-0.48451534	-0.38623780	2.95312595
-0.48455659	-0.38683257	2.95312333
-0.48353308	-0.38823348	2.95311880
-0.48352447	-0.38874766	2.95311666
-0.48363191	-0.38907892	2.95311522
-0.48359329	-0.38953415	2.95311356
-0.48382384	-0.38992199	2.95311165
-0.48379666	-0.39029855	2.95311022
-0.48383805	-0.39089346	2.95310760
-0.48388252	-0.39128590	2.95310593
-0.48391771	-0.39226225	2.95310187
-0.48413759	-0.39265919	2.95309997
-0.48433256	-0.39329982	2.95309734
-0.48427495	-0.39366397	2.95309591
-0.48408312	-0.39402696	2.95309448
-0.48399240	-0.39451116	2.95309258
-0.48405069	-0.39651290	2.95308447
-0.48433638	-0.39728412	2.95308089
-0.48399863	-0.39774793	2.95307946
-0.48404005	-0.39834282	2.95307708
-0.48418283	-0.39903575	2.95307398
-0.48461929	-0.39941722	2.95307183
-0.48489943	-0.39990884	2.95306969
-0.48444960	-0.40089846	2.95306611
-0.48487228	-0.40149149	2.95306325
-0.48462811	-0.40190661	2.95306182
-0.48431808	-0.40256220	2.95305943
-0.48428822	-0.40309471	2.95305729
-0.48455158	-0.40336224	2.95305586
-0.48460379	-0.40392470	2.95305347
-0.48476332	-0.40484175	2.95304966
-0.48393750	-0.40611258	2.95304537
-0.48433298	-0.40649086	2.95304346
-0.48434138	-0.40720594	2.95304036
-0.48470372	-0.40770423	2.95303798
-0.48437169	-0.40844777	2.95303535
-0.48402059	-0.40969136	2.95303059
-0.48404300	-0.41017166	2.95302868
-0.48443002	-0.41044950	2.95302701
-0.48443016	-0.41104090	2.95302463
-0.48405972	-0.41221648	2.95302033
-0.48450196	-0.41285431	2.95301723
-0.48405755	-0.41353211	2.95301485
-0.48447466	-0.41384554	2.95301318
-0.48496088	-0.41553694	2.95300555
-0.48532626	-0.41647094	2.95300150
-0.48489279	-0.41770774	2.95299697
-0.48414081	-0.41949967	2.95299029
-0.48477235	-0.41993058	2.95298791
-0.48502237	-0.42097795	2.95298338
-0.48469877	-0.42182177	2.95298028
-0.48499537	-0.42315200	2.95297456
-0.48459488	-0.42426857	2.95297050
-0.48483384	-0.42475680	2.95296812
-0.48434547	-0.42558706	2.95296526
-0.48455152	-0.42619550	2.95296264
-0.48459834	-0.42706987	2.95295906
-0.48448059	-0.42793071	2.95295548
-0.48468113	-0.42885101	2.95295167
-0.48476386	-0.43063211	2.95294428
-0.48420697	-0.43185878	2.95293975
-0.48448986	-0.43219450	2.95293808
-0.48429513	-0.43332797	2.95293379
-0.48393592	-0.43444800	2.95292950
-0.48377696	-0.43530554	2.95292616
-0.48361805	-0.43675438	2.95292044
-0.48350573	-0.43789470	2.95291591
-0.48318219	-0.43932992	2.95291042
-0.48306158	-0.43975526	2.95290899
-0.48274338	-0.44028729	2.95290709
-0.48264462	-0.44062465	2.95290589
-0.48258448	-0.44173616	2.95290136
-0.48283693	-0.44203600	2.95289993
-0.48271635	-0.44246137	2.95289826
-0.48235977	-0.44401687	2.95289230
-0.48171246	-0.44570449	2.95288610
-0.48070559	-0.44732928	2.95288062
-0.48099655	-0.44778854	2.95287848
-0.48113933	-0.44848147	2.95287538
-0.47912276	-0.45188701	2.95286369
-0.47942770	-0.45213485	2.95286250
-0.47912607	-0.45409688	2.95285487
-0.47791356	-0.45629615	2.95284724
-0.47807562	-0.45705712	2.95284390
-0.47785109	-0.45872319	2.95283723
-0.47714934	-0.46057272	2.95283055
-0.47682810	-0.46128374	2.95282793
-0.47634840	-0.46280587	2.95282245
-0.47613966	-0.46355933	2.95281959
-0.47542357	-0.46566665	2.95281172
-0.47551185	-0.46652126	2.95280814
-0.47469425	-0.46853054	2.95280075
-0.47380817	-0.47032142	2.95279455
-0.47376704	-0.47090942	2.95279217
-0.47352841	-0.47160411	2.95278955
-0.47310308	-0.47237316	2.95278692
-0.47232693	-0.47374785	2.95278215
-0.47177252	-0.47484180	2.95277834
-0.47166276	-0.47523475	2.95277691
-0.47218981	-0.47574663	2.95277429
-0.46836281	-0.48255157	2.95275068
-0.46844801	-0.48299384	2.95274878
-0.46126765	-0.49364221	2.95271349
-0.45564556	-0.50177431	2.95268679
-0.44903764	-0.50789452	2.95266938
-0.43956754	-0.51625752	2.95264602
-0.42481107	-0.52519119	2.95262623
-0.42315626	-0.52613795	2.95262432
-0.41597125	-0.52925348	2.95261979
-0.39627314	-0.53368622	2.95262408
-0.37653518	-0.53143048	2.95265579
-0.37543732	-0.53115058	2.95265818
-0.37106723	-0.52937466	2.95267034
-0.36827841	-0.52854329	2.95267701
-0.36650229	-0.52754962	2.95268321
-0.36418295	-0.52697957	2.95268798
-0.36187452	-0.52637720	2.95269322
-0.35844025	-0.52532637	2.95270133
-0.35848135	-0.52473837	2.95270371
-0.35758913	-0.52388394	2.95270824
-0.35665020	-0.52333796	2.95271158
-0.35628787	-0.52283967	2.95271397
-0.35523403	-0.52238399	2.95271707
-0.35499239	-0.52205169	2.95271873
-0.35407001	-0.52175295	2.95272088
-0.35349089	-0.52127004	2.95272350
-0.35298282	-0.52084929	2.95272589
-0.35265625	-0.52066624	2.95272708
-0.35138270	-0.52040499	2.95272946
-0.35024902	-0.51980984	2.95273328
-0.34940070	-0.51939422	2.95273590
-0.34875005	-0.51887208	2.95273876
-0.34834647	-0.51837033	2.95274138
-0.34814879	-0.51788557	2.95274353
-0.34716880	-0.51733625	2.95274687
-0.34648257	-0.51709032	2.95274878
-0.34639186	-0.51636839	2.95275164
-0.34554628	-0.51579690	2.95275497
-0.34478045	-0.51538825	2.95275760
-0.34465402	-0.51494253	2.95275950
-0.34429452	-0.51487970	2.95276022
-0.34397054	-0.51454073	2.95276189
-0.34246603	-0.51332337	2.95276856
-0.34197742	-0.51297075	2.95277071
-0.34136802	-0.51245207	2.95277357
-0.34100297	-0.51210964	2.95277524
-0.34105217	-0.51164520	2.95277715
-0.34040153	-0.51112306	2.95278001
-0.33966318	-0.51090592	2.95278168
-0.33925670	-0.50996870	2.95278597
-0.33860609	-0.50944650	2.95278883
-0.33795545	-0.50892437	2.95279169
-0.33792245	-0.50845325	2.95279384
-0.33739257	-0.50809711	2.95279574
-0.33692300	-0.50724447	2.95279980
-0.33665407	-0.50669730	2.95280242
-0.33650005	-0.50605983	2.95280504
-0.33608294	-0.50574642	2.95280695
-0.33596471	-0.50542426	2.95280838
-0.33539373	-0.50506485	2.95281053
-0.33495700	-0.50409180	2.95281482
-0.33458924	-0.50390530	2.95281601
-0.33433664	-0.50360537	2.95281768
-0.33437780	-0.50301743	2.95282006
-0.33424544	-0.50233859	2.95282292
-0.33348551	-0.50216305	2.95282459
-0.33307651	-0.50197309	2.95282578
-0.33287600	-0.50164419	2.95282722
-0.33189884	-0.50093913	2.95283127
-0.33157727	-0.49985254	2.95283604
-0.33063853	-0.49930662	2.95283937
-0.33052033	-0.49839321	2.95284319
-0.32974613	-0.49786082	2.95284629
-0.32889527	-0.49760127	2.95284843
-0.32901859	-0.49701998	2.95285058
-0.32816201	-0.49588946	2.95285630
-0.32751137	-0.49536726	2.95285916
-0.32751125	-0.49477586	2.95286155
-0.32698148	-0.49441987	2.95286345
-0.32673419	-0.49321663	2.95286870
-0.32653081	-0.49245220	2.95287204
-0.32596239	-0.49134544	2.95287728
-0.32584149	-0.49058786	2.95288038
-0.32474062	-0.48987240	2.95288467
-0.32470211	-0.48912165	2.95288777
-0.32360119	-0.48781478	2.95289445
-0.32309565	-0.48664665	2.95289969
-0.32306820	-0.48584032	2.95290303
-0.32268363	-0.48542976	2.95290518
-0.32245594	-0.48488611	2.95290756
-0.32138509	-0.48422956	2.95291162
-0.32134116	-0.48379073	2.95291328
-0.32089359	-0.48285007	2.95291781
-0.32085219	-0.48225516	2.95292020
-0.32031974	-0.48205519	2.95292163
-0.32020158	-0.48173299	2.95292306
-0.31918588	-0.48086852	2.95292783
-0.31885639	-0.48024988	2.95293069
-0.31865585	-0.47992098	2.95293236
-0.31851318	-0.47922820	2.95293522
-0.31838945	-0.47862643	2.95293784
-0.31745616	-0.47776872	2.95294237
-0.31734890	-0.47741428	2.95294404
-0.31669271	-0.47661257	2.95294809
-0.31609413	-0.47606140	2.95295095
-0.14772105	-0.43579078	2.95330763
-0.14705357	-0.43565923	2.95330882
-0.14665310	-0.43556976	2.95330954
-0.14638954	-0.43591684	2.95330858
-0.14541282	-0.43637127	2.95330787
-0.14483078	-0.43727344	2.95330477
-0.14336812	-0.43783402	2.95330405
-0.14228943	-0.43823680	2.95330381
-0.14109282	-0.43829429	2.95330477
-0.14031322	-0.43868852	2.95330405
-0.13998145	-0.43940884	2.95330167
-0.13726172	-0.43934077	2.95330501
-0.13619927	-0.43939924	2.95330596
-0.13591141	-0.44055837	2.95330143
-0.13397092	-0.44073394	2.95330310
-0.13218156	-0.44111142	2.95330358
-0.13005976	-0.44164070	2.95330381
-0.12738939	-0.44110832	2.95330906
-0.12673891	-0.44117758	2.95330954
-0.12655503	-0.44168738	2.95330763
-0.12593755	-0.44163650	2.95330858
-0.12525964	-0.44210553	2.95330739
-0.12457884	-0.44213909	2.95330787
-0.12403375	-0.44264919	2.95330644
-0.12326963	-0.44276875	2.95330691
-0.12258913	-0.44277906	2.95330763
-0.12218101	-0.44311103	2.95330667
-0.12193930	-0.44339341	2.95330596
-0.12159909	-0.44339862	2.95330620
-0.12128352	-0.44377464	2.95330501
-0.12046808	-0.44385353	2.95330572
-0.12009789	-0.44379979	2.95330620
-0.11921971	-0.44453150	2.95330429
-0.11859952	-0.44463649	2.95330453
-0.11823986	-0.44457361	2.95330524
-0.11783886	-0.44453049	2.95330596
-0.11762791	-0.44480228	2.95330501
-0.11728748	-0.44542205	2.95330286
-0.11700219	-0.44583374	2.95330143
-0.11566551	-0.44565713	2.95330381
-0.11543219	-0.44603986	2.95330238
-0.11502358	-0.44703293	2.95329881
-0.11424706	-0.44783944	2.95329642
-0.11298993	-0.44782543	2.95329785
-0.11250409	-0.44790828	2.95329809
-0.11097262	-0.44827378	2.95329833
-0.11061867	-0.44849044	2.95329785
-0.10975969	-0.44869879	2.95329809
-0.10941371	-0.44903892	2.95329714
-0.10887584	-0.44915077	2.95329714
-0.10811017	-0.44933355	2.95329738
-0.10765736	-0.44929624	2.95329809
-0.10727025	-0.44963306	2.95329714
-0.10662262	-0.45013791	2.95329571
-0.10559362	-0.45002979	2.95329738
-0.10545348	-0.45041031	2.95329595
-0.10428134	-0.45024714	2.95329809
-0.10420260	-0.45060623	2.95329666
-0.10381810	-0.45081046	2.95329618
-0.10359547	-0.45118409	2.95329499
-0.10335201	-0.45152959	2.95329380
-0.10278312	-0.45167530	2.95329380
-0.10239924	-0.45180976	2.95329380
-0.10195196	-0.45205203	2.95329332
-0.10179594	-0.45273036	2.95329070
-0.10130447	-0.45314825	2.95328951
-0.10078314	-0.45350736	2.95328856
-0.10024784	-0.45346314	2.95328951
-0.09968007	-0.45351613	2.95328999
-0.09937508	-0.45388293	2.95328879
-0.09896908	-0.45471999	2.95328569
-0.09783292	-0.45546356	2.95328403
-0.09719339	-0.45550054	2.95328474
-0.09682576	-0.45590556	2.95328331
-0.09581319	-0.45665941	2.95328140
-0.09468232	-0.45649970	2.95328331
-0.09407291	-0.45657229	2.95328379
-0.09354062	-0.45696369	2.95328283
-0.09313987	-0.45689744	2.95328355
-0.09282456	-0.45725024	2.95328236
-0.09254443	-0.45796466	2.95327997
-0.09165786	-0.45798129	2.95328069
-0.09100763	-0.45802736	2.95328140
-0.09052405	-0.45800072	2.95328212
-0.09008256	-0.45849937	2.95328045
-0.08959716	-0.45915049	2.95327830
-0.08810394	-0.45908380	2.95328045
-0.08781862	-0.45949557	2.95327902
-0.08669823	-0.45934993	2.95328093
-0.08658870	-0.45971966	2.95327950
-0.08618502	-0.45983255	2.95327950
-0.08578461	-0.46033454	2.95327783
-0.08495014	-0.46032214	2.95327878
-0.08479961	-0.46066529	2.95327759
-0.08459885	-0.46097434	2.95327663
-0.08426730	-0.46105665	2.95327663
-0.08384712	-0.46153700	2.95327520
-0.08253764	-0.46157509	2.95327663
-0.08228561	-0.46184355	2.95327568
-0.08200015	-0.46225518	2.95327425
-0.08169556	-0.46259892	2.95327330
-0.08116852	-0.46267840	2.95327353
-0.08075694	-0.46264446	2.95327425
-0.08050453	-0.46293598	2.95327330
-0.08018315	-0.46305567	2.95327306
-0.07983755	-0.46337271	2.95327234
-0.07972509	-0.46392161	2.95327020
-0.07939586	-0.46448582	2.95326829
-0.07869342	-0.46458423	2.95326853
-0.07854239	-0.46497375	2.95326710
-0.07822128	-0.46507016	2.95326710
-0.07768612	-0.46502605	2.95326805
-0.07746373	-0.46537650	2.95326686
-0.07677808	-0.46629024	2.95326376
-0.07499376	-0.46637899	2.95326543
-0.07491428	-0.46680766	2.95326376
-0.07460166	-0.46700454	2.95326328
-0.07419547	-0.46725014	2.95326281
-0.07343009	-0.46861586	2.95325804
-0.07302936	-0.46914083	2.95325637
-0.07202217	-0.46958286	2.95325589
-0.07189891	-0.47016412	2.95325351
-0.07015875	-0.47066846	2.95325351
-0.06899232	-0.47078499	2.95325422
-0.06854508	-0.47161859	2.95325136
-0.06657159	-0.47132295	2.95325494
-0.06620920	-0.47141597	2.95325494
-0.06543543	-0.47206658	2.95325327
-0.06507311	-0.47215962	2.95325327
-0.06362109	-0.47209635	2.95325518
-0.06277308	-0.47227231	2.95325541
-0.06261121	-0.47269422	2.95325375
-0.06200197	-0.47276700	2.95325422
-0.06104674	-0.47317988	2.95325351
-0.05963597	-0.47312006	2.95325541
-0.05845845	-0.47326875	2.95325613
-0.05793439	-0.47378379	2.95325470
-0.05680639	-0.47405958	2.95325494
-0.05640563	-0.47399330	2.95325565
-0.05491521	-0.47436211	2.95325589
-0.05475070	-0.47493997	2.95325351
-0.05333994	-0.47488013	2.95325541
-0.05120163	-0.47457084	2.95325923
-0.04762253	-0.47414282	2.95326495
-0.04682098	-0.47401026	2.95326638
-0.04660980	-0.47430527	2.95326543
-0.04511656	-0.47423849	2.95326734
-0.04362605	-0.47401589	2.95326996
-0.04188319	-0.47408485	2.95327187
-0.04163633	-0.47465587	2.95326972
-0.03998123	-0.47441977	2.95327258
-0.03953654	-0.47450599	2.95327282
-0.03901234	-0.47442958	2.95327353
-0.03823843	-0.47448874	2.95327425
-0.03668461	-0.47435048	2.95327663
-0.03573532	-0.47501993	2.95327497
-0.03476643	-0.47502971	2.95327592
-0.03363552	-0.47486997	2.95327806
-0.03335281	-0.47512579	2.95327735
-0.03271062	-0.47531867	2.95327711
-0.03125048	-0.47572321	2.95327711
-0.03024048	-0.47572961	2.95327830
-0.02987812	-0.47582263	2.95327830
-0.02874736	-0.47625437	2.95327783
-0.00637104	-0.47100338	2.95332479
-0.00422734	-0.47041461	2.95332980
0.00467449	-0.46787626	2.95335031
0.00848170	-0.46633631	2.95336080
0.01382906	-0.46385521	2.95337701
0.03565490	-0.45354933	2.95344400
0.06305724	-0.43489558	2.95355153
0.06813057	-0.43026078	2.95357633
0.07507090	-0.42331886	2.95361257
0.08826256	-0.40952522	2.95368409
0.09525566	-0.39965513	2.95373225
0.10120361	-0.38772795	2.95378780
0.10556460	-0.37761641	2.95383406
0.10683347	-0.37408608	2.95385003
0.10884123	-0.36797300	2.95387721
0.11003342	-0.36357856	2.95389652
0.11374316	-0.34493828	2.95397687
0.11382847	-0.34390455	2.95398116
0.11401094	-0.33832070	2.95400429
0.11410499	-0.33538902	2.95401645
0.11404884	-0.32911053	2.95404196
0.11337998	-0.32496920	2.95405817
0.11255220	-0.31997049	2.95407748
0.10915766	-0.30117145	2.95415044
0.10385684	-0.27750960	2.95424104
0.09449022	-0.25237858	2.95433307
0.09393332	-0.25115195	2.95433760
0.08554950	-0.23342597	2.95440030
0.08402140	-0.23025922	2.95441151
0.07957954	-0.22184047	2.95444083
0.07840813	-0.21963781	2.95444870
0.07717614	-0.21750659	2.95445585
0.07659194	-0.21649478	2.95445943
0.07607330	-0.21570033	2.95446205
0.07418297	-0.21244046	2.95447326
0.07311555	-0.21088712	2.95447826
0.07197144	-0.20908427	2.95448446
0.07150772	-0.20847453	2.95448637
0.07094240	-0.20796297	2.95448780
0.06968040	-0.20589072	2.95449471
0.06940596	-0.20551136	2.95449615
0.06875841	-0.20441513	2.95449972
0.06743327	-0.20225829	2.95450711
0.06702996	-0.20157717	2.95450950
0.06598458	-0.20011173	2.95451427
0.06554258	-0.20018147	2.95451331
0.06486748	-0.19927694	2.95451641
0.06433804	-0.19845001	2.95451903
0.06361091	-0.19751653	2.95452213
0.06325682	-0.19729987	2.95452261
0.06236769	-0.19653590	2.95452476
0.06164609	-0.19532284	2.95452881
0.06131942	-0.19550595	2.95452762
0.06068292	-0.19444200	2.95453143
0.06018911	-0.19389123	2.95453310
0.05970888	-0.19352880	2.95453405
0.05946464	-0.19311367	2.95453525
0.05854259	-0.19222951	2.95453787
0.05761521	-0.19103336	2.95454168
0.05725015	-0.19078442	2.95454240
0.05612494	-0.19007313	2.95454407
0.05569389	-0.19017515	2.95454311
0.05529064	-0.18949404	2.95454550
0.05488172	-0.18909250	2.95454645
0.05467056	-0.18879756	2.95454741
0.05435765	-0.18857750	2.95454812
0.05411350	-0.18816236	2.95454955
0.05322708	-0.18755430	2.95455098
0.05286742	-0.18761724	2.95455027
0.05226101	-0.18710899	2.95455170
0.05177539	-0.18643470	2.95455384
0.05141319	-0.18634158	2.95455384
0.05092475	-0.18551131	2.95455670
0.05048278	-0.18558107	2.95455599
0.04983803	-0.18464075	2.95455909
0.04923701	-0.18444441	2.95455909
0.04888019	-0.18407181	2.95456028
0.04827923	-0.18328413	2.95456266
0.04770309	-0.18274012	2.95456433
0.04689904	-0.18212529	2.95456600
0.04650370	-0.18191208	2.95456624
0.04609767	-0.18166639	2.95456696
0.04545015	-0.18057016	2.95457053
0.04496440	-0.18048730	2.95457029
0.04407791	-0.17987925	2.95457196
0.04375683	-0.17978278	2.95457196
0.04278537	-0.17902562	2.95457387
0.04234896	-0.17881578	2.95457435
0.04202782	-0.17871931	2.95457435
0.04117994	-0.17795187	2.95457649
0.04085613	-0.17769948	2.95457721
0.03997240	-0.17724736	2.95457792
0.03956085	-0.17668992	2.95457983
0.03923971	-0.17659345	2.95457983
0.03895698	-0.17633772	2.95458055
0.03835871	-0.17629726	2.95458007
0.03803223	-0.17588894	2.95458126
0.03770569	-0.17548063	2.95458269
0.03646543	-0.17347306	2.95458937
0.03545258	-0.17390209	2.95458651
0.03500532	-0.17365983	2.95458698
0.03440151	-0.17330766	2.95458770
0.03404199	-0.17277913	2.95458937
0.03360283	-0.17300466	2.95458794
0.03291125	-0.17234741	2.95458984
0.03266717	-0.17193218	2.95459127
0.03242572	-0.17167300	2.95459223
0.03101786	-0.17070597	2.95459437
0.03069399	-0.17045358	2.95459509
0.03037018	-0.17020117	2.95459580
0.02968944	-0.17016762	2.95459509
0.02895971	-0.16907808	2.95459867
0.02763145	-0.16794835	2.95460176
0.02726925	-0.16785522	2.95460176
0.02642120	-0.16708791	2.95460391
0.02586145	-0.16629678	2.95460653
0.02485159	-0.16569886	2.95460796
0.02384715	-0.16482148	2.95461035
0.02336150	-0.16414718	2.95461249
0.02243666	-0.16369843	2.95461321
0.02170940	-0.16335636	2.95461392
0.02130609	-0.16267526	2.95461631
0.02033731	-0.16207400	2.95461750
0.01997769	-0.16213691	2.95461679
0.01901178	-0.16110018	2.95462012
0.01844919	-0.16074452	2.95462084
0.01796083	-0.15991428	2.95462370
0.01663269	-0.15878442	2.95462680
0.01606740	-0.15827283	2.95462823
0.01405877	-0.15592656	2.95463562
0.01369368	-0.15567762	2.95463610
0.01245092	-0.15351400	2.95464349
0.01168524	-0.15273990	2.95464587
0.01104033	-0.15239103	2.95464659
0.00995378	-0.15092891	2.95465136
-0.06470186	0.00478330	2.95520234
-0.06563181	0.00672682	2.95520926
-0.06539016	0.00705905	2.95521092
-0.06486041	0.00741503	2.95521283
-0.06490394	0.00875051	2.95521832
-0.06536202	0.00961649	2.95522141
-0.06541148	0.01010415	2.95522332
-0.06528260	0.01041718	2.95522475
-0.06549352	0.01128022	2.95522785
-0.06524353	0.01232755	2.95523262
-0.06524338	0.01291899	2.95523500
-0.06488357	0.01357336	2.95523810
-0.06512219	0.01426806	2.95524049
-0.06543762	0.01523553	2.95524406
-0.06556918	0.01569319	2.95524597
-0.06551968	0.01641162	2.95524883
-0.06545367	0.01737730	2.95525289
-0.06602978	0.01851262	2.95525694
-0.06626844	0.01920731	2.95525956
-0.06647381	0.01975861	2.95526147
-0.06602691	0.02015419	2.95526361
-0.06630394	0.02068962	2.95526552
-0.06630094	0.02171658	2.95526958
-0.06654449	0.02267674	2.95527339
-0.06670127	0.02342464	2.95527625
-0.06697263	0.02421628	2.95527911
-0.06653357	0.02446516	2.95528054
-0.06704398	0.02538328	2.95528388
-0.06684075	0.02614759	2.95528722
-0.06785019	0.02851981	2.95529580
-0.06753719	0.02889113	2.95529747
-0.06774012	0.02930972	2.95529914
-0.06794036	0.03016369	2.95530224
-0.06765479	0.03034344	2.95530343
-0.06858175	0.03269918	2.95531201
-0.06884269	0.03350495	2.95531487
-0.06867517	0.03395404	2.95531702
-0.06880362	0.03482401	2.95532036
-0.06896544	0.03524591	2.95532203
-0.06936307	0.03679805	2.95532775
-0.07060870	0.03911747	2.95533586
-0.07128906	0.04033400	2.95534015
-0.07154135	0.04121691	2.95534348
-0.07529745	0.04751596	2.95536494
-0.08827493	0.05908500	2.95539737
-0.09174376	0.06124441	2.95540214
-0.09311870	0.06209123	2.95540404
-0.09830268	0.06510268	2.95541048
-0.10934620	0.07087049	2.95542145
-0.11008433	0.07124491	2.95542216
-0.11364148	0.07254969	2.95542336
-0.12527512	0.07666072	2.95542693
-0.12834637	0.07726800	2.95542598
-0.13319719	0.07882851	2.95542669
-0.13513486	0.07943955	2.95542693
-0.13977586	0.08084440	2.95542741
-0.14038253	0.08076112	2.95542645
-0.14147773	0.08032526	2.95542336
-0.14219959	0.08035544	2.95542264
-0.14489864	0.08093014	2.95542192
-0.14702202	0.08152269	2.95542192
-0.14807056	0.08136977	2.95542026
-0.14902270	0.08160363	2.95542002
-0.14941263	0.08150502	2.95541906
-0.15012625	0.08165886	2.95541906
-0.15118846	0.08169411	2.95541787
-0.15314518	0.08221394	2.95541787
-0.15531941	0.08281869	2.95541787
-0.15638690	0.08255123	2.95541549
-0.15730901	0.08284411	2.95541573
-0.15747924	0.08255091	2.95541430
-0.16047157	0.08339053	2.95541430
-0.16072416	0.08309054	2.95541286
-0.16131088	0.08302900	2.95541191
-0.16355896	0.08372743	2.95541215
-0.16399293	0.08380456	2.95541191
-0.16431960	0.08362143	2.95541072
-0.16467926	0.08355850	2.95541024
-0.16534957	0.08360611	2.95540953
-0.16579166	0.08355975	2.95540881
-0.16606627	0.08334769	2.95540762
-0.16652179	0.08346629	2.95540762
-0.16857304	0.08402835	2.95540762
-0.17180344	0.08490162	2.95540762
-0.17303646	0.08471343	2.95540524
-0.17407748	0.08475375	2.95540428
-0.17901140	0.08637710	2.95540524
-0.18126477	0.08677272	2.95540428
-0.18526638	0.08754919	2.95540309
-0.18806058	0.08702971	2.95539761
-0.18964700	0.08698864	2.95539570
-0.19101936	0.08708808	2.95539451
-0.19126922	0.08663224	2.95539236
-0.19254285	0.08698563	2.95539236
-0.19308628	0.08681788	2.95539117
-0.19552043	0.08692954	2.95538878
-0.19611372	0.08668123	2.95538712
-0.19903120	0.08733441	2.95538640
-0.19931346	0.08695237	2.95538449
-0.20073296	0.08740665	2.95538473
-0.20213766	0.08758007	2.95538378
-0.20576903	0.08841023	2.95538306
-0.20798683	0.08852962	2.95538116
-0.21094020	0.08827615	2.95537663
-0.21125850	0.08760205	2.95537353
-0.21235123	0.08762476	2.95537233
-0.21436803	0.08802676	2.95537186
-0.21479082	0.08804840	2.95537138
-0.21590507	0.08811261	2.95537043
-0.21744213	0.08819848	2.95536900
-0.21807894	0.08807954	2.95536780
-0.21913560	0.08839443	2.95536780
-0.22089759	0.08898678	2.95536828
-0.22248402	0.08894570	2.95536613
-0.22316003	0.08812231	2.95536208
-0.22366710	0.08822347	2.95536184
-0.22393090	0.08797897	2.95536065
-0.22464451	0.08813281	2.95536041
-0.22493815	0.08782956	2.95535898
-0.22609922	0.08822548	2.95535922
-0.22670034	0.08842181	2.95535922
-0.22811067	0.08893020	2.95535970
-0.22835231	0.08859795	2.95535803
-0.22887394	0.08836554	2.95535660
-0.23085296	0.08899641	2.95535684
-0.23214066	0.08837853	2.95535302
-0.23303276	0.08811553	2.95535088
-0.23455587	0.08858134	2.95535088
-0.23618054	0.08897237	2.95535064
-0.23672113	0.08803405	2.95534635
-0.23767416	0.08833745	2.95534635
-0.23856354	0.08791855	2.95534372
-0.23924975	0.08767262	2.95534182
-0.23966390	0.08777139	2.95534182
-0.24003685	0.08787358	2.95534182
-0.24124503	0.08803304	2.95534110
-0.24189772	0.08821185	2.95534110
-0.24209821	0.08788300	2.95533943
-0.24273777	0.08791994	2.95533895
-0.24383010	0.08791959	2.95533776
-0.24403061	0.08759071	2.95533609
-0.24455754	0.08767021	2.95533586
-0.24520528	0.08758360	2.95533466
-0.24597113	0.08776627	2.95533466
-0.24655057	0.08792111	2.95533466
-0.24695665	0.08755207	2.95533276
-0.24823028	0.08790551	2.95533252
-0.24880359	0.08767891	2.95533109
-0.24941298	0.08775157	2.95533061
-0.24990433	0.08755486	2.95532918
-0.25062889	0.08774099	2.95532918
-0.25159806	0.08777396	2.95532823
-0.25205088	0.08773665	2.95532751
-0.25240201	0.08777417	2.95532727
-0.25297016	0.08785024	2.95532703
-0.25389782	0.08786353	2.95532608
-0.25425744	0.08780059	2.95532537
-0.25502336	0.08800660	2.95532537
-0.25575328	0.08788994	2.95532393
-0.25737831	0.08830407	2.95532393
-0.25810277	0.08787557	2.95532131
-0.25842389	0.08797203	2.95532131
-0.25869846	0.08775999	2.95532012
-0.25915402	0.08787856	2.95532012
-0.25951624	0.08797167	2.95532012
-0.26153353	0.08842003	2.95531964
-0.26193175	0.08819772	2.95531821
-0.26241481	0.08812465	2.95531726
-0.26273593	0.08822112	2.95531726
-0.26352081	0.08831255	2.95531678
-0.26667145	0.08934863	2.95531750
-0.26736343	0.08823161	2.95531225
-0.26824999	0.08824818	2.95531130
-0.26926267	0.08841057	2.95531082
-0.27000132	0.08821668	2.95530915
-0.27082175	0.08858438	2.95530963
-0.27142289	0.08878064	2.95530987
-0.27219129	0.08911934	2.95531034
-0.27283907	0.08903271	2.95530915
-0.27353078	0.08909853	2.95530868
-0.27400833	0.08930501	2.95530891
-0.27441180	0.08939469	2.95530891
-0.27566326	0.08966035	2.95530844
-0.43114853	0.16380112	2.95543408
-0.43308610	0.16441216	2.95543432
-0.43334132	0.16485953	2.95543599
-0.43410143	0.16532195	2.95543694
-0.43454057	0.16568771	2.95543790
-0.43453220	0.16640279	2.95544100
-0.43562716	0.16714974	2.95544267
-0.43578082	0.16769531	2.95544481
-0.43647772	0.16807307	2.95544553
-0.43687302	0.16828635	2.95544600
-0.43724060	0.16869138	2.95544720
-0.43791842	0.16975185	2.95545077
-0.43855774	0.17038023	2.95545244
-0.43888432	0.17078859	2.95545387
-0.44005883	0.17137289	2.95545483
-0.44017133	0.17192180	2.95545697
-0.44073662	0.17243338	2.95545840
-0.44145834	0.17305499	2.95546007
-0.44174632	0.17362273	2.95546222
-0.44290993	0.17476608	2.95546556
-0.44347519	0.17527768	2.95546699
-0.44407907	0.17562982	2.95546770
-0.44476777	0.17613131	2.95546889
-0.44540444	0.17660379	2.95547009
-0.44560760	0.17702225	2.95547175
-0.44601372	0.17726782	2.95547223
-0.44677657	0.17788616	2.95547390
-0.44725680	0.17824858	2.95547485
-0.44798404	0.17859066	2.95547533
-0.44834912	0.17883962	2.95547605
-0.44911200	0.17945786	2.95547771
-0.45008630	0.17977950	2.95547771
-0.45036343	0.18031484	2.95547962
-0.45125529	0.18064344	2.95548010
-0.45149133	0.18118207	2.95548201
-0.45266590	0.18176636	2.95548296
-0.45286074	0.18230852	2.95548487
-0.45435375	0.18283330	2.95548534
-0.45581090	0.18367341	2.95548725
-0.45612919	0.18420535	2.95548892
-0.45701560	0.18481338	2.95549035
-0.45757815	0.18516901	2.95549130
-0.45984235	0.18618843	2.95549297
-0.46185955	0.18722817	2.95549488
-0.46233976	0.18759063	2.95549583
-0.46319050	0.18792254	2.95549607
-0.46460131	0.18845406	2.95549679
-0.46726617	0.18940718	2.95549750
-0.47107807	0.19113633	2.95550036
-0.47525248	0.19298169	2.95550299
-0.47779664	0.19410090	2.95550466
-0.48057950	0.19532341	2.95550656
-0.48247603	0.19593784	2.95550680
-0.48546496	0.19655186	2.95550609
-0.49455506	0.19838396	2.95550299
-0.49924028	0.19875842	2.95549917
-0.50324202	0.19894347	2.95549560
-0.50453764	0.19877017	2.95549321
-0.50757051	0.19835392	2.95548820
-0.51020014	0.19784808	2.95548296
-0.51615369	0.19646659	2.95547056
-0.52804482	0.19335945	2.95544434
-0.53452021	0.19115409	2.95542789
-0.53626597	0.19019611	2.95542216
-0.54428440	0.18543145	2.95539355
-0.55386209	0.17963436	2.95535874
-0.55855376	0.17618063	2.95533943
