//X	Y	Z
-0.05562154	-0.05431374	2.02426672
-0.06047698	-0.01062021	2.02406597
-0.06123772	-0.00772940	2.02405262
-0.06168098	-0.00605180	2.02404499
-0.06207990	-0.00527602	2.02404165
-0.06412851	-0.00113155	2.02402306
-0.06470896	0.00009876	2.02401757
-0.06883955	0.01066640	2.02396965
-0.06971912	0.01224589	2.02396274
-0.07026356	0.01314409	2.02395868
-0.07083555	0.01380476	2.02395582
-0.07165150	0.01528968	2.02394915
-0.07338424	0.01794564	2.02393723
-0.07400209	0.01830206	2.02393579
-0.07471821	0.01982574	2.02392912
-0.07562684	0.01996164	2.02392864
-0.07606181	0.02106954	2.02392364
-0.07657021	0.02163565	2.02392125
-0.07728768	0.02195334	2.02391982
-0.07817823	0.02215591	2.02391934
-0.07881418	0.02291103	2.02391601
-0.07942244	0.02390375	2.02391148
-0.08015646	0.02536083	2.02390504
-0.08061923	0.02623114	2.02390099
-0.08108194	0.02710145	2.02389717
-0.08211663	0.02816704	2.02389264
-0.08312468	0.02826428	2.02389240
-0.08414144	0.02939649	2.02388740
-0.08451419	0.02966921	2.02388620
-0.08491312	0.03044501	2.02388287
-0.08603932	0.03136751	2.02387881
-0.08699213	0.03240526	2.02387428
-0.08770152	0.03261859	2.02387357
-0.08810850	0.03349875	2.02386951
-0.08861843	0.03332419	2.02387047
-0.08990804	0.03430250	2.02386642
-0.09125258	0.03387502	2.02386880
-0.09181645	0.03396595	2.02386856
-0.09202399	0.03445821	2.02386618
-0.09243251	0.03459770	2.02386570
-0.09290487	0.03483170	2.02386475
-0.09374966	0.03487309	2.02386475
-0.09419606	0.03506934	2.02386403
-0.09503103	0.03528171	2.02386332
-0.09604785	0.03687930	2.02385616
-0.09701920	0.03878104	2.02384782
-0.09965229	0.04100320	2.02383828
-0.10103193	0.04257910	2.02383137
-0.10204017	0.04267629	2.02383113
-0.10237531	0.04335757	2.02382803
-0.10263855	0.04383998	2.02382588
-0.10392689	0.04602429	2.02381611
-0.10484516	0.04598927	2.02381659
-0.10609723	0.04737614	2.02381063
-0.10825814	0.04936425	2.02380204
-0.10866673	0.04950375	2.02380157
-0.10926636	0.04946144	2.02380180
-0.10986607	0.04941913	2.02380228
-0.11103648	0.05124350	2.02379417
-0.11248123	0.05170790	2.02379227
-0.11342567	0.05171058	2.02379251
-0.11419735	0.05275910	2.02378798
-0.11530387	0.05402357	2.02378249
-0.11602000	0.05554726	2.02377558
-0.11659194	0.05574255	2.02377486
-0.11750893	0.05691352	2.02376962
-0.11872391	0.05963962	2.02375746
-0.12015768	0.06194634	2.02374721
-0.12177419	0.06303624	2.02374268
-0.12237387	0.06299394	2.02374291
-0.12327273	0.06376620	2.02373958
-0.12415198	0.06441498	2.02373695
-0.12483348	0.06486596	2.02373505
-0.12555924	0.06575334	2.02373123
-0.12636819	0.06592796	2.02373052
-0.12712148	0.06611243	2.02372980
-0.12763010	0.06714386	2.02372527
-0.12814809	0.06707366	2.02372575
-0.12891956	0.06765684	2.02372336
-0.13027270	0.06826434	2.02372074
-0.13076304	0.06889711	2.02371812
-0.13129914	0.06922562	2.02371669
-0.13182551	0.06972511	2.02371454
-0.13256107	0.07044151	2.02371144
-0.13337815	0.07072051	2.02371049
-0.13382272	0.07119209	2.02370834
-0.13439496	0.07231808	2.02370334
-0.13539356	0.07305158	2.02370024
-0.13611081	0.07290395	2.02370095
-0.13721915	0.07389309	2.02369690
-0.13757215	0.07450774	2.02369404
-0.13854457	0.07473816	2.02369332
-0.13895313	0.07487765	2.02369285
-0.13928017	0.07545457	2.02369022
-0.14008904	0.07562925	2.02368951
-0.14119555	0.07689372	2.02368402
-0.14158621	0.07709982	2.02368331
-0.14208655	0.07756156	2.02368116
-0.14263073	0.07799443	2.02367949
-0.14391054	0.07914372	2.02367449
-0.14435509	0.07961530	2.02367234
-0.14642715	0.07979988	2.02367210
-0.14729996	0.08006901	2.02367115
-0.14803541	0.08078548	2.02366805
-0.14999260	0.08507296	2.02364874
-0.15140696	0.08818696	2.02363467
-0.15255226	0.08783693	2.02363658
-0.15416610	0.09133883	2.02362084
-0.15570085	0.09240082	2.02361655
-0.15743622	0.09264479	2.02361584
-0.15829091	0.09251520	2.02361679
-0.15920778	0.09322079	2.02361369
-0.16070651	0.09395069	2.02361083
-0.16193375	0.09409387	2.02361035
-0.16232283	0.09504066	2.02360630
-0.16397664	0.09525666	2.02360559
-0.16451441	0.09530989	2.02360559
-0.16564846	0.09587143	2.02360320
-0.16607493	0.09594432	2.02360320
-0.16684656	0.09699282	2.02359843
-0.16852811	0.09697124	2.02359915
-0.17010969	0.09652309	2.02360153
-0.17138816	0.09887839	2.02359104
-0.17315972	0.09945439	2.02358890
-0.23400529	0.26091483	2.02285886
-0.23414117	0.26167357	2.02285528
-0.23344035	0.26249525	2.02285147
-0.23337540	0.26360667	2.02284622
-0.23348352	0.26460299	2.02284169
-0.23350973	0.26510608	2.02283931
-0.23325500	0.26565865	2.02283669
-0.23384377	0.26745868	2.02282858
-0.23361528	0.26851436	2.02282357
-0.23479645	0.27202904	2.02280760
-0.23513834	0.27402070	2.02279854
-0.23466624	0.27425203	2.02279735
-0.23337390	0.27522033	2.02279234
-0.23180075	0.27670354	2.02278519
-0.23079942	0.27791667	2.02277923
-0.23037139	0.27858445	2.02277589
-0.23018856	0.27933595	2.02277231
-0.22993384	0.27988857	2.02276969
-0.22973303	0.28070664	2.02276587
-0.22899632	0.28119618	2.02276349
-0.22894937	0.28270641	2.02275634
-0.22820282	0.28383228	2.02275109
-0.22801062	0.28568539	2.02274227
-0.22851630	0.28819814	2.02273083
-0.23085357	0.29593009	2.02269578
-0.25734389	0.38657716	2.02228355
-0.26065174	0.39434946	2.02224874
-0.26064214	0.39498577	2.02224565
-0.26090091	0.39563841	2.02224278
-0.26087964	0.39625561	2.02223992
-0.26079464	0.39688390	2.02223682
-0.26094937	0.39738554	2.02223468
-0.26057786	0.39785302	2.02223229
-0.26063204	0.39858386	2.02222896
-0.26026765	0.39888084	2.02222753
-0.26052290	0.39972422	2.02222371
-0.26013249	0.39998347	2.02222228
-0.26011828	0.40043014	2.02222037
-0.25965884	0.40095553	2.02221775
-0.25908366	0.40131077	2.02221584
-0.25918540	0.40192741	2.02221322
-0.25872779	0.40264276	2.02220964
-0.25868237	0.40341228	2.02220607
-0.25827229	0.40401348	2.02220321
-0.25786221	0.40461463	2.02220035
-0.25781682	0.40538418	2.02219677
-0.25795433	0.40586758	2.02219439
-0.25718793	0.40640464	2.02219176
-0.25724199	0.40713555	2.02218843
-0.25705928	0.40788698	2.02218485
-0.25665906	0.40831718	2.02218270
-0.25600386	0.40883467	2.02218008
-0.25587517	0.41031694	2.02217317
-0.25529224	0.41149858	2.02216768
-0.25560147	0.41260752	2.02216268
-0.25480896	0.41310695	2.02216005
-0.25458047	0.41416261	2.02215505
-0.25476205	0.41461712	2.02215314
-0.25462505	0.41552973	2.02214885
-0.25434235	0.41585463	2.02214718
-0.25438690	0.41722170	2.02214098
-0.25397700	0.41782281	2.02213788
-0.25405878	0.41831613	2.02213573
-0.25356716	0.41888937	2.02213287
-0.25370306	0.41964811	2.02212954
-0.25356588	0.42009538	2.02212739
-0.25381953	0.42121410	2.02212214
-0.25356323	0.42250735	2.02211618
-0.25383353	0.42476547	2.02210569
-0.25430039	0.42694652	2.02209592
-0.25431877	0.42781055	2.02209187
-0.25389051	0.42801300	2.02209067
-0.25409183	0.42859095	2.02208805
-0.25353441	0.42887968	2.02208662
-0.25302649	0.42924419	2.02208471
-0.25318077	0.43086699	2.02207732
-0.25283268	0.43137261	2.02207494
-0.25139642	0.43194327	2.02207184
-0.25188422	0.43693417	2.02204895
-0.25157398	0.43796194	2.02204394
-0.25133583	0.43965396	2.02203608
-0.25086236	0.44062588	2.02203155
-0.25418609	0.44972810	2.02199030
-0.25345996	0.45032158	2.02198720
-0.25408486	0.45245367	2.02197766
-0.25392973	0.45296758	2.02197528
-0.25408351	0.45365968	2.02197194
-0.25392839	0.45417356	2.02196956
-0.25407261	0.45550197	2.02196360
-0.25333583	0.45599151	2.02196097
-0.25274315	0.45780951	2.02195239
-0.25319624	0.45931613	2.02194548
-0.25237766	0.45977780	2.02194309
-0.25147733	0.46021160	2.02194095
-0.25173932	0.46190003	2.02193308
-0.25084743	0.46290344	2.02192831
-0.25063705	0.46435782	2.02192140
-0.25079918	0.46561962	2.02191567
-0.25068009	0.46646562	2.02191162
-0.25091562	0.46718565	2.02190852
-0.25100565	0.46778318	2.02190566
-0.25157648	0.46964985	2.02189732
-0.25143930	0.47009709	2.02189517
-0.25644034	0.48427659	2.02183104
-0.25643075	0.48491287	2.02182794
-0.25733674	0.48746076	2.02181649
-0.25693670	0.48835626	2.02181220
-0.25777361	0.49516827	2.02178097
-0.26416200	0.50368780	2.02174330
-0.27539715	0.51788884	2.02168083
-0.27958182	0.52277780	2.02165937
-0.28323972	0.52623653	2.02164435
-0.30130270	0.53743553	2.02159786
-0.33762446	0.54702199	2.02156401
-0.36877778	0.54599112	2.02157784
-0.38446468	0.54466301	2.02158856
-0.39513731	0.54075003	2.02160978
-0.48008355	0.50239396	2.02181220
-0.48252952	0.50117987	2.02181840
-0.48426619	0.50021780	2.02182341
-0.48900405	0.49709764	2.02183938
-0.49172407	0.49452376	2.02185202
-0.49279743	0.49350947	2.02185702
-0.49428895	0.49246368	2.02186227
-0.49439976	0.49104804	2.02186894
-0.49634564	0.48983756	2.02187514
-0.49966538	0.48722127	2.02188802
-0.50041169	0.48609546	2.02189350
-0.50100440	0.48427743	2.02190208
-0.50115955	0.48376361	2.02190447
-0.50183266	0.48317945	2.02190757
-0.50321478	0.48234344	2.02191186
-0.50510782	0.47966152	2.02192473
-0.50742757	0.47751775	2.02193522
-0.50767428	0.47686076	2.02193832
-0.50873774	0.47601748	2.02194262
-0.50996608	0.47448933	2.02195001
-0.51015854	0.47310153	2.02195668
-0.51075000	0.47248954	2.02195954
-0.50983429	0.47057793	2.02196813
-0.51038969	0.46963385	2.02197266
-0.51138121	0.46859175	2.02197790
-0.51146418	0.46741363	2.02198339
-0.51284909	0.46416551	2.02199864
-0.51236844	0.46336180	2.02200222
-0.51244164	0.46282008	2.02200484
-0.51267844	0.46233410	2.02200723
-0.51322550	0.46082032	2.02201438
-0.51378918	0.46044585	2.02201629
-0.51545382	0.45881966	2.02202415
-0.51644546	0.45777747	2.02202940
-0.51583868	0.45604405	2.02203727
-0.51575005	0.45424044	2.02204561
-0.51715004	0.45333779	2.02205014
-0.51715136	0.45213184	2.02205563
-0.51743382	0.45134160	2.02205944
-0.51726210	0.45071620	2.02206230
-0.51849174	0.44798201	2.02207541
-0.51864684	0.44746816	2.02207780
-0.51988357	0.44650963	2.02208257
-0.52023947	0.44517761	2.02208877
-0.52083069	0.44456571	2.02209187
-0.51959670	0.44311213	2.02209830
-0.51920855	0.44049412	2.02211022
-0.51912814	0.43926024	2.02211595
-0.51884699	0.43884438	2.02211785
-0.51936626	0.43756819	2.02212381
-0.51983994	0.43659624	2.02212834
-0.51947701	0.43615255	2.02213049
-0.52035922	0.43532002	2.02213454
-0.52002412	0.43463871	2.02213764
-0.52106124	0.43329233	2.02214408
-0.52129805	0.43280634	2.02214646
-0.52165395	0.43147439	2.02215266
-0.52157354	0.43024051	2.02215838
-0.52149314	0.42900661	2.02216411
-0.52221173	0.42811835	2.02216840
-0.52237642	0.42696816	2.02217388
-0.52241385	0.42609426	2.02217793
-0.52182066	0.42456999	2.02218461
-0.52225304	0.42362642	2.02218914
-0.52250075	0.42129818	2.02220011
-0.52348655	0.41727436	2.02221894
-0.52326274	0.41657341	2.02222228
-0.52378047	0.41603783	2.02222490
-0.52409095	0.41547543	2.02222753
-0.52447307	0.41464648	2.02223134
-0.52512938	0.41292310	2.02223969
-0.52489203	0.41201299	2.02224374
-0.52541965	0.41130650	2.02224731
-0.52522147	0.40971264	2.02225447
-0.52501369	0.40875500	2.02225900
-0.52487344	0.40827203	2.02226114
-0.52550519	0.40771639	2.02226377
-0.52477211	0.40663987	2.02226853
-0.52492726	0.40612596	2.02227116
-0.52519983	0.40550673	2.02227402
-0.52564579	0.40477234	2.02227759
-0.52561957	0.40426925	2.02227974
-0.52520269	0.40356007	2.02228308
-0.52566653	0.40275905	2.02228689
-0.52532154	0.40224877	2.02228904
-0.52537787	0.40168869	2.02229166
-0.52554381	0.40127873	2.02229357
-0.52547723	0.40071929	2.02229619
-0.52571392	0.40023336	2.02229857
-0.52597326	0.39987037	2.02230024
-0.52622336	0.39912814	2.02230382
-0.52629673	0.39858633	2.02230644
-0.52643394	0.39813900	2.02230859
-0.52647126	0.39726514	2.02231264
-0.52667207	0.39644706	2.02231646
-0.52664560	0.39547867	2.02232075
-0.52668297	0.39460474	2.02232504
-0.52680206	0.39375871	2.02232885
-0.52655673	0.39320973	2.02233124
-0.52635866	0.39208120	2.02233648
-0.52644026	0.39164370	2.02233863
-0.52577811	0.39038551	2.02234411
-0.52599698	0.38996613	2.02234626
-0.64264518	0.26489428	2.02295947
-0.64485556	0.26296031	2.02296901
-0.64770287	0.26011005	2.02298307
-0.64885795	0.25912365	2.02298784
-0.64994925	0.25850812	2.02299118
-0.65124959	0.25717881	2.02299762
-0.65213186	0.25681165	2.02299953
-0.65313160	0.25587383	2.02300429
-0.65375918	0.25605926	2.02300358
-0.65440458	0.25571278	2.02300549
-0.65509582	0.25552738	2.02300644
-0.65594047	0.25556883	2.02300644
-0.65671325	0.25494602	2.02300954
-0.65744025	0.25462741	2.02301121
-0.65779507	0.25496677	2.02300978
-0.65873122	0.25439972	2.02301264
-0.65942234	0.25421435	2.02301383
-0.65994024	0.25414419	2.02301431
-0.66069508	0.25358802	2.02301693
-0.66115916	0.25325233	2.02301884
-0.66239595	0.25275916	2.02302146
-0.66297758	0.25231817	2.02302361
-0.66344160	0.25198248	2.02302527
-0.66381425	0.25225520	2.02302408
-0.66477811	0.25145060	2.02302814
-0.66553307	0.25135976	2.02302885
-0.66646922	0.25079274	2.02303171
-0.66718817	0.25036979	2.02303386
-0.66791511	0.25005123	2.02303553
-0.66897058	0.24910355	2.02304029
-0.66987085	0.24866976	2.02304244
-0.67234397	0.24628748	2.02305436
-0.67330837	0.24641351	2.02305388
-0.67521638	0.24514627	2.02306032
-0.67571622	0.24467735	2.02306271
-0.67638940	0.24455863	2.02306342
-0.67863441	0.24369735	2.02306819
-0.67953455	0.24326360	2.02307034
-0.68060815	0.24271461	2.02307320
-0.68110806	0.24224567	2.02307558
-0.68151653	0.24238518	2.02307510
-0.68238068	0.24161935	2.02307868
-0.68299019	0.24140605	2.02307987
-0.68338060	0.24114682	2.02308130
-0.68399996	0.24076258	2.02308321
-0.68505371	0.24055564	2.02308440
-0.68689996	0.23938385	2.02309036
-0.68805492	0.23839748	2.02309537
-0.68864775	0.23899108	2.02309275
-0.68997586	0.23788951	2.02309823
-0.69038445	0.23802900	2.02309775
-0.69125330	0.23745275	2.02310061
-0.69176143	0.23755349	2.02310038
-0.69238889	0.23727360	2.02310181
-0.69288880	0.23727009	2.02310205
-0.69325316	0.23697311	2.02310348
-0.69373536	0.23703614	2.02310324
-0.69414371	0.23671028	2.02310491
-0.69461066	0.23694514	2.02310395
-0.69516158	0.23663655	2.02310562
-0.69558287	0.23671016	2.02310538
-0.69605505	0.23694424	2.02310443
-0.69672370	0.23653030	2.02310658
-0.69718254	0.23666075	2.02310610
-0.69831836	0.23694697	2.02310514
-0.69919080	0.23675081	2.02310634
-0.70010906	0.23625043	2.02310872
-0.70159948	0.23641063	2.02310848
-0.70255369	0.23624235	2.02310967
-0.70340818	0.23611277	2.02311039
-0.70426261	0.23551786	2.02311349
-0.70471704	0.23581848	2.02311206
-0.70529866	0.23537746	2.02311444
-0.70617974	0.23621631	2.02311063
-0.70725161	0.23640805	2.02311015
-0.70824194	0.23657185	2.02310967
-0.70861459	0.23684457	2.02310848
-0.71014088	0.23687156	2.02310896
-0.71071291	0.23753220	2.02310586
-0.71152163	0.23724152	2.02310753
-0.71240282	0.23808035	2.02310395
-0.71334749	0.23854832	2.02310205
-0.71473789	0.23828198	2.02310371
-0.71564651	0.23841792	2.02310324
-0.71608275	0.23831981	2.02310395
-0.71732783	0.23793098	2.02310610
-0.71794564	0.23828739	2.02310467
-0.71859092	0.23794095	2.02310634
-0.71912700	0.23826948	2.02310491
-0.71949971	0.23854217	2.02310395
-0.72044593	0.23862936	2.02310371
-0.72090012	0.23846462	2.02310467
-0.72136259	0.23850974	2.02310443
-0.72184473	0.23893259	2.02310276
-0.72246242	0.23882371	2.02310348
-0.72309798	0.23875371	2.02310395
-0.72348863	0.23895983	2.02310300
-0.72419786	0.23906761	2.02310276
-0.72463250	0.23935041	2.02310157
-0.72510636	0.23920360	2.02310252
-0.72683823	0.24147898	2.02309227
-0.72798407	0.24205956	2.02309012
-0.72877288	0.24164547	2.02309227
-0.72929114	0.24204060	2.02309060
-0.72988290	0.24235930	2.02308917
-0.73029137	0.24249880	2.02308869
-0.73213375	0.24494502	2.02307796
-0.73305988	0.24408364	2.02308226
-0.73397863	0.24497928	2.02307820
-0.73491311	0.24468756	2.02307987
-0.73634785	0.24532297	2.02307725
-0.73749375	0.24590358	2.02307510
-0.73798376	0.24560562	2.02307653
-0.73875523	0.24618879	2.02307415
-0.73928314	0.24641302	2.02307320
-0.73978156	0.24668470	2.02307200
-0.74052864	0.24695483	2.02307105
-0.74124408	0.24708256	2.02307057
-0.74198931	0.24716265	2.02307057
-0.74262500	0.24745250	2.02306938
-0.74388021	0.24782339	2.02306795
-0.74436045	0.24769643	2.02306867
-0.74541456	0.24795474	2.02306771
-0.74609596	0.24794033	2.02306819
-0.74667770	0.24796462	2.02306819
-0.74805850	0.24833457	2.02306676
-0.74950451	0.24759299	2.02307057
-0.75049490	0.24775681	2.02307010
-0.75189352	0.24806017	2.02306914
-0.75263876	0.24814026	2.02306914
-0.75326627	0.24786037	2.02307057
-0.75411248	0.24716115	2.02307391
-0.75511104	0.24789460	2.02307081
-0.75560129	0.24806201	2.02307034
-0.75637424	0.24790455	2.02307129
-0.75780088	0.24797024	2.02307129
-0.75871778	0.24867582	2.02306843
-0.76040745	0.24922398	2.02306628
-0.76139784	0.24938780	2.02306581
-0.76249760	0.24934191	2.02306628
-0.76419854	0.24851310	2.02307057
-0.76493382	0.24876419	2.02306986
-0.76650739	0.24821168	2.02307272
-0.76778847	0.24815500	2.02307343
-0.76840603	0.24804604	2.02307415
-0.76953369	0.24822791	2.02307367
-0.77006978	0.24855644	2.02307224
-0.77112377	0.24881485	2.02307129
-0.77157634	0.24892539	2.02307105
-0.77224195	0.24963298	2.02306795
-0.77299517	0.24981740	2.02306724
-0.77332383	0.25011909	2.02306581
-0.77377826	0.25041971	2.02306461
-0.77425706	0.25103331	2.02306199
-0.77471310	0.25105867	2.02306199
-0.77517557	0.25146365	2.02306032
-0.77568394	0.25202975	2.02305770
-0.77636534	0.25201535	2.02305794
-0.77673811	0.25228804	2.02305675
-0.77703720	0.25263724	2.02305532
-0.77765489	0.25299370	2.02305388
-0.77919608	0.25443536	2.02304769
-0.78041679	0.25373355	2.02305126
-0.78077787	0.25398719	2.02305007
-0.78118795	0.25385138	2.02305102
-0.78165853	0.25436068	2.02304864
-0.78395557	0.25757289	2.02303457
-0.78585440	0.25787264	2.02303362
-0.78754312	0.26009205	2.02302384
-0.78806949	0.26059154	2.02302170
-0.78877711	0.26154563	2.02301741
-0.78980345	0.26204151	2.02301550
-0.79025787	0.26234213	2.02301431
-0.79081172	0.26213869	2.02301526
-0.79130214	0.26277140	2.02301264
-0.79232860	0.26326728	2.02301049
-0.79321909	0.26300451	2.02301192
-0.79472643	0.26523477	2.02300215
-0.79571021	0.26501897	2.02300334
-0.79631460	0.26563165	2.02300072
-0.79724139	0.26616624	2.02299857
-0.79878300	0.26853865	2.02298808
-0.80023873	0.26762608	2.02299261
-0.80070120	0.26803109	2.02299094
-0.80152810	0.26813912	2.02299070
-0.80202401	0.26887655	2.02298737
-0.80281496	0.26911783	2.02298641
-0.80319029	0.26939017	2.02298546
-0.80425233	0.26928747	2.02298617
-0.80474013	0.26992062	2.02298331
-0.80530411	0.27047691	2.02298093
-0.80588853	0.27050078	2.02298093
-0.80639672	0.27060157	2.02298069
-0.80753809	0.27145797	2.02297711
-0.80811840	0.27222288	2.02297378
-0.81026423	0.27474254	2.02296257
-0.81136388	0.27469671	2.02296305
-0.81219876	0.27444369	2.02296448
-0.81250590	0.27489725	2.02296257
-0.81349826	0.27571642	2.02295899
-0.81399840	0.27571285	2.02295923
-0.81518477	0.27681515	2.02295446
-0.81622082	0.27714017	2.02295327
-0.81650203	0.27755591	2.02295136
-0.81680107	0.27790511	2.02294993
-0.81741887	0.27826154	2.02294850
-0.81798124	0.27909309	2.02294469
-0.81898141	0.27908593	2.02294517
-0.81950772	0.27958542	2.02294278
-0.82100630	0.28031540	2.02293992
-0.82184309	0.28025240	2.02294040
-0.82250655	0.28030461	2.02294040
-0.82336926	0.28074476	2.02293873
-0.82373220	0.28118846	2.02293658
-0.82445925	0.28086984	2.02293849
-0.82512122	0.28166276	2.02293491
-0.82564902	0.28142154	2.02293611
-0.82654780	0.28172842	2.02293491
-0.82795656	0.28186071	2.02293491
-0.82971138	0.28129742	2.02293801
-0.83044672	0.28154850	2.02293706
-0.83103812	0.28140193	2.02293777
-0.83200073	0.28180331	2.02293634
-0.83293563	0.28244227	2.02293348
-0.83469886	0.28244859	2.02293396
-0.83597034	0.28302816	2.02293181
-0.83786094	0.28275827	2.02293348
-0.83991474	0.28254408	2.02293515
-0.84025973	0.28305441	2.02293277
-0.84184146	0.28260624	2.02293539
-0.84267664	0.28328395	2.02293253
-0.84382188	0.28293386	2.02293444
-0.84508514	0.28294376	2.02293468
-0.84658515	0.28246769	2.02293754
-0.84843963	0.28186563	2.02294087
-0.84973890	0.28220764	2.02293944
-0.85063893	0.28177392	2.02294183
-0.85285652	0.28161553	2.02294326
-0.85342020	0.28170648	2.02294302
-0.85418332	0.28172001	2.02294302
-0.85538268	0.28163540	2.02294374
-0.85589266	0.28146079	2.02294469
-0.85670972	0.28173980	2.02294374
-0.85740912	0.28212416	2.02294207
-0.85878175	0.28192437	2.02294350
-0.85916257	0.28230146	2.02294183
-0.85959888	0.28220335	2.02294254
-0.86058092	0.28226286	2.02294254
-0.86107117	0.28243020	2.02294183
-0.86155331	0.28249323	2.02294159
-0.86210740	0.28275514	2.02294064
-0.86261553	0.28285593	2.02294040
-0.86316144	0.28301346	2.02293968
-0.86385256	0.28282812	2.02294087
-0.86436898	0.28303322	2.02293992
-0.86502427	0.28298113	2.02294040
-0.86550456	0.28331947	2.02293897
-0.86622262	0.28456783	2.02293348
-0.86950338	0.28356618	2.02293897
-0.87064886	0.28321609	2.02294087
-0.87116683	0.28314587	2.02294135
-0.87224829	0.28270128	2.02294374
-0.87407511	0.28233683	2.02294612
-0.87539369	0.28187162	2.02294850
-0.87607503	0.28185719	2.02294874
-0.87792969	0.28125513	2.02295208
-0.87891155	0.28084928	2.02295423
-0.88545835	0.27743119	2.02297211
-0.88646656	0.27752841	2.02297187
-0.88796657	0.27705228	2.02297449
-0.90033174	0.27174079	2.02300286
-0.91354477	0.26498938	2.02303791
-0.91587108	0.26369068	2.02304459
-0.93314248	0.25171751	2.02310514
-0.94442540	0.23857960	2.02316928
-0.94809389	0.23285572	2.02319670
-0.95944238	0.20912941	2.02330995
-0.99236357	0.13599131	2.02365828
-0.99050581	0.13073432	2.02368212
-0.97964889	0.10203965	2.02381182
-0.97638375	0.09590975	2.02383924
-0.97283638	0.09057001	2.02386284
-0.97204685	0.08958810	2.02386737
-0.97074896	0.08804011	2.02387404
-0.96987760	0.08703031	2.02387857
-0.96936929	0.08646421	2.02388096
-0.96778905	0.08570635	2.02388406
-0.96644539	0.08446255	2.02388930
-0.96544683	0.08372906	2.02389240
-0.96247000	0.07979059	2.02390981
-0.85241079	-0.05342379	2.02449465
-0.85236460	-0.05405027	2.02449775
-0.85249382	-0.05460192	2.02450013
-0.85223866	-0.05497995	2.02450180
-0.85230392	-0.05562612	2.02450490
-0.85217607	-0.05628047	2.02450800
-0.85196835	-0.05723806	2.02451229
-0.85155928	-0.05830820	2.02451706
-0.85184205	-0.05863307	2.02451873
-0.85125351	-0.05996773	2.02452469
-0.85099030	-0.06045014	2.02452683
-0.85066319	-0.06102708	2.02452946
-0.85022014	-0.06223935	2.02453494
-0.84963965	-0.06346963	2.02454042
-0.84887791	-0.06468912	2.02454591
-0.84895933	-0.06512653	2.02454805
-0.84818769	-0.06617508	2.02455258
-0.84824324	-0.06665026	2.02455473
-0.84049505	-0.07662223	2.02459860
-0.83988690	-0.07761495	2.02460313
-0.83994240	-0.07809014	2.02460527
-0.84027863	-0.07908016	2.02461004
-0.84038943	-0.08003047	2.02461457
-0.83904725	-0.08248030	2.02462554
-0.82606119	-0.09973615	2.02470160
-0.82568151	-0.10131916	2.02470875
-0.82544738	-0.10324518	2.02471757
-0.81792432	-0.11372221	2.02476406
-0.81710863	-0.11520718	2.02477050
-0.77441227	-0.17120188	2.02501750
-0.76198870	-0.18716073	2.02508783
-0.64737767	-0.31430483	2.02564335
-0.59430909	-0.37124133	2.02589154
-0.57109869	-0.39229953	2.02598214
-0.56175196	-0.39748377	2.02600360
-0.55003995	-0.39928937	2.02600861
-0.54749566	-0.39924258	2.02600765
-0.54651546	-0.39911202	2.02600670
-0.54431427	-0.39874494	2.02600431
-0.54095978	-0.39766681	2.02599835
-0.51577663	-0.38761970	2.02594447
-0.40429053	-0.33322364	2.02566004
-0.40457037	-0.33160183	2.02565265
-0.40469646	-0.33067214	2.02564836
-0.40435034	-0.32997650	2.02564502
-0.40349591	-0.32938161	2.02564216
-0.40355268	-0.32865116	2.02563858
-0.40048239	-0.32669234	2.02562881
-0.39971498	-0.32596469	2.02562523
-0.39812380	-0.32488024	2.02561975
-0.31638625	-0.27767688	2.02537727
-0.18843915	-0.20535833	2.02500510
-0.18578401	-0.20436125	2.02499962
-0.18372671	-0.20359647	2.02499557
-0.18325436	-0.20383050	2.02499652
-0.18220870	-0.20351915	2.02499461
-0.18184584	-0.20396283	2.02499676
-0.17994687	-0.20426254	2.02499747
-0.17656489	-0.20248148	2.02498817
-0.16918498	-0.19908574	2.02497029
-0.16852784	-0.19922370	2.02497077
-0.16714686	-0.19959360	2.02497220
-0.16222750	-0.19692795	2.02495837
-0.16096428	-0.19693786	2.02495813
-0.15979111	-0.19635019	2.02495503
-0.15724538	-0.19556272	2.02495050
-0.13229145	-0.17876577	2.02486563
-0.13114263	-0.17786506	2.02486110
-0.11551614	-0.16548420	2.02479911
-0.11493298	-0.16476788	2.02479553
-0.11243429	-0.16102725	2.02477765
-0.07944721	-0.10955986	2.02452970
-0.07732559	-0.10582226	2.02451158
