//X	Y	Z
-0.08401757	-0.11379959	2.23782516
-0.08198321	-0.10956381	2.23780775
-0.08143491	-0.10805117	2.23780203
-0.07435223	-0.08526450	2.23771620
-0.07388498	-0.08372451	2.23771024
-0.07351511	-0.08232250	2.23770523
-0.07220957	-0.07663430	2.23768473
-0.07065110	-0.06249009	2.23763657
-0.07085423	-0.05912234	2.23762631
-0.07139666	-0.05460435	2.23761296
-0.07326318	-0.04394853	2.23758245
-0.07396322	-0.04346702	2.23758221
-0.07573186	-0.03927191	2.23757195
-0.07802287	-0.03337386	2.23755741
-0.07955711	-0.03110509	2.23755312
-0.08038313	-0.02979068	2.23755050
-0.08078107	-0.02901579	2.23754883
-0.08192391	-0.02695388	2.23754430
-0.08278662	-0.02530676	2.23754072
-0.08456307	-0.02174976	2.23753262
-0.08547025	-0.02040800	2.23752999
-0.08640860	-0.02050763	2.23753214
-0.08692438	-0.01937267	2.23752952
-0.08775041	-0.01805830	2.23752689
-0.08826616	-0.01692331	2.23752403
-0.08905551	-0.01594160	2.23752236
-0.08972044	-0.01588807	2.23752356
-0.09051625	-0.01433834	2.23751998
-0.09142345	-0.01299651	2.23751760
-0.09224948	-0.01168215	2.23751473
-0.09262648	-0.01140524	2.23751473
-0.09396831	-0.00895588	2.23750925
-0.09435967	-0.00874905	2.23750949
-0.09467649	-0.00800154	2.23750758
-0.09505366	-0.00772472	2.23750734
-0.09559788	-0.00672977	2.23750520
-0.09578261	-0.00627233	2.23750424
-0.09632204	-0.00594077	2.23750401
-0.09673419	-0.00523590	2.23750257
-0.09714811	-0.00462636	2.23750138
-0.09755371	-0.00448954	2.23750186
-0.09826189	-0.00353518	2.23749995
-0.09886646	-0.00301097	2.23749948
-0.09946337	-0.00184862	2.23749685
-0.10005355	-0.00125432	2.23749614
-0.10091633	0.00039278	2.23749256
-0.10193595	0.00032046	2.23749471
-0.10302410	0.00025022	2.23749685
-0.10372125	0.00203323	2.23749256
-0.10496991	0.00211303	2.23749447
-0.10596112	0.00218073	2.23749614
-0.10635072	0.00248286	2.23749590
-0.10685347	0.00248171	2.23749685
-0.10733902	0.00385199	2.23749328
-0.10853513	0.00376435	2.23749590
-0.10899996	0.00463662	2.23749399
-0.10987023	0.00564572	2.23749232
-0.11145952	0.00566961	2.23749518
-0.11224052	0.00617854	2.23749518
-0.11309796	0.00605150	2.23749709
-0.11356264	0.00692381	2.23749518
-0.11451533	0.00675407	2.23749757
-0.11498017	0.00762635	2.23749566
-0.11548292	0.00762519	2.23749661
-0.11637408	0.00913228	2.23749328
-0.11803500	0.00991690	2.23749399
-0.12070893	0.01006120	2.23749852
-0.12248100	0.01063788	2.23749995
-0.12343256	0.01167431	2.23749828
-0.12536055	0.01173759	2.23750186
-0.12667212	0.01442232	2.23749566
-0.12758033	0.01455802	2.23749685
-0.12808955	0.01512491	2.23749614
-0.12848747	0.01589977	2.23749423
-0.12986830	0.01626962	2.23749566
-0.13049543	0.01719659	2.23749399
-0.13321906	0.01880970	2.23749375
-0.13486695	0.01845821	2.23749804
-0.13574393	0.02003533	2.23749471
-0.13743488	0.02058467	2.23749614
-0.13854221	0.02110774	2.23749638
-0.14153287	0.02199955	2.23749924
-0.14329860	0.02200811	2.23750234
-0.14401448	0.02232439	2.23750281
-0.14476696	0.02297341	2.23750210
-0.14551300	0.02305432	2.23750329
-0.14638345	0.02406342	2.23750162
-0.14831680	0.02590088	2.23749924
-0.14980879	0.02606276	2.23750162
-0.15112270	0.02633523	2.23750305
-0.15163197	0.02690215	2.23750234
-0.15323529	0.02685604	2.23750544
-0.15458599	0.02746121	2.23750591
-0.15548658	0.02823492	2.23750520
-0.15631264	0.02954934	2.23750257
-0.15648140	0.03017212	2.23750091
-0.15731394	0.03205460	2.23749638
-0.15884930	0.03311720	2.23749590
-0.15955737	0.03407159	2.23749423
-0.15999319	0.03397306	2.23749542
-0.16034672	0.03505331	2.23749256
-0.16066353	0.03580082	2.23749065
-0.16116625	0.03579964	2.23749161
-0.16223565	0.03719617	2.23748922
-0.16318724	0.03823257	2.23748779
-0.16394910	0.03814822	2.23748946
-0.16436145	0.03885301	2.23748779
-0.16564675	0.03926554	2.23748899
-0.16586643	0.04015104	2.23748660
-0.16633129	0.04102331	2.23748469
-0.16718870	0.04089623	2.23748660
-0.16788092	0.04201589	2.23748446
-0.16943333	0.04170711	2.23748827
-0.17026052	0.04181536	2.23748946
-0.17059803	0.04306095	2.23748612
-0.17103386	0.04296242	2.23748732
-0.17260712	0.04315162	2.23748946
-0.17324188	0.04344051	2.23748970
-0.17429811	0.04370097	2.23749089
-0.17551669	0.04401606	2.23749208
-0.17626275	0.04409697	2.23749328
-0.17736521	0.04395676	2.23749590
-0.17766595	0.04486958	2.23749352
-0.17804138	0.04524174	2.23749304
-0.17881179	0.04563006	2.23749328
-0.17959163	0.04734515	2.23748922
-0.18100563	0.05166607	2.23747802
-0.18183115	0.05529744	2.23746800
-0.18279634	0.05515305	2.23747015
-0.18313561	0.05630327	2.23746729
-0.18369916	0.05694228	2.23746610
-0.18419856	0.05713173	2.23746657
-0.18487990	0.05813082	2.23746467
-0.18669301	0.05859274	2.23746657
-0.18750602	0.05877104	2.23746753
-0.18784222	0.05916267	2.23746681
-0.18868522	0.05910567	2.23746848
-0.18896371	0.05961574	2.23746753
-0.18936320	0.06029534	2.23746610
-0.18965769	0.06064007	2.23746538
-0.19066948	0.06120587	2.23746562
-0.19153340	0.06164687	2.23746586
-0.19203612	0.06164571	2.23746681
-0.19257376	0.06207257	2.23746634
-0.19279525	0.06286275	2.23746419
-0.19339332	0.06281891	2.23746538
-0.19498064	0.06293818	2.23746800
-0.19667947	0.06284937	2.23747158
-0.19702643	0.06336155	2.23747063
-0.19862206	0.06395353	2.23747158
-0.19943506	0.06413185	2.23747253
-0.20077907	0.06416900	2.23747492
-0.20195916	0.06424669	2.23747683
-0.20306824	0.06467446	2.23747754
-0.20348039	0.06537931	2.23747611
-0.20453674	0.06563971	2.23747730
-0.20485352	0.06638720	2.23747540
-0.20678109	0.06739976	2.23747587
-0.20753530	0.06795350	2.23747540
-0.20781539	0.06836829	2.23747468
-0.20885573	0.06879399	2.23747516
-0.20922527	0.06970892	2.23747301
-0.21045634	0.07004931	2.23747420
-0.21191220	0.07098930	2.23747396
-0.21830767	0.12850091	2.23730254
-0.23169027	0.28291947	2.23683500
-0.23184368	0.28481835	2.23682928
-0.26486075	0.45060778	2.23636222
-0.29077083	0.49740338	2.23626113
-0.31825256	0.51241028	2.23626447
-0.31975126	0.51314014	2.23626494
-0.33906507	0.52105707	2.23627567
-0.33997163	0.52128810	2.23627663
-0.34360006	0.52116728	2.23628378
-0.36997613	0.51978457	2.23633718
-0.37303489	0.51956755	2.23634362
-0.37594563	0.51922596	2.23635006
-0.38587695	0.51681173	2.23637629
-0.38826245	0.51606846	2.23638320
-0.43148685	0.49647638	2.23652601
-0.44013196	0.49253893	2.23655462
-0.44148540	0.49184269	2.23655939
-0.44212785	0.49149352	2.23656178
-0.44294858	0.49103367	2.23656464
-0.44360524	0.49061453	2.23656726
-0.44639319	0.48924944	2.23657680
-0.44717723	0.48845696	2.23658085
-0.44847810	0.48759332	2.23658586
-0.44950527	0.48688290	2.23659015
-0.44995710	0.48661906	2.23659182
-0.46372753	0.47995824	2.23663855
-0.46889290	0.47737712	2.23665643
-0.47019383	0.47651348	2.23666167
-0.47077110	0.47597161	2.23666453
-0.47192559	0.47488797	2.23667002
-0.47248691	0.47451138	2.23667216
-0.47288424	0.47417548	2.23667407
-0.47354430	0.47356567	2.23667717
-0.47510281	0.47271410	2.23668289
-0.47442305	0.47161976	2.23668504
-0.47497189	0.47121787	2.23668742
-0.47473449	0.47059307	2.23668885
-0.47493458	0.46977437	2.23669195
-0.47489965	0.46934634	2.23669314
-0.47519076	0.46893251	2.23669505
-0.47686476	0.46742544	2.23670292
-0.47692630	0.46574864	2.23670840
-0.47662550	0.46483579	2.23671079
-0.47703964	0.46449620	2.23671269
-0.47735426	0.46422809	2.23671412
-0.47772652	0.46384162	2.23671603
-0.47800598	0.46314555	2.23671889
-0.47822863	0.46272963	2.23672056
-0.47895813	0.46186507	2.23672462
-0.47923508	0.46152121	2.23672628
-0.47992018	0.46096203	2.23672938
-0.48049745	0.46042013	2.23673201
-0.49027672	0.45353323	2.23677230
-0.49106067	0.45274070	2.23677611
-0.49237561	0.45180708	2.23678160
-0.49331534	0.45050126	2.23678756
-0.49485290	0.44915169	2.23679471
-0.49600580	0.44816324	2.23679996
-0.49580857	0.44768053	2.23680115
-0.49675304	0.44703805	2.23680496
-0.49731439	0.44666150	2.23680735
-0.49769437	0.44563696	2.23681116
-0.49812189	0.44506565	2.23681378
-0.49887896	0.44431794	2.23681760
-0.49884820	0.44344246	2.23682046
-0.49951923	0.44295323	2.23682308
-0.49985301	0.44232935	2.23682570
-0.50010407	0.44177336	2.23682809
-0.50037110	0.44105205	2.23683071
-0.50070333	0.44052339	2.23683310
-0.50119954	0.43995416	2.23683596
-0.50171745	0.43867689	2.23684096
-0.50322503	0.43756258	2.23684716
-0.50346184	0.43707666	2.23684931
-0.50460035	0.43615830	2.23685431
-0.50483721	0.43567234	2.23685622
-0.50655138	0.43430740	2.23686385
-0.50622809	0.43299180	2.23686743
-0.50626594	0.43211839	2.23687029
-0.50587487	0.43138087	2.23687196
-0.50611007	0.43099022	2.23687363
-0.50659192	0.43049100	2.23687601
-0.50730902	0.42960116	2.23688030
-0.50803602	0.42908880	2.23688316
-0.50857484	0.42830947	2.23688674
-0.50886440	0.42799091	2.23688817
-0.50878739	0.42751616	2.23688960
-0.50933790	0.42701906	2.23689222
-0.50998217	0.42657450	2.23689485
-0.51041144	0.42590794	2.23689771
-0.51116508	0.42535084	2.23690104
-0.51156414	0.42491961	2.23690295
-0.51255476	0.42387646	2.23690820
-0.51354653	0.42162722	2.23691726
-0.51373237	0.42087859	2.23691988
-0.51382113	0.42026785	2.23692203
-0.51307619	0.41898078	2.23692489
-0.51369613	0.41822889	2.23692846
-0.51351321	0.41767606	2.23692989
-0.51400763	0.41720220	2.23693228
-0.51437175	0.41634291	2.23693562
-0.51489460	0.41572896	2.23693848
-0.51461631	0.41521889	2.23693967
-0.51530302	0.41456440	2.23694301
-0.51541859	0.41390893	2.23694539
-0.51671278	0.41247725	2.23695230
-0.51696390	0.41192126	2.23695445
-0.51744586	0.41142207	2.23695707
-0.51779228	0.41082340	2.23695970
-0.51793373	0.41038010	2.23696136
-0.51823753	0.40999150	2.23696303
-0.51894021	0.40917167	2.23696709
-0.51946485	0.40846241	2.23697019
-0.51936126	0.40803230	2.23697138
-0.51952958	0.40754423	2.23697329
-0.52040708	0.40680438	2.23697734
-0.52027315	0.40619114	2.23697901
-0.52134484	0.40517539	2.23698425
-0.52116013	0.40471792	2.23698521
-0.52206969	0.40364745	2.23699045
-0.52324438	0.40236950	2.23699665
-0.52197599	0.40058559	2.23699999
-0.52210671	0.40002170	2.23700213
-0.52220631	0.39953148	2.23700380
-0.52277106	0.39896441	2.23700666
-0.52381259	0.39818400	2.23701119
-0.52340639	0.39693639	2.23701429
-0.52356386	0.39632767	2.23701644
-0.52324528	0.39567554	2.23701811
-0.52300966	0.39495537	2.23701978
-0.52315110	0.39451203	2.23702145
-0.52304745	0.39408195	2.23702264
-0.52243376	0.39292330	2.23702526
-0.52273750	0.39253473	2.23702717
-0.52288067	0.39199612	2.23702908
-0.52266926	0.39158350	2.23703003
-0.52306658	0.39124745	2.23703170
-0.52322054	0.39082944	2.23703337
-0.52333522	0.39043087	2.23703480
-0.52369595	0.38976219	2.23703766
-0.52416360	0.38933301	2.23704004
-0.52423644	0.38888767	2.23704147
-0.52507311	0.38826257	2.23704505
-0.52506483	0.38778982	2.23704648
-0.52553082	0.38745594	2.23704839
-0.52589482	0.38659671	2.23705196
-0.52606481	0.38601336	2.23705411
-0.52590853	0.38541579	2.23705578
-0.52621394	0.38493192	2.23705769
-0.52611029	0.38450181	2.23705888
-0.52636313	0.38385051	2.23706150
-0.52651888	0.38333720	2.23706341
-0.52633417	0.38287979	2.23706460
-0.52671230	0.38195050	2.23706818
-0.52648562	0.38159090	2.23706889
-0.52675426	0.38077429	2.23707199
-0.52682704	0.38032889	2.23707366
-0.52672338	0.37989879	2.23707485
-0.52715045	0.37943971	2.23707700
-0.52734518	0.37905160	2.23707867
-0.52764237	0.37809497	2.23708224
-0.52762151	0.37759691	2.23708391
-0.52806497	0.37686032	2.23708701
-0.52786720	0.37526679	2.23709178
-0.52829468	0.37469548	2.23709440
-0.52821994	0.37398058	2.23709655
-0.52832460	0.37320459	2.23709917
-0.52831644	0.37273186	2.23710060
-0.52862000	0.37234330	2.23710251
-0.52900493	0.37198207	2.23710418
-0.52876592	0.37145248	2.23710561
-0.52910066	0.37099016	2.23710752
-0.52932066	0.37050784	2.23710966
-0.52944958	0.37003925	2.23711133
-0.52979422	0.36953598	2.23711348
-0.52991158	0.36878520	2.23711610
-0.53037924	0.36835599	2.23711848
-0.53045642	0.36788163	2.23712015
-0.53067470	0.36749473	2.23712158
-0.53089732	0.36707878	2.23712349
-0.53097451	0.36660433	2.23712516
-0.53204191	0.36561757	2.23713017
-0.53270787	0.36446506	2.23713517
-0.53246242	0.36378589	2.23713684
-0.53287131	0.36331365	2.23713899
-0.53282815	0.36283135	2.23714066
-0.53299809	0.36224800	2.23714280
-0.53277409	0.36181003	2.23714375
-0.53332198	0.36124665	2.23714662
-0.53359908	0.36090273	2.23714805
-0.53476602	0.35984442	2.23715377
-0.53559434	0.35874656	2.23715878
-0.53606808	0.35777459	2.23716259
-0.53580225	0.35728979	2.23716378
-0.53649837	0.35590190	2.23716950
-0.53640914	0.35540175	2.23717093
-0.53695607	0.35509533	2.23717284
-0.53765887	0.35427541	2.23717690
-0.53769028	0.35283393	2.23718143
-0.53825158	0.35245740	2.23718381
-0.53903675	0.35129586	2.23718882
-0.53934056	0.35090727	2.23719072
-0.54134411	0.34922379	2.23719978
-0.54186875	0.34851456	2.23720312
-0.54192913	0.34804386	2.23720455
-0.54271138	0.34734666	2.23720837
-0.54309624	0.34698543	2.23721027
-0.54377639	0.34576285	2.23721528
-0.54420578	0.34509629	2.23721814
-0.54479069	0.34391636	2.23722315
-0.54453903	0.34336153	2.23722434
-0.54461187	0.34291616	2.23722601
-0.54505873	0.34198898	2.23722982
-0.54532421	0.34136289	2.23723221
-0.54539704	0.34091750	2.23723388
-0.54545903	0.34035158	2.23723578
-0.54585636	0.34001565	2.23723745
-0.54618853	0.33948702	2.23723984
-0.54603571	0.33869892	2.23724198
-0.54636794	0.33817029	2.23724437
-0.54660481	0.33768427	2.23724627
-0.54691195	0.33710510	2.23724866
-0.54691786	0.33656234	2.23725057
-0.54738557	0.33613315	2.23725271
-0.54771781	0.33560452	2.23725510
-0.54751056	0.33474436	2.23725748
-0.54863483	0.33389604	2.23726225
-0.54848027	0.33320323	2.23726416
-0.54822880	0.33264834	2.23726535
-0.54874909	0.33238658	2.23726726
-0.54946005	0.33203954	2.23726964
-0.55001312	0.33119026	2.23727345
-0.54960865	0.32984734	2.23727703
-0.54983306	0.32933605	2.23727894
-0.54926890	0.32758620	2.23728347
-0.54949141	0.32717031	2.23728514
-0.55155951	0.32593638	2.23729300
-0.70357740	0.24347454	2.23783875
-0.70507717	0.24299841	2.23784304
-0.70776635	0.24186650	2.23785162
-0.70892572	0.24144620	2.23785520
-0.70938408	0.24175036	2.23785496
-0.71077263	0.24148214	2.23785853
-0.71162993	0.24135512	2.23786044
-0.71213078	0.24144925	2.23786116
-0.71333045	0.24117097	2.23786426
-0.71380121	0.24150053	2.23786402
-0.71493036	0.24131547	2.23786664
-0.71540457	0.24145442	2.23786712
-0.71619499	0.24123001	2.23786926
-0.71657044	0.24160212	2.23786879
-0.71808612	0.24096060	2.23787379
-0.71838057	0.24130535	2.23787308
-0.71881622	0.24120685	2.23787427
-0.71917582	0.24174428	2.23787332
-0.72210848	0.24069448	2.23788214
-0.72251409	0.24083129	2.23788238
-0.72364491	0.24055105	2.23788548
-0.72433829	0.24046455	2.23788691
-0.72497481	0.24065815	2.23788738
-0.72546154	0.24082232	2.23788786
-0.72640002	0.24072264	2.23789001
-0.72721899	0.24035814	2.23789263
-0.72766906	0.24018961	2.23789406
-0.72798741	0.24084187	2.23789263
-0.72851855	0.24070068	2.23789406
-0.72944105	0.24076629	2.23789549
-0.73000693	0.24077924	2.23789644
-0.73082405	0.24051009	2.23789883
-0.73120123	0.24078691	2.23789859
-0.73175490	0.24104850	2.23789883
-0.73245054	0.24197757	2.23789716
-0.73355538	0.24148513	2.23790073
-0.73402971	0.24162403	2.23790121
-0.73497051	0.24253988	2.23790002
-0.73547143	0.24263406	2.23790073
-0.73632121	0.24314508	2.23790073
-0.73768479	0.24488634	2.23789763
-0.73865986	0.24511942	2.23789883
-0.74039662	0.24415720	2.23790503
-0.74121869	0.24455141	2.23790526
-0.74175793	0.24488296	2.23790526
-0.74313879	0.24525282	2.23790669
-0.74375105	0.24513894	2.23790812
-0.74496198	0.24609211	2.23790741
-0.74553967	0.24666113	2.23790669
-0.74632424	0.24697948	2.23790717
-0.74704790	0.24665768	2.23790932
-0.74742484	0.24693455	2.23790932
-0.74830306	0.24730553	2.23790979
-0.74880582	0.24730438	2.23791075
-0.74996513	0.24688400	2.23791409
-0.75069684	0.24703498	2.23791504
-0.75115770	0.24698702	2.23791599
-0.75200087	0.24692996	2.23791766
-0.75284231	0.24696822	2.23791933
-0.75373310	0.24641530	2.23792267
-0.75479537	0.24613294	2.23792553
-0.75522530	0.24657716	2.23792481
-0.75582331	0.24653335	2.23792624
-0.75645804	0.24682228	2.23792648
-0.75750619	0.24660988	2.23792911
-0.75826812	0.24652551	2.23793077
-0.75885016	0.24664703	2.23793149
-0.75943404	0.24667323	2.23793244
-0.76082253	0.24640499	2.23793578
-0.76126897	0.24642703	2.23793674
-0.76171899	0.24625851	2.23793793
-0.76227444	0.24642476	2.23793840
-0.76272017	0.24670365	2.23793840
-0.76322287	0.24670254	2.23793936
-0.76376480	0.24668193	2.23794055
-0.76437283	0.24701554	2.23794055
-0.76477683	0.24724764	2.23794055
-0.76553869	0.24716327	2.23794222
-0.76606393	0.24756485	2.23794198
-0.76663828	0.24832439	2.23794055
-0.76791239	0.24750555	2.23794556
-0.76859629	0.24815242	2.23794484
-0.76923108	0.24844134	2.23794508
-0.77096659	0.24868527	2.23794746
-0.77137226	0.24882206	2.23794770
-0.77286428	0.24898396	2.23795009
-0.77358013	0.24930023	2.23795033
-0.77454889	0.24896517	2.23795319
-0.77498448	0.24886671	2.23795438
-0.77527899	0.24921143	2.23795390
-0.77674192	0.24840254	2.23795915
-0.77720022	0.24870674	2.23795891
-0.77827585	0.24819274	2.23796272
-0.77900910	0.24919759	2.23796082
-0.78045672	0.24966487	2.23796201
-0.78102452	0.24985640	2.23796248
-0.78260434	0.25061363	2.23796296
-0.78453058	0.25077224	2.23796606
-0.78579521	0.25068673	2.23796868
-0.78631687	0.25127891	2.23796773
-0.78746086	0.25213474	2.23796725
-0.78788245	0.25210622	2.23796797
-0.78920299	0.25294673	2.23796773
-0.79062980	0.25291592	2.23797059
-0.79093832	0.25319070	2.23797035
-0.79144102	0.25318950	2.23797131
-0.79210603	0.25324309	2.23797226
-0.79238766	0.25356260	2.23797178
-0.79285192	0.25332403	2.23797345
-0.79363471	0.25373769	2.23797345
-0.79484504	0.25358006	2.23797631
-0.79522222	0.25385687	2.23797607
-0.79582191	0.25371784	2.23797774
-0.79650760	0.25426945	2.23797727
-0.79702455	0.25419825	2.23797846
-0.79760832	0.25422442	2.23797941
-0.79825085	0.25387529	2.23798180
-0.79867893	0.25441480	2.23798084
-0.79926276	0.25444099	2.23798180
-0.80078751	0.25401539	2.23798585
-0.80141973	0.25465646	2.23798513
-0.80255723	0.25494418	2.23798633
-0.80300719	0.25477564	2.23798776
-0.80421889	0.25547194	2.23798776
-0.80495757	0.25524178	2.23798990
-0.80558544	0.25591186	2.23798895
-0.80623442	0.25613073	2.23798943
-0.80698878	0.25668439	2.23798895
-0.80760753	0.25713861	2.23798871
-0.80873245	0.25740114	2.23798990
-0.80927187	0.25773269	2.23798990
-0.80968261	0.25758362	2.23799109
-0.81055564	0.25824043	2.23799062
-0.81113154	0.25890478	2.23798966
-0.81192392	0.25858504	2.23799205
-0.81248999	0.25887188	2.23799229
-0.81277001	0.25928670	2.23799133
-0.81327271	0.25928551	2.23799229
-0.81379795	0.25968710	2.23799205
-0.81436735	0.25978336	2.23799276
-0.81492943	0.26051766	2.23799157
-0.81525046	0.26081765	2.23799109
-0.81592965	0.26080123	2.23799253
-0.81628007	0.26112279	2.23799205
-0.81658679	0.26149288	2.23799157
-0.81693560	0.26190975	2.23799086
-0.81746668	0.26176855	2.23799229
-0.81820512	0.26248756	2.23799133
-0.81883985	0.26277643	2.23799157
-0.81964785	0.26229143	2.23799467
-0.82019800	0.26274359	2.23799419
-0.82055926	0.26318577	2.23799348
-0.82172692	0.26323819	2.23799539
-0.82196933	0.26357719	2.23799491
-0.82244277	0.26355442	2.23799586
-0.82287860	0.26345590	2.23799706
-0.82346225	0.26348215	2.23799801
-0.82412726	0.26353574	2.23799896
-0.82471108	0.26356190	2.23799992
-0.82511669	0.26369870	2.23800039
-0.82571042	0.26410240	2.23800015
-0.82702440	0.26437485	2.23800182
-0.82730621	0.26469427	2.23800135
-0.82779300	0.26485848	2.23800159
-0.82828307	0.26483208	2.23800254
-0.82858980	0.26520213	2.23800206
-0.82918197	0.26570112	2.23800159
-0.83008856	0.26593208	2.23800254
-0.83053261	0.26630628	2.23800206
-0.83100510	0.26654047	2.23800230
-0.83188325	0.26691145	2.23800278
-0.83231884	0.26681295	2.23800373
-0.83341193	0.26740608	2.23800397
-0.83409113	0.26738963	2.23800516
-0.83451098	0.26745635	2.23800588
-0.83530974	0.26770467	2.23800659
-0.83573955	0.26814899	2.23800588
-0.83624536	0.26890644	2.23800445
-0.83727926	0.26876408	2.23800683
-0.83783621	0.26883507	2.23800755
-0.83886659	0.26888338	2.23800945
-0.83928043	0.26949286	2.23800826
-0.84128463	0.26892024	2.23801374
-0.84209770	0.26909852	2.23801470
-0.84248549	0.26949599	2.23801422
-0.84347486	0.26965898	2.23801541
-0.84406686	0.27015796	2.23801494
-0.84527558	0.27009562	2.23801756
-0.84592801	0.27012390	2.23801851
-0.84655267	0.27003539	2.23801994
-0.84735799	0.27085176	2.23801899
-0.84797031	0.27073795	2.23802042
-0.84898221	0.27130365	2.23802042
-0.84961700	0.27159253	2.23802066
-0.85084480	0.27117431	2.23802447
-0.85112321	0.27168444	2.23802328
-0.85166085	0.27211130	2.23802280
-0.85314649	0.27170506	2.23802686
-0.85406077	0.27129796	2.23802996
-0.85468966	0.27212963	2.23802853
-0.85590154	0.27187675	2.23803163
-0.85692114	0.27180439	2.23803377
-0.85748905	0.27199593	2.23803401
-0.85792488	0.27189741	2.23803520
-0.85897458	0.27158973	2.23803806
-0.85938013	0.27172655	2.23803854
-0.86064315	0.27173629	2.23804092
-0.86214286	0.27126014	2.23804522
-0.86295927	0.27124786	2.23804665
-0.86340588	0.27126986	2.23804736
-0.86432767	0.27159238	2.23804808
-0.86495405	0.27140853	2.23804998
-0.86609972	0.27216905	2.23804951
-0.86727500	0.27158338	2.23805356
-0.86766475	0.27188554	2.23805332
-0.86855882	0.27209118	2.23805451
-0.86901700	0.27239546	2.23805428
-0.86931133	0.27274024	2.23805380
-0.87044227	0.27245989	2.23805666
-0.87144589	0.27255285	2.23805833
-0.87223643	0.27232841	2.23806047
-0.87382370	0.27244768	2.23806310
-0.87498194	0.27323350	2.23806262
-0.87694770	0.27242342	2.23806906
-0.87824923	0.27267057	2.23807049
-0.88018471	0.27209586	2.23807597
-0.88068736	0.27209470	2.23807693
-0.88180232	0.27197972	2.23807931
-0.88233662	0.27259713	2.23807836
-0.88293457	0.27255341	2.23807979
-0.88380450	0.27245158	2.23808169
-0.88454282	0.27317056	2.23808074
-0.88495016	0.27321208	2.23808122
-0.88598400	0.27306971	2.23808360
-0.88740259	0.27256617	2.23808789
-0.88760161	0.27295363	2.23808718
-0.88902026	0.27245006	2.23809123
-0.89051998	0.27197388	2.23809552
-0.89205003	0.27126229	2.23810077
-0.89263386	0.27128845	2.23810172
-0.89508635	0.27064258	2.23810840
-0.89647484	0.27037430	2.23811173
-0.89773768	0.27038413	2.23811412
-0.89923757	0.26990792	2.23811841
-0.89983559	0.26986411	2.23811960
-0.90021265	0.27014101	2.23811960
-0.90219098	0.26935616	2.23812580
-0.90476298	0.26897502	2.23813176
-0.90924507	0.26685777	2.23814678
-0.91044116	0.26677015	2.23814917
-0.91137958	0.26667050	2.23815131
-0.91199178	0.26655671	2.23815274
-0.91334361	0.26595572	2.23815727
-0.91391325	0.26605195	2.23815799
-0.93210614	0.25748771	2.23821926
-0.93272018	0.25727859	2.23822093
-0.93436629	0.25702238	2.23822498
-0.93629277	0.25623181	2.23823094
-0.93707067	0.25598210	2.23823333
-0.93781674	0.25606304	2.23823428
-0.93896192	0.25571269	2.23823762
-0.93925619	0.25605747	2.23823714
-0.94030589	0.25574988	2.23824000
-0.94420952	0.25538057	2.23824835
-0.95937014	0.22957580	2.23835897
-0.96191597	0.22349463	2.23838305
-0.97246009	0.19301355	2.23849988
-0.97408605	0.18651465	2.23852348
-0.97471768	0.18261716	2.23853707
-0.97619587	0.17161644	2.23857498
-0.97662097	0.16796950	2.23858738
-0.97816110	0.15091501	2.23864460
-0.97811782	0.15001424	2.23864746
-0.97764170	0.14448278	2.23866415
-0.97740716	0.14255649	2.23866987
-0.97605473	0.13655871	2.23868656
-0.97514987	0.13280471	2.23869681
-0.97270602	0.12269074	2.23872447
-0.97191787	0.12050293	2.23872995
-0.97148323	0.11939535	2.23873258
-0.96706909	0.10847893	2.23875928
-0.96615022	0.10685499	2.23876262
-0.96520638	0.10518050	2.23876619
-0.96413040	0.10321592	2.23877048
-0.96187639	0.09971060	2.23877764
-0.96022445	0.09708183	2.23878288
-0.95936221	0.09654547	2.23878288
-0.95884353	0.09671196	2.23878145
-0.95821822	0.09568968	2.23878360
-0.95781851	0.09501013	2.23878503
-0.95731759	0.09491596	2.23878431
-0.95583451	0.09290989	2.23878789
-0.95541281	0.09293839	2.23878717
-0.95438778	0.09123652	2.23879051
-0.87442791	-0.05246006	2.23909998
-0.85865772	-0.08117512	2.23916221
-0.85865891	-0.08238128	2.23916602
-0.85826868	-0.08379421	2.23916984
-0.85791516	-0.08487445	2.23917246
-0.85705239	-0.08652160	2.23917627
-0.85771072	-0.08703604	2.23917913
-0.85653114	-0.08943066	2.23918462
-0.85543108	-0.09170267	2.23918962
-0.85565370	-0.09211867	2.23919153
-0.85546243	-0.09314418	2.23919439
-0.85583293	-0.09343535	2.23919606
-0.85566419	-0.09405810	2.23919773
-0.85505903	-0.09569320	2.23920178
-0.85496324	-0.09676138	2.23920488
-0.85406530	-0.09883648	2.23920989
-0.84896833	-0.10859668	2.23923159
-0.84360075	-0.11950505	2.23925638
-0.84336329	-0.12012988	2.23925781
-0.84380680	-0.12086646	2.23926115
-0.84417093	-0.12172580	2.23926449
-0.84391934	-0.12228061	2.23926568
-0.84313112	-0.12446845	2.23927140
-0.83909279	-0.12952490	2.23927999
-0.83779418	-0.13107350	2.23928237
-0.83620137	-0.13296688	2.23928547
-0.83526391	-0.13407330	2.23928738
-0.78285831	-0.19003427	2.23936820
-0.78134018	-0.19040824	2.23936653
-0.78079009	-0.19086045	2.23936701
-0.77929151	-0.19159032	2.23936653
-0.65612781	-0.31180152	2.23952055
-0.58506584	-0.37128609	2.23957801
-0.56609792	-0.37706625	2.23956108
-0.56349260	-0.37720844	2.23955679
-0.47892019	-0.34825015	2.23930717
-0.41003132	-0.32007444	2.23908925
-0.38391781	-0.30910060	2.23900557
-0.35584596	-0.29700559	2.23891473
-0.30206454	-0.27328616	2.23873901
-0.29907328	-0.27186096	2.23872900
-0.18116669	-0.20766644	2.23830509
-0.17940339	-0.20665953	2.23829865
-0.15774962	-0.19229929	2.23821259
-0.13758405	-0.17831142	2.23813033
-0.11040181	-0.14964737	2.23798847
