//X	Y	Z
-0.41364911	-0.39439738	2.70442510
-0.40971074	-0.39230394	2.70441151
-0.40187511	-0.38666636	2.70438290
-0.26997927	-0.29043692	2.70389962
-0.25535399	-0.27900353	2.70384502
-0.25049257	-0.27421057	2.70382571
-0.19149125	-0.20621213	2.70358086
-0.13418129	-0.13634549	2.70333838
-0.12827596	-0.12776268	2.70331168
-0.12505880	-0.12197691	2.70329595
-0.11245736	-0.09837376	2.70323324
-0.07256103	-0.01867975	2.70302844
-0.06090325	0.00494277	2.70296836
-0.05964065	0.00788222	2.70296121
-0.04944474	0.04858500	2.70288539
-0.04626632	0.06306623	2.70285964
-0.04610610	0.06393233	2.70285821
-0.04587954	0.06641781	2.70285487
-0.04569852	0.07004681	2.70285010
-0.04618311	0.10746676	2.70280814
-0.05374908	0.17531167	2.70275116
-0.06369382	0.26359448	2.70267701
-0.08052760	0.31988698	2.70265937
-0.08759427	0.33881441	2.70265746
-0.09957939	0.36861858	2.70265675
-0.10052270	0.37013268	2.70265770
-0.11196667	0.38839942	2.70266891
-0.13861680	0.42765594	2.70269871
-0.14183438	0.43156809	2.70270324
-0.15654701	0.44760674	2.70272613
-0.16013092	0.45093015	2.70273232
-0.17280710	0.45993695	2.70275784
-0.17819548	0.46338704	2.70276904
-0.18926573	0.47039855	2.70279217
-0.27750582	0.52627027	2.70297623
-0.27973378	0.52480346	2.70298433
-0.28040385	0.52493811	2.70298600
-0.28361589	0.52643621	2.70299339
-0.28498697	0.52604949	2.70299768
-0.28776139	0.52734149	2.70300412
-0.29056644	0.52797747	2.70301127
-0.29133940	0.52825081	2.70301318
-0.29357719	0.52889085	2.70301867
-0.29438108	0.52850825	2.70302129
-0.29682049	0.52973288	2.70302677
-0.29936251	0.53109622	2.70303249
-0.30160037	0.53173620	2.70303798
-0.30227491	0.53156364	2.70304012
-0.30514771	0.53330159	2.70304608
-0.30735919	0.53429037	2.70305133
-0.30790874	0.53402060	2.70305324
-0.30862281	0.53407228	2.70305514
-0.31147346	0.53585184	2.70306110
-0.31192043	0.53544331	2.70306277
-0.31371158	0.53649175	2.70306659
-0.31482378	0.53652519	2.70306969
-0.45936516	0.63038862	2.70336890
-0.46370280	0.63249326	2.70337868
-0.46660650	0.63357508	2.70338559
-0.46798617	0.63406867	2.70338893
-0.48566228	0.63895255	2.70343328
-0.58124232	0.64544374	2.70369530
-0.61295050	0.64745021	2.70378232
-0.74695164	0.65614426	2.70415020
-0.82032937	0.66161406	2.70435095
-0.86012006	0.66220361	2.70446253
-0.92400849	0.66074258	2.70464444
-0.99421334	0.65723610	2.70484638
-1.02060807	0.65505332	2.70492339
-1.02424824	0.65465063	2.70493412
-1.03559995	0.65272903	2.70496845
-1.06047881	0.64811701	2.70504403
-1.06823933	0.64471310	2.70506978
-1.15221059	0.60574675	2.70535159
-1.15620625	0.60264850	2.70536661
-1.24658537	0.48526078	2.70575714
-1.28473294	0.43755528	2.70591998
-1.28652310	0.43588245	2.70592690
-1.28831744	0.43390220	2.70593429
-1.28896105	0.43438566	2.70593548
-1.29072452	0.43306157	2.70594215
-1.29313910	0.43037981	2.70595193
-1.29397380	0.42934108	2.70595551
-1.29545200	0.42878592	2.70596027
-1.29825234	0.42003119	2.70597839
-1.31066740	0.37548667	2.70606494
-1.31253874	0.36701739	2.70607996
-1.31401956	0.30719870	2.70615339
-1.30100572	0.19412966	2.70624733
-1.29997897	0.18699260	2.70625281
-1.28797102	0.13085757	2.70628381
-1.26424432	0.04216009	2.70631933
-1.26219618	0.03727655	2.70631933
-1.25998211	0.03084509	2.70632052
-1.25832367	0.02805272	2.70631909
-1.25766230	0.02730353	2.70631790
-1.25676453	0.02693294	2.70631599
-1.25564647	0.02448535	2.70631552
-1.25487351	0.02421193	2.70631361
-1.25384665	0.02405138	2.70631099
-1.25319839	0.02387519	2.70630932
-1.25261354	0.02361350	2.70630813
-1.25223315	0.02240261	2.70630836
-1.25100017	0.02196465	2.70630550
-1.25033009	0.02182995	2.70630360
-1.24993205	0.02035336	2.70630431
-1.24875212	0.01921785	2.70630217
-1.24824226	0.01821706	2.70630193
-1.24429095	0.00057061	2.70631123
-1.20909119	-0.16400343	2.70640230
-1.20396876	-0.18090749	2.70640731
-1.19845891	-0.18997583	2.70640230
-1.18902898	-0.20366147	2.70639157
-1.18818402	-0.20472971	2.70639038
-1.18624020	-0.20675310	2.70638728
-1.18472970	-0.20826316	2.70638466
-1.07286477	-0.33103800	2.70621109
-1.05537248	-0.35078275	2.70618463
-1.05454969	-0.35189241	2.70618367
-1.05355787	-0.35301620	2.70618200
-1.05304348	-0.35370982	2.70618153
-1.05282032	-0.35425293	2.70618153
-1.05264103	-0.35487914	2.70618176
-1.05144370	-0.35628033	2.70617986
-1.05016541	-0.35786188	2.70617819
-1.04986131	-0.35858524	2.70617819
-1.04850650	-0.36065423	2.70617676
-1.04731345	-0.36236274	2.70617533
-1.04260266	-0.36751926	2.70616794
-1.00292206	-0.39518586	2.70608807
-0.95239854	-0.42813337	2.70598364
-0.95018697	-0.42912206	2.70597863
-0.92246318	-0.43905506	2.70591187
-0.92045724	-0.43976632	2.70590711
-0.91811651	-0.44054502	2.70590138
-0.82079685	-0.46568570	2.70565581
-0.81009495	-0.46784326	2.70562816
-0.77061200	-0.47372735	2.70552373
-0.67257690	-0.47327676	2.70524669
-0.60973293	-0.46939778	2.70506477
-0.60687029	-0.46902889	2.70505643
-0.60175198	-0.46807092	2.70504069
-0.59591532	-0.46685746	2.70502281
-0.59007388	-0.46533665	2.70500469
-0.48864976	-0.42423150	2.70467114
-0.41975072	-0.39660648	2.70444489
