//X	Y	Z
0.05276065	-0.14330286	1.22821116
0.06356948	-0.10703252	1.22786248
0.06297863	-0.08601967	1.22769129
0.06180000	-0.07042404	1.22756755
0.06152151	-0.06761475	1.22754550
0.06139496	-0.06708163	1.22754169
0.06087209	-0.06550254	1.22753096
0.05669909	-0.05723517	1.22748137
0.02776778	-0.00401464	1.22717130
0.02022836	0.00868303	1.22710025
0.01439438	0.01785851	1.22705054
0.01016345	0.02404816	1.22701836
0.00372113	0.02945578	1.22700262
0.00183378	0.02913620	1.22701383
0.00140918	0.02843146	1.22702157
0.00024624	0.02863051	1.22702515
-0.00032272	0.02845632	1.22702909
-0.00185031	0.02795890	1.22704017
-0.00288663	0.02762480	1.22704756
-0.00994901	0.03119881	1.22704971
-0.01267625	0.03144601	1.22705996
-0.01424664	0.03181608	1.22706401
-0.01545145	0.03200924	1.22706783
-0.01599647	0.03183840	1.22707164
-0.01633216	0.03201948	1.22707176
-0.01682243	0.03195086	1.22707450
-0.01853135	0.03285235	1.22707474
-0.01889096	0.03303011	1.22707486
-0.01952667	0.03339741	1.22707462
-0.02059972	0.03393155	1.22707510
-0.02110305	0.03376664	1.22707868
-0.02250500	0.03360943	1.22708631
-0.02287080	0.03378645	1.22708654
-0.02353039	0.03415036	1.22708642
-0.02409336	0.03397700	1.22709048
-0.02545351	0.03382568	1.22709787
-0.02643006	0.03382261	1.22710228
-0.02678987	0.03367779	1.22710502
-0.02722123	0.03384547	1.22710562
-0.02770750	0.03391105	1.22710729
-0.02842604	0.03403868	1.22710943
-0.02910945	0.03407651	1.22711217
-0.02955893	0.03391914	1.22711551
-0.02984684	0.03410693	1.22711527
-0.03051243	0.03446999	1.22711527
-0.03135143	0.03448619	1.22711885
-0.03218442	0.03482586	1.22711980
-0.03305337	0.03483786	1.22712362
-0.03467353	0.03565723	1.22712421
-0.03576648	0.03632221	1.22712362
-0.04060883	0.03902718	1.22712302
-0.04093871	0.03920920	1.22712302
-0.04292771	0.03887537	1.22713470
-0.04340699	0.03871371	1.22713816
-0.04446808	0.03924952	1.22713852
-0.04522854	0.03872600	1.22714627
-0.04603170	0.03874721	1.22714972
-0.04663151	0.03911950	1.22714937
-0.04705690	0.03928803	1.22714984
-0.04732795	0.03906108	1.22715294
-0.04775935	0.03922877	1.22715354
-0.04869395	0.03987688	1.22715235
-0.04973726	0.04041529	1.22715259
-0.05008494	0.04059467	1.22715271
-0.05079834	0.04095110	1.22715294
-0.05132138	0.04123959	1.22715294
-0.05182470	0.04107468	1.22715652
-0.05282004	0.04161970	1.22715652
-0.05325155	0.04178749	1.22715712
-0.05429470	0.04232581	1.22715735
-0.05555912	0.04251052	1.22716153
-0.05713148	0.04301395	1.22716439
-0.05747934	0.04319346	1.22716451
-0.06013472	0.04409599	1.22716892
-0.06118984	0.04463266	1.22716928
-0.06203482	0.04464798	1.22717297
-0.06240043	0.04482485	1.22717309
-0.06590866	0.04684323	1.22717226
-0.06673494	0.04598783	1.22718298
-0.06697904	0.04572546	1.22718632
-0.07037868	0.04817624	1.22718132
-0.07081013	0.04802127	1.22718453
-0.07141105	0.04797633	1.22718763
-0.07239843	0.04838884	1.22718859
-0.07314371	0.04887439	1.22718799
-0.07412433	0.04841453	1.22719622
-0.07491148	0.04889423	1.22719574
-0.07630242	0.04961203	1.22719610
-0.07717718	0.04962310	1.22719991
-0.07787267	0.04998203	1.22720015
-0.07924573	0.05070235	1.22720027
-0.08081613	0.05107242	1.22720432
-0.08238650	0.05144250	1.22720838
-0.08294943	0.05126913	1.22721231
-0.08360909	0.05163307	1.22721231
-0.08401071	0.05180505	1.22721267
-0.08517946	0.05200315	1.22721624
-0.08571851	0.05183312	1.22722006
-0.08658144	0.05184595	1.22722387
-0.08716248	0.05167019	1.22722793
-0.08750419	0.05185044	1.22722805
-0.08798952	0.05201069	1.22722888
-0.08867906	0.05204776	1.22723162
-0.08923008	0.05187610	1.22723556
-0.08967340	0.05204211	1.22723615
-0.09056024	0.05205162	1.22724009
-0.09162652	0.05171333	1.22724771
-0.09267581	0.05225089	1.22724795
-0.09306540	0.05210182	1.22725093
-0.09447427	0.05313978	1.22724867
-0.09498347	0.05265130	1.22725499
-0.09585831	0.05298512	1.22725618
-0.09779435	0.05320944	1.22726309
-0.09883767	0.05374786	1.22726333
-0.09916142	0.05393063	1.22726321
-0.10127699	0.05412993	1.22727108
-0.10215171	0.05414099	1.22727501
-0.10317711	0.05468193	1.22727513
-0.10528054	0.05488279	1.22728288
-0.10643572	0.05365872	1.22729826
-0.10789927	0.05491710	1.22729445
-0.10828280	0.05509152	1.22729468
-0.10999676	0.05511886	1.22730219
-0.14895216	0.08974171	1.22719109
-0.24003023	0.17280056	1.22691393
-0.24178696	0.17401803	1.22691178
-0.24269855	0.17457476	1.22691119
-0.24268135	0.17577317	1.22690129
-0.24355131	0.17633586	1.22690046
-0.26852426	0.19133490	1.22688878
-0.26838669	0.19167678	1.22688544
-0.26785445	0.19271922	1.22687435
-0.26925218	0.19430947	1.22686744
-0.26918137	0.19519286	1.22685993
-0.26973337	0.19589451	1.22685659
-0.26951808	0.19624726	1.22685266
-0.27002814	0.19695476	1.22684908
-0.26969326	0.19764696	1.22684193
-0.27015558	0.19803849	1.22684073
-0.27033579	0.19856399	1.22683716
-0.27013841	0.19923691	1.22683072
-0.27102610	0.19979700	1.22683012
-0.27145243	0.20083886	1.22682333
-0.27186781	0.20243309	1.22681201
-0.27253339	0.20311888	1.22680938
-0.27253419	0.20366947	1.22680485
-0.27272058	0.20419419	1.22680128
-0.27326041	0.20489743	1.22679794
-0.27338696	0.20543057	1.22679412
-0.27386120	0.20614310	1.22679031
-0.27370569	0.20648751	1.22678673
-0.27431744	0.20718078	1.22678375
-0.27436614	0.20772468	1.22677958
-0.27423453	0.20806573	1.22677612
-0.27473944	0.20964734	1.22676528
-0.27523160	0.21035737	1.22676170
-0.27526248	0.21122649	1.22675455
-0.27538887	0.21175954	1.22675073
-0.27607337	0.21299347	1.22674358
-0.27677563	0.21422480	1.22673655
-0.27781376	0.21563733	1.22672963
-0.27895954	0.21671215	1.22672582
-0.27884591	0.21705067	1.22672260
-0.27943453	0.21862054	1.22671223
-0.28017181	0.21929625	1.22670996
-0.28032815	0.21982506	1.22670627
-0.28125781	0.22070205	1.22670317
-0.28108439	0.22104897	1.22669959
-0.28141505	0.22210422	1.22669232
-0.28099048	0.22280893	1.22668457
-0.28157216	0.22350636	1.22668135
-0.28167480	0.22404279	1.22667742
-0.28247285	0.22461545	1.22667623
-0.28230536	0.22496152	1.22667265
-0.28220958	0.22562023	1.22666681
-0.28241390	0.22614244	1.22666335
-0.28289413	0.22685412	1.22665966
-0.28305638	0.22738214	1.22665596
-0.28411248	0.22879213	1.22664917
-0.28433454	0.22931178	1.22664583
-0.28406048	0.22990094	1.22663975
-0.28490129	0.23166373	1.22662890
-0.28527963	0.23271222	1.22662199
-0.28560841	0.23298885	1.22662115
-0.28622723	0.23358668	1.22661901
-0.28574285	0.23429975	1.22661090
-0.28642720	0.23553360	1.22660375
-0.28751227	0.23671146	1.22659886
-0.28733283	0.23705921	1.22659516
-0.28746524	0.23759143	1.22659135
-0.28814363	0.23818082	1.22658956
-0.28827614	0.23935835	1.22658038
-0.28816846	0.23969606	1.22657716
-0.28843343	0.24043787	1.22657216
-0.28820103	0.24166642	1.22656095
-0.28993464	0.24343786	1.22655416
-0.28977993	0.24465552	1.22654343
-0.29533347	0.24927503	1.22653019
-0.29520786	0.24961524	1.22652674
-0.29769182	0.25228873	1.22651589
-0.29787201	0.25281423	1.22651231
-0.30061373	0.25600225	1.22649825
-0.30078214	0.25652951	1.22649467
-0.30283356	0.25848451	1.22648776
-0.30754128	0.26221544	1.22647810
-0.31446791	0.26755524	1.22646511
-0.31516418	0.26878741	1.22645795
-0.31674737	0.27002907	1.22645485
-0.32002819	0.27336982	1.22644198
-0.32720774	0.27977580	1.22642136
-0.34147441	0.29062569	1.22639573
-0.34125912	0.29097849	1.22639191
-0.35462034	0.30119261	1.22636747
-0.35442299	0.30154288	1.22636366
-0.35457930	0.30207172	1.22636008
-0.35474169	0.30259985	1.22635639
-0.35462207	0.30293921	1.22635305
-0.35504252	0.30365926	1.22634900
-0.35523468	0.30418307	1.22634554
-0.35522354	0.30505800	1.22633827
-0.35519460	0.30593550	1.22633088
-0.35587892	0.30716938	1.22632372
-0.35568157	0.30751961	1.22631991
-0.35549021	0.30786911	1.22631621
-0.35615674	0.30910555	1.22630894
-0.35636684	0.30962682	1.22630560
-0.35666162	0.31068709	1.22629809
-0.35695547	0.31119674	1.22629523
-0.35732207	0.31192428	1.22629082
-0.35766470	0.31297788	1.22628367
-0.35756302	0.31331480	1.22628045
-0.35800135	0.31403235	1.22627652
-0.35809806	0.31456962	1.22627246
-0.35779303	0.31525758	1.22626543
-0.35793740	0.31578812	1.22626173
-0.35857898	0.31647724	1.22625887
-0.35860372	0.31702447	1.22625446
-0.35871840	0.31755924	1.22625053
-0.35896730	0.31875956	1.22624171
-0.35918933	0.31927922	1.22623849
-0.35898608	0.31963035	1.22623467
-0.35912460	0.32016173	1.22623086
-0.35967451	0.32105273	1.22622597
-0.35961157	0.32174590	1.22621989
-0.35928264	0.32243720	1.22621274
-0.35981065	0.32314220	1.22620928
-0.35976958	0.32402131	1.22620177
-0.36011824	0.32507408	1.22619462
-0.35990292	0.32542682	1.22619081
-0.36124691	0.32702461	1.22618365
-0.36108541	0.32736984	1.22618008
-0.36194932	0.32825601	1.22617662
-0.36243546	0.32896692	1.22617292
-0.36364692	0.33003238	1.22616959
-0.36413902	0.33074239	1.22616589
-0.36703956	0.33322397	1.22615838
-0.36693788	0.33356082	1.22615516
-0.36769396	0.33446199	1.22615111
-0.36701119	0.33529735	1.22614110
-0.36783925	0.33618852	1.22613752
-0.36867908	0.33707792	1.22613394
-0.36954281	0.33796403	1.22613049
-0.37044257	0.33884519	1.22612727
-0.37114489	0.34007648	1.22612023
-0.37165499	0.34078401	1.22611666
-0.37371230	0.34273818	1.22610974
-0.37355086	0.34308344	1.22610617
-0.37598073	0.34608701	1.22609222
-0.37719238	0.34715259	1.22608888
-0.38446665	0.35267186	1.22607601
-0.40854448	0.37083369	1.22603405
-0.41271728	0.37298709	1.22603500
-0.41933626	0.37639505	1.22603667
-0.42575103	0.37928081	1.22604167
-0.43955627	0.38417593	1.22606325
-0.45020109	0.38658684	1.22609127
-0.46313465	0.38885012	1.22613072
-0.47664502	0.38657111	1.22621036
-0.48908141	0.38288456	1.22629690
-0.48964432	0.38271123	1.22630084
-0.49756855	0.37931085	1.22636461
-0.50985104	0.37160152	1.22648370
-0.51054561	0.37108710	1.22649109
-0.51358539	0.36692345	1.22653925
-0.51700199	0.36206186	1.22659481
-0.52230936	0.35425997	1.22668326
-0.52282971	0.35321924	1.22669423
-0.52324235	0.35251620	1.22670186
-0.52340376	0.35217094	1.22670543
-0.52360713	0.35181984	1.22670925
-0.52397788	0.35112268	1.22671676
-0.52418125	0.35077155	1.22672057
-0.52489889	0.34938055	1.22673523
-0.52471244	0.34885579	1.22673881
-0.52543020	0.34746474	1.22675347
-0.52562153	0.34711534	1.22675729
-0.52615976	0.34607205	1.22676837
-0.52654362	0.34527862	1.22677660
-0.52687663	0.34380776	1.22679031
-0.52707398	0.34345752	1.22679412
-0.52777457	0.34229696	1.22680688
-0.52786940	0.34141034	1.22681463
-0.52829999	0.34070477	1.22682238
-0.52842557	0.34036452	1.22682571
-0.52866489	0.33968574	1.22683239
-0.52858013	0.33914679	1.22683656
-0.52903473	0.33811522	1.22684705
-0.52896214	0.33757466	1.22685122
-0.52907580	0.33723611	1.22685456
-0.52942860	0.33654141	1.22686183
-0.52962595	0.33619118	1.22686565
-0.52979833	0.33561623	1.22687125
-0.52997178	0.33526927	1.22687483
-0.53011531	0.33492658	1.22687829
-0.53033662	0.33457294	1.22688222
-0.53016323	0.33427453	1.22688389
-0.53069460	0.33300418	1.22689688
-0.53080821	0.33266562	1.22690022
-0.53101152	0.33231452	1.22690403
-0.53120297	0.33196509	1.22690773
-0.53114820	0.33109933	1.22691464
-0.53137654	0.33032757	1.22692204
-0.53157389	0.32997733	1.22692585
-0.53180110	0.32962286	1.22692978
-0.53268623	0.32788575	1.22694814
-0.53248787	0.32736269	1.22695160
-0.53225988	0.32684392	1.22695482
-0.53249305	0.32648855	1.22695887
-0.53302538	0.32544616	1.22696984
-0.53284514	0.32492068	1.22697341
-0.53243667	0.32419890	1.22697759
-0.53280747	0.32317907	1.22698760
-0.53363281	0.32145035	1.22700560
-0.53455973	0.31970739	1.22702420
-0.53506809	0.31866831	1.22703516
-0.53488779	0.31814271	1.22703862
-0.53508514	0.31779248	1.22704244
-0.53594625	0.31605870	1.22706068
-0.53581989	0.31552568	1.22706449
-0.53602225	0.31430125	1.22707558
-0.53630334	0.31361657	1.22708249
-0.53608727	0.31309611	1.22708583
-0.53606832	0.31254792	1.22709024
-0.53619397	0.31220770	1.22709370
-0.53630161	0.31186998	1.22709692
-0.53636062	0.31098837	1.22710454
-0.53667158	0.31029958	1.22711158
-0.53653926	0.30944473	1.22711802
-0.53676653	0.30909029	1.22712207
-0.53698778	0.30873668	1.22712588
-0.53707153	0.30840230	1.22712910
-0.53723896	0.30805624	1.22713268
-0.53740644	0.30771011	1.22713637
-0.53933895	0.30476391	1.22716939
-0.53951836	0.30441612	1.22717309
-0.53998488	0.30338290	1.22718370
-0.54018813	0.30303180	1.22718751
-0.54006773	0.30249798	1.22719145
-0.54006082	0.30162546	1.22719860
-0.54022229	0.30128020	1.22720218
-0.54007190	0.30075055	1.22720587
-0.54014969	0.30041701	1.22720897
-0.54021454	0.29953447	1.22721660
-0.53999847	0.29901397	1.22721994
-0.54022467	0.29778618	1.22723114
-0.54036820	0.29744345	1.22723460
-0.54025888	0.29603463	1.22724569
-0.54089284	0.29465526	1.22725999
-0.54110205	0.29430336	1.22726381
-0.54124486	0.29308733	1.22727454
-0.54148406	0.29273123	1.22727859
-0.54184884	0.29203486	1.22728598
-0.54166251	0.29151011	1.22728944
-0.54209906	0.29080376	1.22729731
-0.54224181	0.28958774	1.22730803
-0.54244512	0.28923666	1.22731185
-0.54200780	0.28874713	1.22731388
-0.54232371	0.28782940	1.22732294
-0.54239553	0.28717411	1.22732866
-0.54211861	0.28643394	1.22733355
-0.54270577	0.28561199	1.22734296
-0.54262102	0.28507304	1.22734702
-0.54284239	0.28471944	1.22735095
-0.54268008	0.28419143	1.22735465
-0.54307473	0.28316826	1.22736490
-0.54293621	0.28263679	1.22736859
-0.54327714	0.28194380	1.22737586
-0.54309094	0.28141916	1.22737944
-0.54312587	0.28054076	1.22738683
-0.54331720	0.28019136	1.22739053
-0.54371703	0.27893937	1.22740269
-0.54359049	0.27840626	1.22740662
-0.54366833	0.27775010	1.22741234
-0.54345232	0.27722961	1.22741568
-0.54364365	0.27688020	1.22741950
-0.54354119	0.27634379	1.22742343
-0.54369062	0.27600023	1.22742689
-0.54322833	0.27560866	1.22742808
-0.54358721	0.27459052	1.22743809
-0.54307705	0.27420568	1.22743905
-0.54330444	0.27320588	1.22744834
-0.54306424	0.27268869	1.22745156
-0.54350680	0.27198148	1.22745931
-0.54366231	0.27163708	1.22746289
-0.54308641	0.27093875	1.22746611
-0.54292411	0.27041075	1.22746968
-0.54256350	0.27000496	1.22747147
-0.54295218	0.26930529	1.22747898
-0.54310763	0.26896086	1.22748256
-0.54331100	0.26860973	1.22748637
-0.54290658	0.26775384	1.22749162
-0.54310393	0.26740354	1.22749543
-0.54333317	0.26685980	1.22750092
-0.54371393	0.26635027	1.22750688
-0.54384542	0.26600915	1.22751033
-0.54392242	0.26512507	1.22751796
-0.54425132	0.26443368	1.22752512
-0.54429227	0.26355454	1.22753263
-0.54386580	0.26315796	1.22753394
-0.54365659	0.26286459	1.22753549
-0.54386586	0.26251268	1.22753930
-0.54444593	0.26146355	1.22755063
-0.54394799	0.26075444	1.22755420
-0.54397690	0.25987691	1.22756159
-0.54423612	0.25932896	1.22756732
-0.54403794	0.25880599	1.22757077
-0.54415160	0.25846744	1.22757411
-0.54470176	0.25742248	1.22758520
-0.54475456	0.25654167	1.22759271
-0.54445481	0.25603288	1.22759557
-0.54508871	0.25497621	1.22760713
-0.54543459	0.25340903	1.22762167
-0.54457486	0.25271142	1.22762358
-0.54479617	0.25235778	1.22762752
-0.54494762	0.25182492	1.22763264
-0.54575497	0.25042138	1.22764790
-0.54612482	0.24885082	1.22766244
-0.54611206	0.24797922	1.22766960
-0.54596758	0.24744861	1.22767341
-0.54539496	0.24574289	1.22768497
-0.54531837	0.24533649	1.22768795
-0.54546779	0.24499297	1.22769141
-0.54489201	0.24429463	1.22769463
-0.54534042	0.24358658	1.22770250
-0.54465491	0.24309263	1.22770357
-0.54421067	0.24237591	1.22770751
-0.54446381	0.24182881	1.22771311
-0.54473102	0.24133518	1.22771835
-0.54632276	0.23875940	1.22774684
-0.54418737	0.23713867	1.22775066
-0.54430699	0.23679926	1.22775400
-0.54443783	0.23590760	1.22776198
-0.54408920	0.23485486	1.22776914
-0.54389703	0.23433104	1.22777259
-0.54413021	0.23397572	1.22777653
-0.54389006	0.23345856	1.22777975
-0.54450011	0.23240523	1.22779119
-0.54452312	0.23152861	1.22779858
-0.54486400	0.23083562	1.22780585
-0.54483318	0.22996645	1.22781289
-0.54421461	0.22872342	1.22782040
-0.54406935	0.22731957	1.22783136
-0.54340893	0.22608238	1.22783864
-0.54238278	0.22499083	1.22784305
-0.54198313	0.22462955	1.22784424
-0.54225618	0.22413506	1.22784960
-0.54236388	0.22379738	1.22785282
-0.54252857	0.22155493	1.22787213
-0.54101729	0.21957974	1.22788167
-0.54124463	0.21922529	1.22788560
-0.54050231	0.21781045	1.22789395
-0.54031014	0.21728662	1.22789741
-0.54020554	0.21693945	1.22789991
-0.53997242	0.21568149	1.22790921
-0.53986400	0.21482328	1.22791588
-0.54011524	0.21446550	1.22791994
-0.53974867	0.21341524	1.22792697
-0.53988630	0.21307334	1.22793043
-0.53938133	0.21149176	1.22794127
-0.53925472	0.21095863	1.22794509
-0.53939831	0.21061590	1.22794855
-0.53932571	0.21007533	1.22795272
-0.53904963	0.20956317	1.22795570
-0.53823382	0.20867038	1.22795939
-0.53849691	0.20831090	1.22796357
-0.53922051	0.20691904	1.22797835
-0.59788358	0.08441380	1.22925580
-0.65810156	-0.03967774	1.23055351
-0.65880120	-0.04074360	1.23056543
-0.66062701	-0.04280142	1.23059070
-0.66220760	-0.04417962	1.23060918
-0.66437852	-0.04835521	1.23065352
-0.66505218	-0.04882754	1.23066044
-0.66540498	-0.04919957	1.23066521
-0.66606450	-0.04915836	1.23066783
-0.66659170	-0.04932660	1.23067153
-0.66701031	-0.04938520	1.23067391
-0.66749054	-0.04931881	1.23067558
-0.66819096	-0.04951142	1.23068023
-0.66908979	-0.04918095	1.23068154
-0.66996473	-0.04916981	1.23068547
-0.67050987	-0.04934058	1.23068929
-0.67102414	-0.04973517	1.23069489
-0.67218179	-0.04930745	1.23069656
-0.67314041	-0.04963067	1.23070359
-0.67350620	-0.04945368	1.23070371
-0.67402732	-0.04962119	1.23070741
-0.67438710	-0.04944333	1.23070765
-0.67478257	-0.04927064	1.23070800
-0.67568040	-0.04981351	1.23071647
-0.67737633	-0.04913835	1.23071849
-0.67870677	-0.04960808	1.23072839
-0.68024707	-0.04923388	1.23073220
-0.68112111	-0.04945070	1.23073792
-0.68202078	-0.04921493	1.23074007
-0.68223011	-0.04956688	1.23074389
-0.68243349	-0.04991798	1.23074770
-0.68384832	-0.04920353	1.23074818
-0.68467540	-0.04918562	1.23075175
-0.68555027	-0.04917449	1.23075557
-0.68855941	-0.04809336	1.23076022
-0.68924290	-0.04773279	1.23076034
-0.69054341	-0.04819830	1.23076999
-0.69275457	-0.04833509	1.23078108
-0.69418567	-0.04936975	1.23079610
-0.69602215	-0.05036667	1.23081267
-0.69641185	-0.05019303	1.23081291
-0.69715524	-0.04984082	1.23081338
-0.69780195	-0.05034852	1.23082042
-0.69824541	-0.05018243	1.23082113
-0.69887495	-0.04981439	1.23082089
-0.70027709	-0.04997148	1.23082852
-0.70050430	-0.05032595	1.23083246
-0.70142710	-0.05064410	1.23083925
-0.70337433	-0.05097207	1.23085070
-0.70497358	-0.05147950	1.23086214
-0.70586550	-0.05234423	1.23087323
-0.70616549	-0.05215804	1.23087311
-0.70727354	-0.05250214	1.23088098
-0.70759732	-0.05231938	1.23088086
-0.70850736	-0.05318652	1.23089218
-0.70930445	-0.05316442	1.23089552
-0.70986754	-0.05366047	1.23090219
-0.71032876	-0.05349697	1.23090291
-0.71087992	-0.05366856	1.23090684
-0.71146679	-0.05384527	1.23091090
-0.71182066	-0.05398929	1.23091364
-0.71213752	-0.05435625	1.23091817
-0.71326447	-0.05415229	1.23092151
-0.71376079	-0.05486709	1.23092973
-0.71462458	-0.05430366	1.23092890
-0.71517581	-0.05447526	1.23093283
-0.71554738	-0.05429919	1.23093307
-0.71755534	-0.05408479	1.23094034
-0.71850699	-0.05495788	1.23095179
-0.71915460	-0.05459228	1.23095167
-0.72059160	-0.05562772	1.23096669
-0.72168088	-0.05684267	1.23098171
-0.72272921	-0.05717845	1.23098922
-0.72398692	-0.05786613	1.23100054
-0.72444230	-0.05770169	1.23100126
-0.72558635	-0.05837345	1.23101187
-0.72596395	-0.05819824	1.23101223
-0.72698838	-0.05853067	1.23101950
-0.72736597	-0.05835544	1.23101974
-0.72953433	-0.05903700	1.23103523
-0.73099446	-0.06094910	1.23105752
-0.73218125	-0.06075348	1.23106134
-0.73296547	-0.06160310	1.23107183
-0.73368400	-0.06212081	1.23107934
-0.73398989	-0.06193551	1.23107922
-0.73507404	-0.06227633	1.23108697
-0.73552954	-0.06243449	1.23109031
-0.73608059	-0.06260622	1.23109412
-0.73664373	-0.06277949	1.23109818
-0.73786521	-0.06346226	1.23110926
-0.73878205	-0.06345694	1.23111343
-0.73948872	-0.06397298	1.23112082
-0.74006361	-0.06414801	1.23112488
-0.74059677	-0.06431708	1.23112869
-0.74104023	-0.06447372	1.23113191
-0.74166310	-0.06465538	1.23113620
-0.74241143	-0.06549996	1.23114657
-0.74291462	-0.06534229	1.23114753
-0.74353755	-0.06584661	1.23115456
-0.74413037	-0.06602417	1.23115873
-0.74500537	-0.06633563	1.23116517
-0.74557447	-0.06650977	1.23116922
-0.74635273	-0.06735855	1.23117971
-0.74680811	-0.06719413	1.23118043
-0.74713188	-0.06701137	1.23118031
-0.74783856	-0.06752737	1.23118782
-0.74851590	-0.06716600	1.23118782
-0.75057769	-0.06695919	1.23119545
-0.75090152	-0.06677642	1.23119533
-0.75217110	-0.06746580	1.23120677
-0.75643057	-0.07180014	1.23126185
-0.75691283	-0.07160039	1.23126233
-0.75752074	-0.07214174	1.23126960
-0.75905335	-0.07254530	1.23127985
-0.76216418	-0.07180107	1.23128760
-0.76560044	-0.07524124	1.23133159
-0.76647538	-0.07523008	1.23133540
-0.76714617	-0.07574107	1.23134267
-0.76887870	-0.07452036	1.23134041
-0.77030993	-0.07587762	1.23135805
-0.77280200	-0.07605374	1.23137069
-0.77485502	-0.07782072	1.23139453
-0.77631080	-0.07798544	1.23140252
-0.77684999	-0.07815538	1.23140633
-0.77817947	-0.07917576	1.23142076
-0.77890980	-0.07969519	1.23142838
-0.77998203	-0.08003433	1.23143601
-0.78053308	-0.08020601	1.23143983
-0.78233492	-0.08193785	1.23146236
-0.78264689	-0.08175330	1.23146224
-0.78323972	-0.08225347	1.23146904
-0.78386265	-0.08243515	1.23147333
-0.78469467	-0.08329146	1.23148417
-0.78546202	-0.08326523	1.23148739
-0.78575504	-0.08362891	1.23149168
-0.78613257	-0.08345366	1.23149192
-0.78665388	-0.08362107	1.23149562
-0.78756469	-0.08393759	1.23150241
-0.78784567	-0.08429956	1.23150671
-0.78825325	-0.08445118	1.23150969
-0.78894794	-0.08496553	1.23151708
-0.78924769	-0.08477943	1.23151696
-0.78988159	-0.08551341	1.23152590
-0.79024142	-0.08565824	1.23152864
-0.79052931	-0.08547047	1.23152840
-0.79085326	-0.08528762	1.23152840
-0.79148710	-0.08602165	1.23153734
-0.79180491	-0.08616073	1.23153985
-0.79252934	-0.08635660	1.23154473
-0.79305655	-0.08652489	1.23154855
-0.79390758	-0.08651039	1.23155224
-0.79465586	-0.08703236	1.23155987
-0.79524380	-0.08730364	1.23156476
-0.79604006	-0.08718693	1.23156738
-0.79678243	-0.08770806	1.23157501
-0.79727364	-0.08787140	1.23157859
-0.79881334	-0.08837035	1.23158967
-0.79990947	-0.08871283	1.23159742
-0.80063397	-0.08955409	1.23160768
-0.80136448	-0.08975080	1.23161256
-0.80202317	-0.09058286	1.23162246
-0.80283833	-0.09024066	1.23162329
-0.80336529	-0.09040903	1.23162699
-0.80413777	-0.09093425	1.23163486
-0.80539542	-0.09162192	1.23164618
-0.80624038	-0.09160660	1.23164988
-0.80683327	-0.09210677	1.23165667
-0.80829507	-0.09227233	1.23166466
-0.80895388	-0.09278166	1.23167181
-0.80932552	-0.09260559	1.23167205
-0.81018764	-0.09346601	1.23168302
-0.81102568	-0.09400052	1.23169124
-0.81208688	-0.09346463	1.23169160
-0.81331468	-0.09414814	1.23170280
-0.81454146	-0.09570499	1.23172116
-0.81489509	-0.09552643	1.23172128
-0.81558979	-0.09604077	1.23172867
-0.81788981	-0.09706336	1.23174751
-0.81861424	-0.09758198	1.23175502
-0.81914151	-0.09775022	1.23175883
-0.81990784	-0.09859738	1.23176920
-0.82055461	-0.09878235	1.23177373
-0.82194960	-0.09981206	1.23178852
-0.82460082	-0.10327595	1.23182905
-0.82582843	-0.10395946	1.23184025
-0.82622409	-0.10378663	1.23184061
-0.82708609	-0.10464713	1.23185158
-0.83189785	-0.11053841	1.23192203
-0.83296323	-0.11175001	1.23193681
-0.83926058	-0.12392397	1.23206592
-0.84195173	-0.12914032	1.23212111
-0.85210139	-0.16062857	1.23242736
-0.85198081	-0.16116256	1.23243117
-0.84195340	-0.17510882	1.23250151
-0.80119205	-0.20754305	1.23258626
-0.80010700	-0.20807551	1.23258579
-0.79691833	-0.20784098	1.23256958
-0.79553425	-0.20768639	1.23256207
-0.79010808	-0.21122213	1.23256683
-0.78903586	-0.21088302	1.23255920
-0.78854454	-0.21071978	1.23255563
-0.78781319	-0.21107365	1.23255527
-0.78633749	-0.21168511	1.23255372
-0.78168452	-0.21487284	1.23255908
-0.77258879	-0.22072701	1.23256660
-0.77026659	-0.21795446	1.23253322
-0.76965564	-0.21745181	1.23252630
-0.76936179	-0.21763878	1.23252654
-0.76887041	-0.21747556	1.23252296
-0.76840913	-0.21763907	1.23252225
-0.76779139	-0.21800886	1.23252261
-0.76745659	-0.21763934	1.23251796
-0.76702511	-0.21748440	1.23251474
-0.76673698	-0.21767227	1.23251498
-0.76609546	-0.21803869	1.23251522
-0.76519656	-0.21804650	1.23251116
-0.76382369	-0.21876675	1.23251092
-0.75923622	-0.22124025	1.23251081
-0.75765479	-0.22073533	1.23249948
-0.75593662	-0.21901524	1.23247755
-0.75513470	-0.21888663	1.23247290
-0.75475687	-0.21841665	1.23246729
-0.75438017	-0.21836394	1.23246515
-0.75388300	-0.21852240	1.23246419
-0.75355303	-0.21870437	1.23246419
-0.75291646	-0.21865436	1.23246098
-0.75247896	-0.21882130	1.23246038
-0.75154340	-0.21937467	1.23246074
-0.75047624	-0.21990970	1.23246038
-0.75014639	-0.22009170	1.23246038
-0.74328548	-0.22503984	1.23247039
-0.73840696	-0.22580390	1.23245478
-0.73664707	-0.22407794	1.23243260
-0.73567647	-0.22407573	1.23242819
-0.73532867	-0.22425522	1.23242807
-0.73474079	-0.22462921	1.23242855
-0.73403347	-0.22498639	1.23242831
-0.73270416	-0.22428858	1.23241663
-0.73194283	-0.22431567	1.23241341
-0.73151124	-0.22448342	1.23241282
-0.73119944	-0.22466788	1.23241293
-0.73038518	-0.22413681	1.23240483
-0.72982121	-0.22451416	1.23240542
-0.72895247	-0.22452606	1.23240161
-0.72841334	-0.22435610	1.23239779
-0.72808355	-0.22453804	1.23239779
-0.72732311	-0.22433716	1.23239279
-0.72669935	-0.22438349	1.23239028
-0.72576469	-0.22438627	1.23238611
-0.72489583	-0.22439817	1.23238230
-0.72378188	-0.22469850	1.23237979
-0.72257030	-0.22576410	1.23238313
-0.71931589	-0.22616565	1.23237181
-0.71700382	-0.22449610	1.23234761
-0.71650666	-0.22433192	1.23234403
-0.71517646	-0.22450742	1.23233950
-0.71411014	-0.22416916	1.23233187
-0.71342063	-0.22452889	1.23233175
-0.71288747	-0.22435984	1.23232794
-0.71257561	-0.22454426	1.23232806
-0.71180916	-0.22401987	1.23232031
-0.71149147	-0.22420350	1.23232043
-0.70977151	-0.22422995	1.23231292
-0.70907700	-0.22371556	1.23230553
-0.70817816	-0.22340068	1.23229885
-0.70765686	-0.22323327	1.23229516
-0.70669329	-0.22235855	1.23228347
-0.70609337	-0.22273086	1.23228395
-0.70550656	-0.22287679	1.23228252
-0.70481706	-0.22323653	1.23228240
-0.70448720	-0.22341855	1.23228240
-0.70328259	-0.22361167	1.23227859
-0.70275527	-0.22344339	1.23227477
-0.69954544	-0.22123091	1.23224199
-0.69815022	-0.22020131	1.23222721
-0.69743681	-0.22055770	1.23222697
-0.69470894	-0.22272432	1.23223257
-0.69205612	-0.22100702	1.23220646
-0.69117010	-0.22071032	1.23220003
-0.68589157	-0.22569098	1.23221743
-0.68469810	-0.22675902	1.23222089
-0.68231088	-0.22889520	1.23222780
-0.57037210	-0.36058483	1.23281348
-0.51529396	-0.37429950	1.23267901
-0.48168850	-0.37490100	1.23253274
-0.48078042	-0.37228721	1.23250699
-0.47809345	-0.36881825	1.23246622
-0.47718948	-0.36795199	1.23245502
-0.46753934	-0.36457726	1.23238361
-0.46400577	-0.36287019	1.23235357
-0.46186301	-0.36044544	1.23232388
-0.45817894	-0.35926810	1.23229754
-0.45780218	-0.35857007	1.23229015
-0.45676583	-0.35823601	1.23228276
-0.45520219	-0.35773367	1.23227155
-0.45448375	-0.35721588	1.23226404
-0.45219052	-0.35532084	1.23223794
-0.45216161	-0.35444331	1.23223054
-0.45111325	-0.35410756	1.23222315
-0.44937634	-0.35325819	1.23220825
-0.44846135	-0.35151693	1.23218977
-0.44721568	-0.35083085	1.23217845
-0.44722247	-0.34995848	1.23217130
-0.44612628	-0.34961602	1.23216355
-0.44612724	-0.34874266	1.23215628
-0.44573256	-0.34804216	1.23214865
-0.44524115	-0.34787887	1.23214519
-0.44420576	-0.34667152	1.23213053
-0.44400841	-0.34632123	1.23212671
-0.44332570	-0.34580854	1.23211944
-0.44304460	-0.34544653	1.23211515
-0.44293693	-0.34510881	1.23211181
-0.44226035	-0.34459692	1.23210454
-0.44154769	-0.34408006	1.23209715
-0.44161451	-0.34353858	1.23209286
-0.44064388	-0.34321374	1.23208582
-0.44003987	-0.34216127	1.23207438
-0.43948293	-0.34198874	1.23207045
-0.43891382	-0.34181458	1.23206651
-0.43839353	-0.34077385	1.23205554
-0.43796211	-0.34061891	1.23205233
-0.43732220	-0.33956134	1.23204064
-0.43708897	-0.33888349	1.23203409
-0.43649596	-0.33870605	1.23202991
-0.43656868	-0.33816534	1.23202574
-0.43592784	-0.33765852	1.23201871
-0.43552032	-0.33750695	1.23201561
-0.43514961	-0.33713242	1.23201084
-0.43458641	-0.33663642	1.23200417
-0.43408921	-0.33647227	1.23200059
-0.43340057	-0.33595884	1.23199320
-0.43317926	-0.33560514	1.23198926
-0.42536473	-0.33337712	1.23193574
-0.42196178	-0.33256179	1.23191369
-0.42087835	-0.33134776	1.23189867
-0.41540968	-0.32995972	1.23186266
-0.40265852	-0.32681909	1.23177922
-0.40066352	-0.32616180	1.23176479
-0.40043026	-0.32580650	1.23176086
-0.39701530	-0.32498953	1.23173869
-0.39561421	-0.32460433	1.23172927
-0.39439160	-0.32414967	1.23171997
-0.39415920	-0.32356638	1.23171413
-0.39382350	-0.32342482	1.23171139
-0.39119971	-0.32258496	1.23169267
-0.39087081	-0.32189366	1.23168540
-0.38985234	-0.32156211	1.23167813
-0.38826498	-0.32105628	1.23166680
-0.38668346	-0.32055140	1.23165548
-0.38579756	-0.31968758	1.23164439
-0.38564205	-0.31934318	1.23164082
-0.38551044	-0.31900209	1.23163736
-0.38436049	-0.31865209	1.23162937
-0.38425285	-0.31831443	1.23162603
-0.38314471	-0.31797028	1.23161817
-0.38023889	-0.31731912	1.23159969
-0.21226728	-0.28310007	1.23056054
-0.21196131	-0.28328544	1.23056078
-0.21145731	-0.28399366	1.23056436
-0.20448303	-0.28353560	1.23052919
-0.20308089	-0.28337851	1.23052156
-0.20122960	-0.28338650	1.23051333
-0.20059475	-0.28320318	1.23050892
-0.20016234	-0.28359890	1.23051023
-0.19985062	-0.28442866	1.23051572
-0.19846554	-0.28450200	1.23051012
-0.19777706	-0.28463373	1.23050809
-0.19723704	-0.28501436	1.23050880
-0.19667909	-0.28539252	1.23050940
-0.19634914	-0.28557459	1.23050940
-0.19561008	-0.28767422	1.23052347
-0.19470444	-0.28823179	1.23052394
-0.19325462	-0.28806794	1.23051608
-0.19255912	-0.28842685	1.23051596
-0.19056416	-0.28809220	1.23050416
-0.18935949	-0.28828526	1.23050034
-0.18907146	-0.28847313	1.23050070
-0.18820256	-0.28848511	1.23049688
-0.18563266	-0.28797546	1.23048103
-0.18506870	-0.28835276	1.23048162
-0.18249282	-0.28784224	1.23046577
-0.18078485	-0.28787044	1.23045838
-0.17963406	-0.28807104	1.23045480
-0.17823188	-0.28791392	1.23044717
-0.17526048	-0.28725350	1.23042834
-0.17257681	-0.28672799	1.23041201
-0.17192242	-0.28796604	1.23041928
-0.16993940	-0.28763306	1.23040760
-0.16963953	-0.28781918	1.23040771
-0.16842273	-0.28768802	1.23040116
-0.16738659	-0.28767648	1.23039639
-0.16669106	-0.28771275	1.23039365
-0.15323630	-0.28401732	1.23030245
-0.14857468	-0.28338766	1.23027635
-0.14752056	-0.28305095	1.23026872
-0.12706509	-0.27507749	1.23011076
-0.11666141	-0.27030674	1.23002446
-0.07374198	-0.24933335	1.22965777
-0.06281880	-0.24297126	1.22955596
-0.04737537	-0.23315072	1.22940516
-0.04397999	-0.23091236	1.22937143
-0.03160876	-0.22231714	1.22924459
-0.02156655	-0.21497665	1.22913861
0.04087297	-0.15610290	1.22837055
