//X	Y	Z
-0.25759920	0.49762365	3.45357919
-0.26076660	0.49700150	3.45357561
-0.26680377	0.49487665	3.45356894
-0.27442890	0.49199858	3.45356035
-0.30654541	0.47794628	3.45352364
-0.30931619	0.47626990	3.45352054
-0.31814450	0.46884248	3.45350981
-0.32548374	0.46231329	3.45350099
-0.32697031	0.46083036	3.45349908
-0.32668525	0.46009570	3.45349932
-0.32700181	0.45973894	3.45349908
-0.32840303	0.45828557	3.45349717
-0.32875621	0.45789641	3.45349693
-0.32910946	0.45750716	3.45349646
-0.32931572	0.45710897	3.45349598
-0.32953435	0.45674628	3.45349574
-0.32985097	0.45638952	3.45349550
-0.33198306	0.45422873	3.45349288
-0.33293235	0.45301956	3.45349169
-0.33294275	0.45260945	3.45349145
-0.33396643	0.45161331	3.45349026
-0.33425829	0.45118558	3.45348978
-0.33447695	0.45082292	3.45348954
-0.33514675	0.45007697	3.45348883
-0.33543861	0.44964930	3.45348835
-0.33557168	0.44931605	3.45348811
-0.33655804	0.44821346	3.45348692
-0.33670101	0.44733116	3.45348668
-0.33735892	0.44668868	3.45348597
-0.33807769	0.44594574	3.45348501
-0.33834556	0.44558609	3.45348477
-0.33884501	0.44506678	3.45348406
-0.33864754	0.44474819	3.45348430
-0.33975688	0.44372252	3.45348287
-0.33985209	0.44314387	3.45348263
-0.34058350	0.44243649	3.45348167
-0.34105742	0.44167852	3.45348120
-0.34136164	0.44128636	3.45348072
-0.34167823	0.44092959	3.45348048
-0.34187216	0.44049597	3.45348001
-0.34235838	0.43977356	3.45347953
-0.34272397	0.43941981	3.45347905
-0.34267297	0.43897122	3.45347905
-0.34296334	0.43823686	3.45347857
-0.34405804	0.43673006	3.45347714
-0.34425196	0.43629634	3.45347691
-0.34420097	0.43584773	3.45347691
-0.34450519	0.43545553	3.45347643
-0.34489352	0.43472716	3.45347595
-0.34524673	0.43433794	3.45347548
-0.34525707	0.43392777	3.45347548
-0.34537771	0.43355909	3.45347524
-0.34559661	0.43319646	3.45347500
-0.34591320	0.43283975	3.45347452
-0.34593591	0.43246511	3.45347452
-0.34588492	0.43201652	3.45347452
-0.34628713	0.43163022	3.45347404
-0.34616292	0.43124661	3.45347404
-0.34652850	0.43089285	3.45347357
-0.34647751	0.43044427	3.45347357
-0.34667143	0.43001062	3.45347333
-0.35580319	0.42197019	3.45346236
-0.35600948	0.42157209	3.45346212
-0.35761896	0.42016613	3.45346022
-0.35934883	0.41839156	3.45345807
-0.35947785	0.41716707	3.45345759
-0.35989043	0.41637075	3.45345712
-0.36005810	0.41555944	3.45345688
-0.36014241	0.41522324	3.45345664
-0.36072657	0.41450682	3.45345592
-0.36065137	0.41412619	3.45345592
-0.36057612	0.41374561	3.45345592
-0.36153933	0.41287860	3.45345473
-0.36173168	0.41213828	3.45345449
-0.36179107	0.41173112	3.45345449
-0.36187512	0.41139489	3.45345426
-0.36220282	0.41076714	3.45345378
-0.36223671	0.41014996	3.45345378
-0.36274838	0.40963757	3.45345306
-0.36269736	0.40918890	3.45345306
-0.36306301	0.40883520	3.45345259
-0.36326927	0.40843701	3.45345235
-0.36329231	0.40809104	3.45345235
-0.36379090	0.40740409	3.45345163
-0.36389887	0.40697131	3.45345140
-0.36414179	0.40654060	3.45345116
-0.36449501	0.40615138	3.45345068
-0.36481112	0.40565571	3.45345020
-0.36644307	0.40387505	3.45344830
-0.36663699	0.40344140	3.45344806
-0.36784154	0.40183711	3.45344639
-0.36766636	0.40100488	3.45344639
-0.36783600	0.40063918	3.45344615
-0.36845684	0.39989030	3.45344543
-0.36877295	0.39939454	3.45344496
-0.36918622	0.39873719	3.45344448
-0.36926958	0.39826199	3.45344424
-0.36968282	0.39760467	3.45344377
-0.37087750	0.39654949	3.45344234
-0.37076521	0.39606234	3.45344234
-0.37087280	0.39551917	3.45344210
-0.37179857	0.39451706	3.45344114
-0.37200284	0.39367324	3.45344067
-0.37204829	0.39292392	3.45344067
-0.37178952	0.39256686	3.45344067
-0.37265474	0.39169389	3.45343971
-0.37311625	0.39090046	3.45343900
-0.37333491	0.39053783	3.45343876
-0.37351644	0.39006862	3.45343852
-0.37371081	0.38977396	3.45343828
-0.37393981	0.38900113	3.45343804
-0.37436473	0.38824022	3.45343733
-0.37470561	0.38781548	3.45343685
-0.37453243	0.38742888	3.45343709
-0.37517750	0.38661197	3.45343614
-0.37596950	0.38580403	3.45343518
-0.37592888	0.38494527	3.45343518
-0.37611091	0.38461503	3.45343494
-0.37791628	0.38322112	3.45343280
-0.51099348	0.28330398	3.45327473
-0.51725221	0.27876273	3.45326734
-0.51876533	0.27776784	3.45326567
-0.51958412	0.27747649	3.45326471
-0.51997590	0.27750042	3.45326424
-0.52075839	0.27727029	3.45326352
-0.52136207	0.27809393	3.45326281
-0.52718854	0.27278033	3.45325589
-0.52906746	0.27146032	3.45325375
-0.52948201	0.27110958	3.45325303
-0.53074992	0.26998934	3.45325160
-0.53154266	0.26932040	3.45325065
-0.53250635	0.26859245	3.45324945
-0.53431135	0.26708812	3.45324731
-0.53627455	0.26543200	3.45324492
-0.53714025	0.26469797	3.45324397
-0.53878605	0.26325959	3.45324206
-0.53918833	0.26303667	3.45324159
-0.54009259	0.26271582	3.45324039
-0.54101968	0.26202032	3.45323944
-0.54189980	0.26176748	3.45323849
-0.54227769	0.26144922	3.45323801
-0.54294902	0.26100993	3.45323706
-0.54333925	0.26072720	3.45323658
-0.54393744	0.26035294	3.45323610
-0.54429138	0.26010275	3.45323563
-0.54535341	0.25951967	3.45323443
-0.55663151	0.24974236	3.45322084
-0.55759740	0.24946001	3.45321965
-0.55814856	0.24952838	3.45321918
-0.56015998	0.24773625	3.45321655
-0.56051522	0.24779263	3.45321631
-0.56159949	0.24669597	3.45321488
-0.56611443	0.24092020	3.45320916
-0.56712306	0.23930389	3.45320797
-0.56884766	0.23633137	3.45320559
-0.57011002	0.23401329	3.45320392
-0.57090884	0.23204291	3.45320272
-0.57305300	0.22447327	3.45319939
-0.57388288	0.22127245	3.45319796
-0.57415885	0.22005697	3.45319748
-0.58087218	0.18894550	3.45318556
-0.58148342	0.18610740	3.45318460
-0.58908522	0.14607835	3.45317030
-0.58968699	0.14115107	3.45316887
-0.59107471	0.12346823	3.45316482
-0.59114897	0.11029324	3.45316267
-0.59034336	0.08942745	3.45316052
-0.58980894	0.08764753	3.45316076
-0.58872741	0.08669050	3.45316172
-0.58831918	0.08573984	3.45316219
-0.58800745	0.08448848	3.45316219
-0.58754998	0.08353479	3.45316267
-0.58692801	0.08133874	3.45316291
-0.58594644	0.08083333	3.45316386
-0.58551800	0.08084191	3.45316434
-0.58486825	0.08062856	3.45316505
-0.58465445	0.07938319	3.45316505
-0.58428335	0.07853900	3.45316529
-0.58379346	0.07850909	3.45316577
-0.58363223	0.07801901	3.45316601
-0.58316314	0.07716884	3.45316625
-0.58259612	0.07631268	3.45316672
-0.58215535	0.07628578	3.45316720
-0.58183622	0.07605790	3.45316768
-0.58157587	0.07539414	3.45316768
-0.58127403	0.07359366	3.45316792
-0.58094156	0.07316260	3.45316815
-0.58051723	0.07142411	3.45316839
-0.58000267	0.07132323	3.45316887
-0.57991433	0.07073948	3.45316887
-0.57945442	0.06920117	3.45316911
-0.57902396	0.06876414	3.45316958
-0.57866472	0.06781645	3.45316982
-0.57847714	0.06694871	3.45316982
-0.57820600	0.06655613	3.45317006
-0.57738590	0.06390247	3.45317054
-0.57694590	0.06137623	3.45317078
-0.57630515	0.06044611	3.45317125
-0.57578862	0.05989959	3.45317173
-0.57517064	0.05859483	3.45317221
-0.57470441	0.05843960	3.45317268
-0.57452965	0.05766467	3.45317268
-0.57441729	0.05717757	3.45317268
-0.57425451	0.05638081	3.45317268
-0.57414222	0.05589370	3.45317292
-0.57353854	0.05507006	3.45317340
-0.57337719	0.05457996	3.45317340
-0.57271111	0.05077287	3.45317364
-0.55181861	-0.11969789	3.45317054
-0.55128562	-0.12914349	3.45316958
-0.55113542	-0.13254306	3.45316935
-0.55098450	-0.13344330	3.45316935
-0.55108726	-0.13504539	3.45316887
-0.55098730	-0.13549699	3.45316911
-0.54753792	-0.14827392	3.45317078
-0.53194058	-0.17023438	3.45318413
-0.52540350	-0.17567292	3.45319033
-0.51415879	-0.18270668	3.45320153
-0.50845253	-0.18587303	3.45320702
-0.49605149	-0.19143850	3.45321965
-0.48711264	-0.19480212	3.45322871
-0.48173165	-0.19640365	3.45323420
-0.47892484	-0.19719414	3.45323706
-0.47792053	-0.19732493	3.45323825
-0.47618282	-0.19719392	3.45324016
-0.47570544	-0.19718827	3.45324063
-0.47528887	-0.19728321	3.45324111
-0.47477436	-0.19738407	3.45324159
-0.47420046	-0.19707780	3.45324230
-0.47364932	-0.19714618	3.45324278
-0.47319615	-0.19720854	3.45324326
-0.47270641	-0.19723842	3.45324373
-0.47233856	-0.19733039	3.45324421
-0.47177508	-0.19743425	3.45324469
-0.47009748	-0.19757135	3.45324659
-0.46972984	-0.19766326	3.45324683
-0.46904618	-0.19725949	3.45324779
-0.46842134	-0.19740184	3.45324850
-0.46779627	-0.19754422	3.45324898
-0.46725753	-0.19757706	3.45324969
-0.46660843	-0.19765142	3.45325041
-0.46593663	-0.19735111	3.45325112
-0.46580359	-0.19701794	3.45325136
-0.46557260	-0.19669077	3.45325160
-0.46486193	-0.19680361	3.45325232
-0.46428806	-0.19649732	3.45325303
-0.46317261	-0.19683719	3.45325422
-0.46237743	-0.19675285	3.45325494
-0.46192473	-0.19667631	3.45325541
-0.46084800	-0.19657439	3.45325661
-0.46050715	-0.19614968	3.45325708
-0.46014032	-0.19610260	3.45325756
-0.45971116	-0.19623300	3.45325804
-0.45889041	-0.19638729	3.45325875
-0.45820674	-0.19598351	3.45325947
-0.45624638	-0.19638108	3.45326161
-0.45385760	-0.19677003	3.45326424
-0.45320016	-0.19598863	3.45326495
-0.45211029	-0.19608986	3.45326614
-0.45071366	-0.19638354	3.45326757
-0.45026302	-0.19586128	3.45326805
-0.44978556	-0.19585574	3.45326853
-0.44909939	-0.19603652	3.45326924
-0.44742143	-0.19620231	3.45327115
-0.44650233	-0.19647293	3.45327210
-0.44610015	-0.19608670	3.45327258
-0.44547528	-0.19622904	3.45327330
-0.44492617	-0.19585177	3.45327377
-0.44452175	-0.19591120	3.45327425
-0.44382405	-0.19587818	3.45327497
-0.44327295	-0.19594654	3.45327568
-0.44132346	-0.19661528	3.45327759
-0.44111753	-0.19618845	3.45327783
-0.44049233	-0.19635946	3.45327854
-0.43939090	-0.19632855	3.45327973
-0.43871707	-0.19647390	3.45328045
-0.43822646	-0.19667144	3.45328093
-0.43771279	-0.19660465	3.45328140
-0.43716168	-0.19667302	3.45328212
-0.43664688	-0.19677392	3.45328259
-0.43601137	-0.19653478	3.45328331
-0.43533790	-0.19665149	3.45328403
-0.43463984	-0.19672877	3.45328474
-0.43280029	-0.19738470	3.45328665
-0.43189400	-0.19750947	3.45328760
-0.43079126	-0.19778521	3.45328879
-0.42931151	-0.19746476	3.45329046
-0.42897069	-0.19704002	3.45329094
-0.42692477	-0.19740805	3.45329309
-0.42492580	-0.19821876	3.45329499
-0.42456025	-0.19786504	3.45329547
-0.42185134	-0.19864954	3.45329833
-0.42120224	-0.19872391	3.45329881
-0.42060417	-0.19834964	3.45329952
-0.42012626	-0.19848302	3.45330000
-0.41851148	-0.19827497	3.45330191
-0.41684550	-0.19851561	3.45330358
-0.41587982	-0.19823329	3.45330477
-0.41544253	-0.19750786	3.45330524
-0.41427740	-0.19798973	3.45330644
-0.41366494	-0.19809660	3.45330715
-0.41171545	-0.19876531	3.45330906
-0.25502956	-0.27174702	3.45346642
-0.14452288	-0.31130901	3.45357919
-0.13308892	-0.31421182	3.45359111
-0.12811971	-0.31411040	3.45359635
-0.12462033	-0.31378034	3.45360017
-0.11112518	-0.31239462	3.45361495
-0.04459418	-0.29668221	3.45368886
-0.02007073	-0.28444532	3.45371699
-0.01640722	-0.28255168	3.45372128
-0.00270614	-0.27532345	3.45373702
0.01785439	-0.26376438	3.45376086
0.02075967	-0.26203287	3.45376420
0.02197944	-0.26107728	3.45376563
0.02416277	-0.25936511	3.45376825
0.02491814	-0.25858966	3.45376921
0.02631909	-0.25713632	3.45377088
0.03715762	-0.24497168	3.45378447
0.04028673	-0.24129808	3.45378828
0.04620333	-0.23423660	3.45379567
0.05388811	-0.22036928	3.45380616
0.05494447	-0.21844937	3.45380759
0.06421179	-0.19999251	3.45382023
0.06479396	-0.19883050	3.45382094
0.08623710	-0.13424337	3.45385385
0.08953162	-0.12397885	3.45385885
0.08928917	-0.11913288	3.45385933
0.08867294	-0.11019108	3.45386004
0.08756717	-0.10930207	3.45385885
0.08743057	-0.10888293	3.45385885
0.08738311	-0.10643795	3.45385909
0.08732976	-0.10551503	3.45385933
0.08732656	-0.10479140	3.45385933
0.08739427	-0.10352850	3.45385957
0.08714631	-0.10290022	3.45385933
0.08705753	-0.10220611	3.45385933
0.08704081	-0.10125069	3.45385957
0.08709699	-0.10011990	3.45385981
0.08695838	-0.09925519	3.45385981
0.08670948	-0.09834893	3.45385957
0.08659767	-0.09800083	3.45385957
0.08654667	-0.09755222	3.45385957
0.08635712	-0.09623884	3.45385957
0.08628187	-0.09585822	3.45385957
0.08617990	-0.09496097	3.45385957
0.08617640	-0.09420867	3.45385957
0.08647513	-0.08723155	3.45386100
0.08643651	-0.08681841	3.45386100
0.08767891	-0.06692964	3.45386529
0.08768526	-0.06562822	3.45386553
0.08747980	-0.06352709	3.45386577
0.08722033	-0.06303100	3.45386553
0.08715339	-0.06179457	3.45386553
0.08732389	-0.05618092	3.45386672
0.08699223	-0.05325051	3.45386672
0.08695161	-0.05239174	3.45386672
0.08705238	-0.05034401	3.45386720
0.08658686	-0.05024613	3.45386672
0.08666970	-0.04696501	3.45386720
0.08654551	-0.04658139	3.45386720
0.08629860	-0.04612083	3.45386696
0.08614768	-0.04522057	3.45386696
0.08613178	-0.04443279	3.45386720
0.08608079	-0.04398417	3.45386720
0.08602957	-0.04353552	3.45386720
0.08579506	-0.04311042	3.45386696
0.08570743	-0.04269430	3.45386696
0.08560194	-0.04104478	3.45386696
0.08547799	-0.04066119	3.45386696
0.08525383	-0.03982595	3.45386696
0.08507992	-0.03930034	3.45386672
0.08490473	-0.03846810	3.45386672
0.08479236	-0.03798100	3.45386672
0.08483782	-0.03723170	3.45386672
0.08491862	-0.03614327	3.45386696
0.08453842	-0.03601585	3.45386672
0.08451216	-0.03563821	3.45386672
0.08454548	-0.03485344	3.45386696
0.08440891	-0.03443433	3.45386672
0.08432135	-0.03401821	3.45386672
0.08401281	-0.03351912	3.45386648
0.08376595	-0.03305854	3.45386624
0.08322600	-0.03274767	3.45386577
0.08323552	-0.03216988	3.45386577
0.08271949	-0.03176235	3.45386529
0.08274101	-0.03110971	3.45386553
0.08231211	-0.03097934	3.45386505
0.08235624	-0.02992341	3.45386529
0.08209783	-0.02959497	3.45386505
0.08178803	-0.02878928	3.45386481
0.08182864	-0.02698106	3.45386505
0.08113870	-0.02604791	3.45386457
0.08063658	-0.02598253	3.45386386
0.08732928	0.03627956	3.45388055
0.10438715	0.18970002	3.45392179
0.10450156	0.19140562	3.45392227
0.10503903	0.19167936	3.45392299
0.10525368	0.19293332	3.45392323
0.10563160	0.19325155	3.45392370
0.10578263	0.19498968	3.45392418
0.10627116	0.19526641	3.45392466
0.10664506	0.19647589	3.45392537
0.10689718	0.19759475	3.45392585
0.10721371	0.19795145	3.45392609
0.10756662	0.19836932	3.45392656
0.10791665	0.19948216	3.45392704
0.10818145	0.20045516	3.45392752
0.10839960	0.20095682	3.45392776
0.10851958	0.20146449	3.45392799
0.10877553	0.20172070	3.45392847
0.10904118	0.20252603	3.45392871
0.10934466	0.20305726	3.45392919
0.10951230	0.20386860	3.45392942
0.10963020	0.20485052	3.45392966
0.11003238	0.20523676	3.45393038
0.11010358	0.20574740	3.45393038
0.11072797	0.20574403	3.45393109
0.11107564	0.20733117	3.45393181
0.11114731	0.20770282	3.45393181
0.11132887	0.20817199	3.45393205
0.11149427	0.20942900	3.45393252
0.11210611	0.20965309	3.45393324
0.11328423	0.21147175	3.45393467
0.11421150	0.21499753	3.45393634
0.11528608	0.22085042	3.45393825
0.11581528	0.22290672	3.45393920
0.11632580	0.22369713	3.45393991
0.11736625	0.22640480	3.45394135
0.11820060	0.23399101	3.45394325
0.11734918	0.25688481	3.45394588
0.11260206	0.26695144	3.45394230
0.11078596	0.27059162	3.45394087
0.10844097	0.27481386	3.45393896
0.10481378	0.28111696	3.45393610
0.09686062	0.28838927	3.45392871
0.05628821	0.31922883	3.45388961
0.05586058	0.31905261	3.45388913
0.05195379	0.32217252	3.45388532
0.05099827	0.32230037	3.45388436
0.04946551	0.32287416	3.45388293
0.04884073	0.32301646	3.45388222
0.04582354	0.32430005	3.45387912
0.04545799	0.32394633	3.45387864
0.04445770	0.32318583	3.45387745
0.04351476	0.32327813	3.45387650
0.04307321	0.32344401	3.45387602
0.04255942	0.32340589	3.45387554
0.04127294	0.32365814	3.45387411
0.04074648	0.32365549	3.45387363
0.03966653	0.32430589	3.45387244
0.03920296	0.32395813	3.45387197
0.03866202	0.32443669	3.45387149
0.03719211	0.32466531	3.45387006
0.03601393	0.32532167	3.45386887
0.03490132	0.32504830	3.45386744
0.03416663	0.32509309	3.45386672
0.03280309	0.32617155	3.45386553
0.03238860	0.32582086	3.45386505
0.03096747	0.32604656	3.45386338
0.03060192	0.32569277	3.45386291
0.02975488	0.32622474	3.45386219
0.02911615	0.32670921	3.45386147
0.02772337	0.32611164	3.45386004
0.02723354	0.32614157	3.45385957
0.02621493	0.32675344	3.45385838
0.02566373	0.32682183	3.45385790
0.02464688	0.32698810	3.45385671
0.02341205	0.32665271	3.45385551
0.02107048	0.32748425	3.45385313
-0.10017703	0.44828907	3.45374084
-0.10531379	0.45268166	3.45373607
-0.10705902	0.45419416	3.45373440
-0.10747908	0.45504141	3.45373416
-0.10901581	0.45650646	3.45373273
-0.10928696	0.45689908	3.45373249
-0.10990295	0.45775819	3.45373201
-0.11006379	0.45810926	3.45373178
-0.11042184	0.45877898	3.45373154
-0.11123458	0.45989940	3.45373082
-0.11127435	0.46050885	3.45373082
-0.11249471	0.46233067	3.45372987
-0.11254567	0.46277925	3.45372987
-0.11374989	0.46381328	3.45372868
-0.11528686	0.46527833	3.45372725
-0.11615057	0.46684736	3.45372653
-0.11828941	0.46882945	3.45372462
-0.12017122	0.47076103	3.45372272
-0.12121615	0.47175059	3.45372176
-0.13017428	0.47929269	3.45371342
-0.13225180	0.48123616	3.45371151
-0.13377635	0.48266584	3.45371008
-0.16467674	0.49704421	3.45367885
-0.18038976	0.50152218	3.45366287
-0.19318074	0.50402749	3.45364928
